# .PCD v0.7 - Point Cloud Data file format
VERSION 0.7
FIELDS x y z
SIZE 4 4 4
TYPE F F F
COUNT 1 1 1
WIDTH 1565
HEIGHT 1
VIEWPOINT 0 0 0 1 0 0 0
POINTS 1565
DATA ascii
52.206608 -38.436466 -1004.5716
-36.954781 -37.037762 -1004.5431
-36.094868 -37.112782 -1004.549
52.353645 -37.118305 -1004.4957
-37.106834 -35.639065 -1004.4664
-36.137241 -35.651485 -1004.5358
52.468689 -35.714642 -1004.4757
-37.9813 -33.924225 -1004.3826
-36.998569 -34.391918 -1004.5906
52.633587 -34.254601 -1004.5529
-37.898758 -32.77562 -1004.57
-37.143494 -32.811447 -1004.5719
-36.168301 -32.328701 -1004.05
52.829826 -32.923889 -1004.4545
53.2803 -32.252102 -1005.09
-37.882473 -31.705975 -1004.685
-37.041821 -31.460045 -1004.464
-36.276199 -31.7614 -1004
52.925762 -31.400398 -1004.5301
53.244801 -31.9028 -1004.09
-37.944901 -29.507999 -1004.46
-37.084595 -30.099691 -1004.5665
52.965473 -29.88203 -1004.5285
53.277222 -30.188862 -1004.52
-37.937641 -28.64296 -1004.438
-37.089417 -28.798536 -1004.5192
52.93145 -28.743423 -1004.3387
53.49535 -28.627237 -1004.5538
-37.935986 -27.412699 -1004.4467
-37.020187 -27.300224 -1004.5048
53.060101 -27.462 -1004.18
53.573841 -27.162823 -1004.4807
-37.932243 -26.08576 -1004.524
-36.996639 -25.858339 -1004.3944
53.594784 -25.909393 -1004.6508
-37.846966 -24.663666 -1004.39
-37.075455 -24.465345 -1004.4421
53.739449 -24.478798 -1004.5667
-37.047562 -23.10512 -1004.5505
-36.341599 -23.247032 -1004.32
53.078949 -23.027248 -1004.385
53.80125 -22.992271 -1004.495
-36.937859 -21.656086 -1004.6038
-36.325069 -21.693466 -1004.3533
53.746307 -21.687836 -1004.5511
-37.003601 -20.310818 -1004.5007
-36.322487 -20.456829 -1004.4429
53.842365 -20.31402 -1004.5174
-37.057312 -18.898432 -1004.4543
-36.237598 -18.941772 -1004.4843
53.796013 -18.868723 -1004.487
-36.873367 -17.421932 -1004.37
-36.17524 -17.48868 -1004.576
53.791721 -17.512026 -1004.5389
-36.848618 -16.036516 -1004.5009
-36.142227 -16.069588 -1004.5566
53.746342 -16.196138 -1004.5482
-36.75169 -14.684975 -1004.5159
-35.87257 -14.65952 -1004.451
53.806015 -14.695143 -1004.5589
-36.800537 -13.210887 -1004.5913
-35.909576 -13.23118 -1004.5601
53.826374 -13.305185 -1004.4235
-36.754486 -11.969368 -1004.4089
-35.895256 -11.832483 -1004.4987
52.948601 -11.6843 -1004.9
53.713123 -11.931938 -1004.4515
-36.576267 -10.597178 -1004.5085
-35.690266 -10.49336 -1004.4653
53.658398 -10.615415 -1004.3862
-36.566635 -9.3376074 -1004.3167
-35.752014 -9.1966591 -1004.6877
53.857857 -9.1585302 -1004.4368
-39.9174 -7.2178001 -1004.99
-37.0177 -7.4400301 -1004.67
-35.654007 -7.6121368 -1004.5319
54.077049 -7.6615753 -1004.6931
54.9226 -7.69801 -1004.34
-35.714138 -6.3154855 -1004.3993
-34.844425 -6.2677498 -1004.2675
54.061127 -6.2767115 -1004.3765
54.599998 -6.68613 -1004.92
-36.863602 -5.2283001 -1004.13
-35.462543 -5.001061 -1004.559
-34.710953 -4.8552523 -1004.6077
53.97554 -4.8997169 -1004.5549
-35.388924 -3.4781616 -1004.299
-34.591019 -3.4464281 -1004.4791
53.184101 -3.2771299 -1004.29
53.874493 -3.6408474 -1004.6368
54.898651 -3.3828101 -1004.645
-35.165878 -2.1464562 -1004.6837
-34.499825 -2.0447035 -1004.5249
52.928402 -1.9981889 -1004.5289
53.655819 -2.2741323 -1004.4824
-35.0592 -1.0236927 -1004.5733
-34.259129 -0.60536593 -1004.4767
52.817219 -0.56399298 -1004.5933
53.440723 -0.61041665 -1004.615
-34.201733 0.64245164 -1004.42
-33.479401 0.92529929 -1004.4951
52.805965 0.66833913 -1004.5746
53.340885 0.77246696 -1004.5212
-34.246006 2.0440841 -1004.4766
-33.176239 2.0831401 -1004.58
52.659309 2.1254861 -1004.5437
53.451202 2.0102849 -1004.3483
-34.090061 3.31809 -1004.4684
-33.172256 3.5161791 -1004.5178
51.722099 3.6673601 -1004.83
52.551167 3.3981864 -1004.3815
53.305164 3.5891135 -1004.7734
-34.031067 4.7983832 -1004.4109
-33.17252 5.0256577 -1004.5273
51.502949 5.224925 -1004.44
52.329803 4.9249825 -1004.5819
-33.864399 6.1591592 -1004.405
-32.933846 6.5164599 -1004.5231
51.508614 6.4117565 -1004.45
52.244358 6.153779 -1004.5146
-33.876999 7.0201998 -1003.82
-32.983746 7.7437639 -1004.4639
50.242802 7.7996202 -1005.16
51.28875 7.7240653 -1004.4001
52.077045 7.6640558 -1004.549
-32.846802 9.1242723 -1004.5853
-31.957535 9.0349121 -1004.4482
50.329399 8.9082603 -1004.91
51.291027 9.2618542 -1004.528
51.94733 8.8699551 -1004.3934
-34.266499 10.3354 -1004.46
-32.890465 10.526552 -1004.4781
-31.750847 10.716922 -1004.5123
50.129951 10.617599 -1004.685
51.028667 10.513936 -1004.4715
-32.531239 11.694081 -1004.338
-31.545528 12.005858 -1004.5652
50.096127 12.0442 -1004.5375
50.922596 11.781753 -1004.5795
-32.360699 13.8828 -1003.94
-31.47415 13.297686 -1004.5292
-30.468149 13.384151 -1004.3975
49.897057 13.309745 -1004.6936
50.781052 13.154485 -1004.6123
-31.149193 14.694683 -1004.5518
-30.323614 14.669625 -1004.5558
49.808968 14.807343 -1004.5551
50.589657 14.598123 -1004.4944
-30.852835 15.893666 -1004.03
-30.160191 16.129444 -1004.5566
-29.375999 16.617901 -1004.72
49.66069 16.158724 -1004.3724
50.8437 15.993099 -1004.29
-29.898602 17.3368 -1004.4945
-28.887348 17.598574 -1004.3365
48.912861 17.598099 -1004.5841
49.685677 17.449554 -1004.5238
-29.550301 18.49865 -1004.3726
-28.76046 18.890247 -1004.5306
-27.938751 19.35585 -1004.6801
48.640152 18.811399 -1004.685
49.417542 18.769802 -1004.4318
-28.564341 20.245314 -1004.5043
-27.588499 20.237566 -1004.6317
48.399342 20.220379 -1004.4531
49.174549 20.337433 -1004.6033
-28.294783 21.472628 -1004.3728
-27.415266 21.789793 -1004.635
48.130779 21.618107 -1004.6553
49.16605 21.712751 -1004.3738
-28.255199 22.6322 -1004.41
-27.315842 23.001057 -1004.52
-26.350451 23.3909 -1005.155
48.563217 23.116516 -1004.4
49.41 23.173866 -1004.3233
-28.3736 24.493601 -1004.51
-27.318893 24.450354 -1004.4356
-26.508799 24.565132 -1004.4566
48.427624 24.57868 -1004.373
49.405533 24.702833 -1004.51
-27.32972 25.854078 -1004.4493
-26.400583 25.720133 -1004.5334
48.214252 25.939682 -1004.5195
49.075397 25.658134 -1004.4567
-27.148577 27.204103 -1004.5714
-26.278311 27.424114 -1004.5272
47.408745 27.364758 -1004.6557
48.252144 27.196064 -1004.4965
-26.998812 28.597012 -1004.4437
-26.118563 28.856554 -1004.499
47.21283 28.662249 -1004.5009
48.217682 28.737333 -1004.5217
49.229198 28.8325 -1003.97
-26.90345 29.804073 -1004.335
-26.02195 30.015499 -1004.3619
-25.08865 30.203548 -1004.975
46.861221 30.103626 -1004.5273
48.173584 29.993416 -1004.6167
-25.709156 31.346895 -1004.4819
-24.816431 31.556389 -1004.5632
46.069336 31.605835 -1004.625
46.946716 31.420757 -1004.5363
47.662399 30.806499 -1004.14
49.196499 31.715799 -1004.64
-25.43243 32.782574 -1004.53
-24.516966 32.920692 -1004.5467
-23.7304 33.456001 -1005.04
45.826851 32.885124 -1004.5045
46.811302 32.864342 -1004.3931
-25.44265 34.193298 -1004.28
-24.43819 34.264782 -1004.5034
-23.523239 34.431259 -1004.574
45.515869 34.258091 -1004.4958
46.547386 34.344028 -1004.5757
-24.16223 35.551479 -1004.4063
-23.319315 35.803001 -1004.6976
44.613003 36.204475 -1004.6975
45.415771 35.592163 -1004.5844
46.306965 35.367432 -1004.26
-23.147243 37.142044 -1004.3514
-22.230551 37.307549 -1004.54
44.407005 37.185429 -1004.62
45.405205 37.045654 -1004.4387
-22.68597 38.430321 -1004.616
-22.140856 38.653076 -1004.4389
42.699402 39.187901 -1004.18
44.149902 38.532646 -1004.6207
45.267071 38.615765 -1004.4334
-22.690849 39.612747 -1004.055
-21.713823 39.859505 -1004.5026
16.684 40.416901 -1003.91
20.126101 40.4072 -1004.93
23.005501 40.476501 -1004.62
26.4016 40.388 -1003.98
27.308035 40.349701 -1004.5366
29.214199 40.2356 -1004.68
29.820351 39.968849 -1004.585
31.866199 39.580502 -1003.86
32.760498 40.541599 -1004.75
34.066898 40.246304 -1004.4567
35.132 39.762199 -1004.1
37.373734 40.119167 -1003.9833
38.456833 39.829266 -1004.8333
39.775856 40.110455 -1004.4814
41.330219 40.024361 -1004.6659
42.904766 39.848934 -1004.5984
43.943752 39.699265 -1004.5334
45.039001 39.461964 -1004.2866
-21.461252 41.152798 -1004.3964
-20.7031 41.612232 -1004.8934
-3.0524001 41.899799 -1003.9
-2.75354 41.859402 -1004.36
0.99210566 41.9506 -1004.4466
2.2402375 41.714176 -1004.005
3.3910387 41.709385 -1004.4816
4.6720366 41.922031 -1004.74
6.23245 41.373253 -1004.72
8.9343214 41.578358 -1004.4556
10.653625 41.364201 -1004.5825
12.04982 41.551781 -1004.494
14.5264 41.530632 -1004.6458
16.361334 41.436184 -1004.5967
17.350822 41.237633 -1004.7034
18.587154 41.394432 -1004.279
20.083549 41.304176 -1004.425
21.92115 41.134499 -1004.24
23.263599 41.148262 -1004.5087
24.418402 41.255001 -1004.3933
25.799368 41.398602 -1004.8
27.178949 40.750801 -1004.95
28.336451 40.8773 -1004.07
30.488501 41.075668 -1004.4933
31.519249 40.889099 -1004.42
33.893299 40.747349 -1004.715
35.7551 40.851398 -1005.15
36.867466 40.738434 -1004.7734
39.458199 40.655499 -1004.92
41.686699 40.941551 -1005.025
42.307701 40.740299 -1004.46
43.538101 40.85915 -1004.42
-21.18055 42.567951 -1004.005
-20.585512 42.69495 -1004.5314
-18.9484 43.071449 -1004.38
-17.407658 42.967831 -1004.6328
-16.197767 42.916931 -1004.5466
-14.8302 42.949833 -1004.715
-13.296966 42.791378 -1004.6734
-12.000401 42.661266 -1004.4766
-10.67115 42.615524 -1004.4375
-9.0712099 42.740097 -1004.755
-7.9561672 42.616425 -1004.37
-5.8307948 42.44305 -1004.6725
-5.1381402 42.663601 -1004.8734
-3.7908432 42.4594 -1004.8066
-2.280715 42.383076 -1004.72
-1.0179447 42.197952 -1004.78
0.93020183 42.25898 -1004.506
3.4475701 42.068298 -1004.5
5.50488 42.384102 -1004.43
6.6314402 42.128101 -1004.42
7.6748047 42.023998 -1004.615
13.628551 42.950802 -1004.6849
14.762572 42.763397 -1004.4819
16.161718 42.684757 -1004.742
17.611828 42.736774 -1004.3028
19.24745 42.53775 -1004.145
-20.517 43.446301 -1004.24
-18.711166 43.493999 -1004.5999
13.787018 44.142803 -1004.5034
14.951937 44.02985 -1004.4713
16.053272 44.212917 -1004.6582
17.125099 44.135731 -1004.7934
19.9587 43.9081 -1004.42
13.897533 45.680866 -1004.0566
14.796467 45.379322 -1004.5724
16.035822 45.47517 -1004.5635
17.261856 45.634186 -1004.6355
18.638901 45.883202 -1005.09
14.75354 46.814419 -1004.434
16.135563 46.664799 -1004.3087
17.5655 46.700382 -1004.42
18.852358 46.963772 -1004.5572
14.683576 48.433575 -1004.3676
16.130039 48.040001 -1004.486
19.538601 48.337997 -1004.23
20.225645 48.449829 -1004.5618
13.6693 49.0313 -1003.95
14.652449 49.800217 -1004.43
15.5257 49.425674 -1004.5225
18.870701 49.950699 -1003.87
20.368637 49.595566 -1004.4081
21.077833 49.937634 -1004.19
13.4258 51.062073 -1004.535
14.845901 51.05545 -1004.5659
15.8528 51.42524 -1004.5114
16.875099 51.5275 -1004.68
19.5497 51.452801 -1003.87
20.607513 51.075539 -1004.405
21.26128 51.377899 -1004.922
24.2019 51.1105 -1005.14
14.2706 51.887001 -1003.95
16.06765 52.355927 -1004.225
17.3897 52.074348 -1004.715
20.471081 52.323059 -1004.3441
25.1028 52.8531 -1004.84
15.2748 53.655651 -1004.13
15.9616 53.960884 -1004.5831
17.0065 54.547401 -1005.16
20.747942 53.803459 -1004.3143
21.461565 53.983341 -1004.7373
14.73378 55.241619 -1004.464
16.226377 55.23558 -1004.4377
17.275742 55.494114 -1004.4757
20.637716 55.253986 -1004.655
21.64119 55.31535 -1004.738
15.3038 56.953999 -1004.9
16.113489 56.797806 -1004.3312
17.401072 56.787098 -1004.7629
18.712801 56.943268 -1004.6167
20.696863 56.661037 -1004.4113
21.95517 56.602104 -1004.226
22.586374 56.857075 -1004.43
15.2064 58.683102 -1004.85
16.267965 58.067818 -1004.5978
17.396601 58.104465 -1004.51
18.949366 57.992657 -1004.4111
20.465891 58.111172 -1004.5201
21.763451 58.144234 -1004.2462
22.748571 58.22477 -1004.4901
13.9398 58.905899 -1004.97
16.329845 59.314415 -1004.4772
17.473726 59.565334 -1004.578
18.815491 59.557106 -1004.455
20.62384 59.371838 -1004.39
21.615456 59.625481 -1004.5724
22.8829 59.44696 -1004.4462
23.83255 59.710503 -1004.785
16.298615 60.935371 -1004.4543
17.534485 60.907181 -1004.4406
18.648361 60.698029 -1004.3288
20.553001 61.194099 -1004.09
21.554457 60.573956 -1004.4928
23.149656 60.559471 -1004.4057
16.271891 62.281277 -1004.5083
17.171343 61.836342 -1004.5557
38.397499 -75.606796 -1003.26
37.626301 -75.423401 -1002.42
38.551628 -75.001663 -1003.0588
39.341049 -74.363251 -1003.45
38.93047 -74.037041 -1002.7266
39.805874 -73.440392 -1003.2515
40.654598 -73.427696 -1003.46
-27.049067 -72.032906 -1003.1425
-26.34856 -72.415703 -1003.022
40.422058 -72.34996 -1002.918
41.094551 -71.71534 -1003.1633
-28.0247 -70.534103 -1003.47
-27.419554 -70.85524 -1003.1507
41.447372 -70.700226 -1003.0527
-28.339073 -69.357826 -1003.1783
-27.820816 -69.495583 -1002.9683
42.366581 -69.269295 -1003.15
-28.828388 -67.921097 -1003.0994
-27.9111 -68.521301 -1003.09
42.925297 -68.006531 -1002.999
43.595947 -67.646652 -1003.16
-31.2113 -66.598404 -1003.49
-29.725634 -66.229202 -1003.0844
-29.200768 -66.8032 -1003.2651
43.240833 -66.726303 -1003.0566
43.857544 -66.455467 -1003.22
-31.3113 -65.412003 -1002.955
-29.948719 -65.111061 -1002.9886
44.227303 -65.161781 -1003.1387
-32.290401 -63.050598 -1003.8
-30.87315 -63.276848 -1002.64
-30.485439 -63.659081 -1003.141
44.620857 -63.970959 -1002.688
45.012093 -63.578533 -1003.2111
-31.072691 -62.189835 -1003.0825
-30.610601 -62.784752 -1003.165
45.602417 -62.262409 -1003.0809
-33.1633 -60.316101 -1003.75
-31.492714 -60.873676 -1003.1716
45.962528 -60.981777 -1003.0167
46.367001 -60.25985 -1003.1
-32.998837 -59.432697 -1003.3801
-31.786518 -59.493793 -1003.0723
46.126701 -59.98 -1002.5
46.644974 -59.505756 -1003.2139
-33.850899 -57.588402 -1003.33
-32.615219 -58.19384 -1003.1871
-31.990067 -58.156601 -1002.9434
46.928822 -58.239441 -1003.0207
47.659698 -57.674801 -1003.63
-34.009499 -56.648975 -1003.165
-32.772449 -56.597488 -1003.09
-32.082298 -57.164398 -1002.82
47.305103 -57.2216 -1003.2141
47.834423 -56.336891 -1003.1267
-34.02573 -55.163059 -1003.1586
-33.075901 -55.257309 -1002.9938
48.316338 -55.285366 -1003.0953
49.0984 -54.883301 -1003.36
-34.357468 -53.829384 -1003.1689
-33.275288 -53.885975 -1003.1671
46.249001 -53.793701 -1003.18
48.431438 -53.901371 -1003.0194
-35.357201 -52.236198 -1003.23
-34.014179 -52.570564 -1002.9711
48.305138 -52.462204 -1003.1285
-35.431679 -51.079041 -1003.106
-34.270752 -51.211945 -1003.0908
48.66127 -51.134216 -1002.9988
49.098598 -50.705502 -1003.2425
-35.409679 -49.731415 -1003.2034
-34.403675 -49.680996 -1003.1838
48.804768 -49.950802 -1003.0601
49.269279 -49.609894 -1003.1261
-35.659019 -48.276817 -1003.114
-34.490532 -48.31134 -1003.0579
48.205551 -48.45565 -1002.98
49.621212 -48.343204 -1003.1029
-35.690945 -46.758656 -1003.0343
-34.694389 -46.963585 -1003.088
50.263622 -47.015339 -1002.788
50.65308 -46.765297 -1003.3326
-35.666771 -45.427109 -1003.1031
-34.894474 -45.404724 -1003.1851
50.078503 -45.694996 -1002.79
50.75256 -45.42997 -1003.046
-36.463299 -43.827068 -1003.3967
-35.493595 -44.003563 -1003.2363
-34.943977 -44.212646 -1002.8025
51.006718 -44.021 -1003.0642
-36.626125 -42.708275 -1003.235
-35.508656 -42.649826 -1003.1118
51.176056 -42.572048 -1003.1075
-36.655666 -41.393551 -1002.9434
-35.721645 -41.406254 -1002.9401
51.44157 -41.264507 -1003.0508
51.876537 -41.170132 -1003.5167
-36.799286 -39.919868 -1003.0557
-35.830044 -39.919701 -1003.0643
51.443859 -39.954521 -1002.9778
52.127331 -39.995129 -1003.05
-36.852116 -38.471111 -1003.3543
-35.86615 -38.463013 -1003.197
51.642799 -38.556725 -1002.8725
52.135742 -38.432941 -1003.0778
-36.875359 -37.064873 -1003.1528
-36.003246 -37.141479 -1003.052
51.792099 -37.353699 -1003.01
52.121063 -37.160179 -1003.092
-36.997879 -35.79599 -1003.0625
-36.123703 -35.575474 -1002.955
52.276661 -35.682957 -1003.0378
-37.878567 -34.274765 -1003.0817
-36.952087 -34.304073 -1003.1528
52.552364 -34.30151 -1003.1971
53.690765 -34.304867 -1003.3066
-37.9617 -33.408401 -1003.71
-37.129692 -32.872059 -1003.0305
52.598488 -32.927517 -1003.0107
53.316502 -33.321201 -1003.15
-37.819 -31.719801 -1003.34
-37.103497 -31.33218 -1003.0159
-36.2953 -32.062401 -1002.85
52.83057 -31.586454 -1003.0746
53.3601 -31.470699 -1003.41
-37.872776 -29.764076 -1003.02
-37.068401 -30.149836 -1003.0627
-36.31525 -30.237598 -1002.915
52.859715 -30.137888 -1003.2478
53.516178 -30.002575 -1002.7325
-37.92672 -28.686243 -1003.228
-36.757473 -28.70075 -1003.0941
-36.2729 -28.287901 -1003.11
52.984852 -28.915382 -1003.105
53.363785 -28.486887 -1003.165
-37.905678 -27.354099 -1003.324
-36.987713 -27.239546 -1003.0754
-36.056301 -27.3741 -1003.26
52.980804 -27.3526 -1003.3433
53.546871 -27.231844 -1003.0257
-37.892574 -25.789324 -1003.2
-37.011276 -25.834562 -1003.1123
53.094101 -25.802952 -1003.525
53.782253 -25.850561 -1003.0782
-37.848 -25.127399 -1003.35
-37.087841 -24.518261 -1003.0306
-36.294033 -24.183565 -1002.5566
53.856152 -24.363958 -1003.0724
-37.040928 -23.167507 -1003.0654
-36.255623 -22.909748 -1003.075
53.190899 -22.983101 -1002.82
53.62188 -23.08819 -1003.1242
-37.033108 -21.62122 -1003.1079
-36.143215 -21.681372 -1003.2143
53.1553 -21.714001 -1003.44
53.670738 -21.737543 -1003.1292
-37.058228 -20.310154 -1003.0728
-36.153965 -20.29925 -1003.0566
53.628975 -20.324047 -1003.0007
-37.006046 -18.863062 -1003.0001
-36.183849 -18.93446 -1003.181
53.729671 -18.896635 -1003.1082
-37.053089 -17.538256 -1003.02
-36.10733 -17.405609 -1002.951
53.022301 -16.934401 -1002.72
53.733761 -17.404625 -1003.188
-36.964916 -16.07605 -1003.1639
-35.981579 -16.175522 -1003.054
53.708336 -16.117025 -1003.1194
-38.184898 -14.297 -1003.47
-36.824379 -14.96805 -1003.138
-36.083797 -14.581573 -1003.081
53.1534 -15.0836 -1002.84
53.733822 -14.801 -1003.1779
-36.898514 -13.267749 -1003.1425
-35.988693 -13.401882 -1002.9528
53.135799 -13.9775 -1002.47
53.757538 -13.395101 -1003.1247
-36.696659 -12.021814 -1003.0444
-35.908531 -11.950754 -1003.0361
53.677917 -11.865641 -1003.0715
-36.549416 -10.570842 -1002.9886
-35.629192 -10.382792 -1003.1263
53.123802 -10.6388 -1003.08
53.629787 -10.553361 -1003.1494
-36.505348 -9.6699953 -1003.585
-35.770721 -9.0039234 -1003.098
-34.8592 -9.3226805 -1002.93
53.879768 -9.1184216 -1003.0949
54.610802 -8.7418804 -1002.54
-35.722584 -7.6769104 -1003.1384
54.145432 -7.7422214 -1003.0613
54.6063 -7.27811 -1002.75
-35.580345 -6.182116 -1002.9956
-34.843884 -6.1306844 -1002.98
54.1278 -6.3335533 -1003.0852
-35.507885 -4.8318205 -1003.1607
-34.730782 -4.9350066 -1003.16
52.9776 -4.6884499 -1002.56
53.818401 -4.7800541 -1003.1935
54.783501 -5.3938699 -1003.085
-35.357269 -3.5146229 -1003.091
-34.487629 -3.5219841 -1003.141
53.035248 -3.5875201 -1003.125
53.605087 -3.4871752 -1003.0862
-35.292358 -2.19979 -1002.9399
-34.500546 -2.0186722 -1002.9457
52.993023 -2.0557666 -1003.1478
53.476593 -2.122484 -1003.049
-35.102951 -1.0903842 -1003.1925
-34.394016 -0.74217159 -1003.1174
52.811466 -0.65497261 -1003.1539
53.510147 -0.73099774 -1003.3267
-34.265823 0.60151017 -1003.0623
-33.519367 1.0982667 -1003.0967
52.726379 0.79186743 -1003.1455
53.372311 0.61639315 -1002.9377
-34.174641 2.0622072 -1003.015
-33.367908 2.1102991 -1003.16
52.767174 1.9528511 -1003.1172
53.289879 2.174314 -1003.288
-34.149956 3.5460141 -1003.174
-33.209515 3.5657041 -1003.1871
51.630299 3.6519499 -1003.31
52.659798 3.4964156 -1003.0475
53.444901 3.0917399 -1003.36
-35.644699 5.5640898 -1003.53
-34.209682 4.88693 -1003.1306
-33.209091 4.8935952 -1003.0291
51.582352 4.8374348 -1003.01
52.329121 4.9742355 -1003.0353
-33.919212 6.1057758 -1003.1501
-32.793331 6.2786646 -1002.9735
51.631767 6.3110428 -1003.0912
52.298389 6.2502513 -1003.0487
-33.702301 7.3961153 -1003.175
-32.943024 7.7111621 -1003.168
-32.06955 7.8301497 -1002.7925
51.333485 7.6224141 -1003.2172
52.103306 7.6343894 -1003.0142
-33.814499 8.9652557 -1002.69
-32.846001 9.0381393 -1003.0175
-32.00985 9.2215328 -1003.0724
51.280724 9.0904722 -1003.1044
52.029835 9.3696594 -1002.66
-32.72401 10.496862 -1003.0015
-31.770983 10.581824 -1003.0408
50.019199 11.1048 -1003.67
51.045547 10.380899 -1003.1021
52.0494 10.9963 -1002.41
-32.430424 11.656526 -1003.2625
-31.611454 12.004612 -1003.037
-30.6754 12.5477 -1002.5
50.321064 12.378967 -1003.09
50.982998 11.92247 -1003.1146
51.891102 11.9363 -1002.94
-31.513449 13.267864 -1003.1276
-30.580881 13.366 -1002.97
50.069252 13.33396 -1003.23
50.889885 13.387278 -1003.1454
-32.492966 14.4874 -1002.92
-31.165052 14.641187 -1003.1536
-30.345013 14.8083 -1003.0726
48.8965 14.3218 -1003.71
49.864929 14.687299 -1003.1242
50.676445 14.659134 -1003.0956
-30.985802 15.967125 -1003.23
-30.189985 16.115767 -1003.1355
-29.3736 16.770399 -1003.15
48.71545 16.266048 -1002.62
49.782936 16.154345 -1003.1018
50.548401 15.78846 -1003.0021
-30.012091 17.472149 -1003.1
-29.080442 17.717442 -1003.08
48.757301 17.435749 -1003.33
49.577789 17.534622 -1003.0831
-29.562601 18.802959 -1002.934
-28.741987 19.028515 -1003.1546
-27.9515 19.516001 -1003.72
48.707523 18.979517 -1003.1384
49.618652 18.884783 -1003.1219
-28.639473 20.319279 -1003.0378
-27.762899 20.544559 -1003.022
48.574497 20.360445 -1003.0721
49.457752 20.381283 -1002.9427
-28.355051 21.665359 -1003.057
-27.528656 21.685278 -1003.1722
48.434628 21.564383 -1003.2
49.458538 21.720776 -1003.2562
-28.300327 23.095913 -1003.0537
-27.331457 23.192741 -1003.2187
48.728832 23.046816 -1003.0733
49.532467 23.020332 -1002.9675
-28.142475 24.543699 -1002.8425
-27.256186 24.481794 -1003.0157
-26.593901 25.1695 -1003.22
48.621475 24.465666 -1003.0518
49.434418 24.31723 -1003.13
-28.098351 25.6551 -1002.73
-27.396034 25.864012 -1003.1816
-26.556801 26.2141 -1003.64
47.5121 26.4664 -1003.36
48.336548 25.864786 -1003.1387
49.226566 25.7771 -1003.175
-27.368643 27.277843 -1003.0135
-26.496841 27.487759 -1003.342
47.542664 27.678034 -1003.2767
48.268116 27.299562 -1003.029
49.564499 27.121099 -1003.65
-27.028069 28.613115 -1003.2416
-26.145824 28.826302 -1002.9662
47.339184 28.841984 -1003.0172
48.103577 28.620417 -1003.0147
-26.914612 29.802713 -1002.9325
-26.028442 30.233734 -1003.1418
47.033028 30.155252 -1003.1472
47.999168 29.991383 -1003.1289
-25.945925 31.45199 -1003.11
-24.982435 31.458918 -1003.0483
46.756668 31.546169 -1003.1475
47.811024 31.370728 -1003.0575
-25.522436 32.796627 -1003.0128
-24.576138 32.904415 -1003.066
46.026714 32.941628 -1003.1562
46.933357 32.830441 -1003.067
-25.340965 33.982365 -1002.7933
-24.517527 34.269363 -1003.0995
-23.519201 34.719501 -1003.4367
45.72546 34.306686 -1003.0691
46.731461 34.146683 -1003.2155
-24.267071 35.662132 -1003.0202
-23.244175 35.905136 -1003.3412
45.41618 35.67384 -1003.104
46.503777 35.764114 -1003.04
-24.004934 36.906902 -1002.84
-23.29534 37.036133 -1003.0854
44.703098 37.31736 -1003.2141
45.425056 37.153145 -1003.0266
46.287697 36.62085 -1002.99
-22.944695 38.544456 -1003.1038
-22.077175 38.373497 -1003.17
41.1936 38.731602 -1002.84
44.40678 38.501099 -1003.2531
45.415371 38.490898 -1003.0563
-22.599054 39.80497 -1002.8489
-21.827673 40.076683 -1003.1114
11.6926 40.520401 -1003.55
13.9597 40.48875 -1003.115
14.606 40.451099 -1002.59
16.0497 40.247047 -1002.685
17.636734 40.359398 -1003.3367
22.0278 40.444 -1002.63
22.4632 40.488602 -1003.49
25.1422 40.577801 -1003.67
26.318699 39.9361 -1003.005
27.374649 40.418098 -1002.51
28.4963 40.369148 -1003.34
29.9356 40.0471 -1002.9575
31.6707 40.373226 -1002.9475
32.888264 39.846699 -1003.1167
34.17086 40.075851 -1002.985
35.757919 39.893658 -1003.126
37.152885 40.123741 -1003.2442
38.492607 40.045647 -1002.897
39.819061 39.986748 -1003.25
41.289421 39.947979 -1002.93
42.44384 39.864319 -1002.8699
44.074276 39.850437 -1003.17
45.150833 39.493134 -1003.2734
46.342899 39.839401 -1002.69
-21.644865 41.328491 -1002.9918
-20.837101 41.186035 -1003.0633
-16.148399 41.957802 -1002.48
-15.1696 41.964802 -1002.77
-7.1483202 41.742599 -1003.19
-5.9600029 41.829666 -1003.1066
-5.0826869 41.705002 -1003.1201
-3.0033 41.4944 -1002.55
-2.3729401 41.753132 -1002.85
-0.48434427 41.817501 -1003.045
1.125597 41.63245 -1003.15
2.32675 41.798851 -1003.135
2.9484899 41.628799 -1003.17
4.9549084 41.537449 -1003.1367
6.0669203 41.211464 -1003.068
7.5305481 41.1759 -1003.2914
9.2379818 41.375278 -1003.074
10.158447 41.2122 -1002.95
11.9544 41.206249 -1003.53
13.108399 41.023453 -1003.225
14.782901 41.24675 -1003.165
16.508835 40.783298 -1002.98
17.798922 41.254021 -1003.59
19.101299 41.00275 -1003.21
20.809299 40.762402 -1003.25
21.832401 40.830601 -1003.185
22.50325 40.673851 -1003.2
24.9527 40.930801 -1003.55
25.997925 40.707623 -1003.2025
27.087418 40.821819 -1003.4017
29.752501 40.777401 -1002.88
31.132851 40.800049 -1003.515
33.970825 40.914276 -1003.2575
36.066101 40.935398 -1003.7
38.684601 40.735401 -1003.7
41.905602 40.82 -1003.72
-22.8032 42.3615 -1003.43
-21.465174 42.47504 -1003.1373
-20.34226 42.653622 -1003.3699
-18.854666 42.687214 -1003.3101
-17.529219 42.691681 -1003.0317
-16.259268 42.77417 -1003.16
-14.567441 42.346382 -1002.9761
-13.76212 42.585541 -1003.274
-11.73284 42.444519 -1003.116
-10.344272 42.389061 -1003.0319
-9.2856989 42.209499 -1002.99
-7.6207037 42.232445 -1003.278
-6.78337 42.483898 -1003.06
-4.9645567 42.210068 -1003.3699
-3.7592449 42.340748 -1003.1975
-2.5845468 42.210533 -1003.2033
-0.46917701 42.204498 -1002.65
0.78515601 42.1866 -1002.41
14.872699 42.583118 -1003.4559
16.2062 42.674175 -1003.25
18.044399 43.118202 -1003.525
18.910049 43.35635 -1003.55
14.922571 44.169518 -1003.2871
16.066175 43.742001 -1003
17.63905 44.417599 -1003.405
18.677534 44.26527 -1003.3699
19.7824 44.4114 -1003.32
14.986175 45.520649 -1002.8226
16.43088 45.70068 -1003.1901
17.621725 45.246025 -1003.175
19.197367 45.88953 -1002.78
19.886534 45.306133 -1002.7667
13.9841 47.508598 -1002.99
14.655323 46.842148 -1003.2678
15.925437 46.709862 -1003.2462
17.2857 46.967201 -1003.075
18.992699 46.894348 -1002.75
22.5585 47.1241 -1002.55
14.698025 48.340172 -1003.2426
15.87546 48.411861 -1003.026
17.145901 48.062572 -1002.8824
19.049145 48.382671 -1002.9758
19.792618 48.608223 -1003.4
22.224899 47.6064 -1002.55
13.641141 50.025818 -1002.792
14.4715 49.814743 -1003.3
19.313519 49.371922 -1002.946
20.082182 49.77153 -1003.2463
12.4846 50.955948 -1003.035
13.7969 50.7925 -1002.71
14.710044 51.155926 -1003.1755
15.469049 51.344551 -1003.435
19.32185 50.473801 -1002.66
20.118193 51.179836 -1003.1042
21.240419 51.260021 -1003.592
13.9338 52.012199 -1002.59
14.831661 52.534019 -1002.9684
15.758101 52.407478 -1003.365
19.2992 52.192501 -1003.2667
20.44441 52.486389 -1003.0591
21.520901 52.645851 -1003.275
13.5291 53.3564 -1002.93
14.801449 53.966747 -1003.1125
15.780585 53.946968 -1003.3257
20.484793 53.874268 -1002.9854
21.406151 53.779823 -1003.2375
25.104099 53.408798 -1003.72
13.6217 55.413353 -1002.8149
14.905174 55.017776 -1002.97
15.981901 55.161674 -1003.1384
17.269402 55.6535 -1003.5533
20.468761 55.208046 -1002.923
21.195835 55.173512 -1003.1625
15.3105 56.447498 -1002.68
15.94791 56.866516 -1003.0973
16.981867 56.44717 -1003.23
20.611221 56.468079 -1003.158
21.472557 56.814339 -1003.2
24.3622 56.546501 -1003.01
13.6292 58.495399 -1003.73
16.148922 58.124222 -1003.1615
17.026733 58.534199 -1003.3633
19.2087 58.555599 -1003.69
20.647421 57.914295 -1003.062
21.637459 58.153687 -1003.1857
25.353201 58.1926 -1003.04
14.8398 59.398201 -1002.41
16.041332 59.480503 -1002.9011
17.24555 59.799633 -1003.275
19.31365 59.594799 -1003.645
20.023849 59.608673 -1003.4425
21.936747 59.485359 -1003.1005
22.990799 59.826752 -1003.36
14.7046 61.363899 -1002.73
15.985381 61.02256 -1003.0654
17.361292 61.182678 -1003.0569
18.890959 60.947876 -1003.0329
20.419708 60.874973 -1003.181
21.899399 60.770367 -1003.0568
22.854864 60.804863 -1003.0963
15.3565 62.367001 -1002.92
16.185036 62.329639 -1002.9454
17.30621 61.987965 -1003.144
18.551849 61.694748 -1002.535
20.0331 61.6003 -1002.43
22.234301 61.714298 -1002.44
16.351768 63.154999 -1003.0767
16.98385 63.773849 -1002.64
37.748402 -75.688301 -1002.36
37.45583 -75.289238 -1001.4033
38.403053 -74.544685 -1001.8171
-25.784285 -73.085831 -1001.5815
39.014034 -73.779663 -1001.4216
39.527298 -73.372078 -1001.7987
-26.812922 -71.889175 -1001.932
-26.134865 -72.079399 -1001.5364
40.127163 -72.225029 -1001.6422
40.764164 -71.524864 -1001.8133
-28.302099 -70.336502 -1001.59
-27.138645 -70.463303 -1001.753
-26.491199 -71.061699 -1001.425
41.183708 -70.584511 -1001.608
-28.132542 -68.964882 -1001.6981
-27.525036 -69.351814 -1001.7687
40.562302 -69.656601 -1002.3
41.784435 -69.402946 -1001.6334
42.149868 -68.95826 -1001.9366
-28.434334 -67.763077 -1001.7755
-27.73735 -68.142502 -1001.615
42.547436 -67.956413 -1001.645
-29.4482 -66.168602 -1002.26
-28.933357 -66.451897 -1001.6731
43.050293 -66.618027 -1001.6968
43.5112 -66.463249 -1001.7375
-29.711073 -64.988754 -1001.7813
-29.212584 -65.198586 -1001.4949
43.903316 -65.002953 -1001.6848
-29.98423 -63.783791 -1001.6966
-29.296 -63.930302 -1001.27
44.399136 -63.641266 -1001.57
44.9436 -63.1362 -1001.76
-31.528725 -61.947475 -1001.77
-30.426207 -62.389034 -1001.6075
44.568401 -62.739063 -1001.4167
45.168037 -62.156773 -1001.8292
-32.660999 -60.7477 -1002.35
-31.175039 -60.810631 -1001.824
-30.711866 -61.024384 -1001.6899
45.618183 -60.853584 -1001.7381
-33.089699 -59.300148 -1002.3
-31.492022 -59.517525 -1001.6315
45.903923 -59.619747 -1001.715
46.353725 -59.230679 -1001.8775
-33.608002 -57.4366 -1002.25
-32.802647 -58.085178 -1001.8483
-31.759565 -58.275066 -1001.6645
46.678818 -58.171776 -1001.5354
47.6917 -57.651901 -1002.23
-33.743633 -56.516163 -1001.92
-32.704609 -56.726273 -1001.8024
-32.041588 -56.677032 -1001.6801
47.253571 -56.815269 -1001.725
47.611 -56.583351 -1002.2
-34.128101 -55.048676 -1001.7925
-32.776604 -55.161278 -1001.7677
47.965324 -55.230686 -1001.6891
-34.592499 -53.604198 -1002
-33.073704 -53.923203 -1001.6738
47.428452 -53.883698 -1001.695
47.994228 -53.932083 -1001.7134
-35.0536 -52.298599 -1001.46
-34.006783 -52.58268 -1001.6439
-33.4342 -52.680042 -1001.57
48.055931 -52.515705 -1001.6861
-35.15218 -51.076897 -1001.7401
-34.13451 -51.032772 -1001.7004
-33.40855 -50.903702 -1001.415
48.399513 -51.156689 -1001.6133
-35.143997 -49.719002 -1001.824
-34.10014 -49.840748 -1001.8132
-33.3922 -50.120651 -1001.265
48.581036 -49.914082 -1001.655
49.273701 -49.252048 -1001.6201
-35.434052 -48.364601 -1001.81
-34.189091 -48.320572 -1001.6473
48.917603 -48.6647 -1001.355
49.32909 -48.196167 -1001.66
-35.679577 -46.942039 -1001.7401
-34.491344 -46.819118 -1001.6441
49.888222 -46.894165 -1001.7726
-35.680153 -45.335125 -1001.6186
-34.581745 -45.587585 -1001.6534
50.170898 -45.582043 -1001.673
50.493149 -45.470501 -1001.855
-35.63752 -44.059116 -1001.8616
-34.802891 -44.025192 -1001.6567
50.2416 -44.606602 -1001.425
50.808762 -44.134247 -1001.7093
-36.504601 -42.337799 -1002.1
-35.589108 -42.725277 -1001.7207
-34.83445 -42.833 -1001.3575
50.044998 -42.322899 -1001.26
51.082588 -42.718891 -1001.8194
-36.558563 -41.152359 -1001.68
-35.303745 -41.179546 -1001.6899
-34.908897 -41.474899 -1001.705
50.307499 -41.754799 -1001.19
51.108353 -41.201092 -1001.8046
-36.666 -39.762177 -1001.4475
-35.510109 -39.892982 -1001.709
51.232742 -39.883312 -1001.6882
51.9338 -39.5667 -1001.29
-36.828281 -38.550602 -1001.6716
-35.74324 -38.484531 -1001.6689
51.504341 -38.770271 -1001.5214
51.968288 -38.359219 -1001.6917
-36.99218 -37.192162 -1001.8539
-35.843834 -37.049332 -1001.6819
51.562008 -37.225746 -1001.74
52.055168 -36.902916 -1001.5286
-37.014324 -35.75333 -1001.6625
-36.158676 -35.9048 -1001.6675
51.664509 -35.960274 -1001.7585
52.088112 -35.492611 -1001.6191
-37.834 -34.635601 -1002.06
-37.018757 -34.212872 -1001.584
-36.383049 -34.605499 -1001.65
52.265656 -34.284439 -1001.8663
-36.994629 -32.886169 -1001.7006
-36.194199 -32.665649 -1001.245
52.495117 -32.847752 -1001.69
-37.116722 -31.543892 -1001.6859
-36.209118 -31.601984 -1001.59
52.673405 -31.475504 -1001.6979
-37.067326 -30.131987 -1001.6515
-36.356251 -30.2206 -1001.515
52.739174 -30.091166 -1001.6542
-37.19236 -28.737658 -1001.8108
-36.288799 -28.817348 -1001.6425
52.826935 -28.960125 -1001.625
53.407131 -28.712416 -1001.8215
-37.01683 -27.280586 -1001.76
-36.238033 -27.107367 -1001.28
52.777721 -27.659521 -1001.58
53.743992 -27.213301 -1001.6686
-37.850601 -26.068899 -1002.38
-37.124786 -25.990255 -1001.6962
-36.129951 -25.910999 -1001.265
53.859322 -25.847952 -1001.7731
-37.114441 -24.61552 -1001.6912
-36.181499 -24.160851 -1001.665
52.914135 -24.494541 -1001.536
53.673847 -24.569662 -1001.8734
-37.158558 -23.291546 -1001.6546
-36.195774 -23.003599 -1001.9026
53.116676 -23.275839 -1001.7599
53.589478 -22.950243 -1001.6
-37.088764 -21.692022 -1001.7078
-36.095875 -21.754774 -1001.7863
53.072399 -21.728765 -1001.5533
53.502598 -21.69729 -1001.8637
-36.997757 -20.285923 -1001.7369
-36.128986 -20.306875 -1001.6162
53.139297 -20.19335 -1001.4
53.568645 -20.248966 -1001.7485
-36.954464 -18.967165 -1001.7036
-36.066391 -18.862329 -1001.6709
52.983551 -18.604549 -1001.87
53.580452 -19.013176 -1001.655
-36.962963 -17.456944 -1001.6855
-36.063141 -17.38896 -1001.5609
53.631889 -17.490629 -1001.7505
-36.834217 -16.071381 -1001.7219
-35.966351 -15.944874 -1001.5263
52.934399 -15.4597 -1001.79
53.561893 -16.152615 -1001.7205
-36.829708 -14.698666 -1001.7211
-35.9179 -14.676765 -1001.7408
53.082001 -14.8433 -1001.65
53.588531 -14.683731 -1001.6878
-36.710487 -13.261078 -1001.7612
-35.864464 -13.247549 -1001.524
53.662067 -13.271473 -1001.7562
-36.654804 -11.896358 -1001.7143
-35.737003 -11.902517 -1001.7413
53.653992 -11.934933 -1001.7017
-36.531502 -10.713625 -1001.71
-35.695873 -10.404495 -1001.7057
53.089798 -10.84045 -1001.48
53.69371 -10.541572 -1001.7131
-36.434151 -9.6833048 -1002.085
-35.812183 -9.1511507 -1001.6722
-34.994598 -8.4569101 -1001.28
53.969555 -9.1307831 -1001.7189
-36.900002 -7.3481798 -1001.46
-35.591282 -7.7381382 -1001.7751
-34.907635 -7.5262833 -1001.3
54.092548 -7.7135568 -1001.5876
54.993801 -8.17171 -1001.84
-35.615543 -6.3723226 -1001.6293
-34.748135 -6.2992153 -1001.6833
53.947483 -6.337163 -1001.7148
-35.463848 -4.9969611 -1001.4589
-34.610214 -4.71381 -1001.8483
53.890991 -5.0459266 -1001.7137
-35.516987 -3.54231 -1001.7299
-34.55719 -3.3977842 -1001.6755
53.038239 -3.4265018 -1001.742
53.637943 -3.4834044 -1001.6406
-35.244949 -2.1777987 -1001.7234
-34.430798 -2.0854757 -1001.6185
52.868011 -2.137594 -1001.7576
53.545277 -1.8991685 -1001.615
-39.261002 -1.10751 -1002.35
-35.094151 -0.94679296 -1001.92
-34.309814 -0.50989801 -1001.5673
52.918125 -0.78974324 -1001.8042
53.533836 -0.57812703 -1001.7975
-36.3512 1.3353601 -1001.28
-34.298401 0.60388207 -1001.8383
-33.5182 0.972633 -1001.545
52.802643 0.62687248 -1001.6392
53.406273 0.72895414 -1001.7443
-34.286877 2.139025 -1001.7233
-33.328323 2.2221134 -1001.6289
52.722054 2.1052468 -1001.756
53.722252 2.1011651 -1001.925
-34.163433 3.4812567 -1001.6201
-33.128227 3.511035 -1001.7426
52.430111 3.4767354 -1001.6574
53.3941 2.98382 -1002.245
-34.024788 4.8911824 -1001.6985
-33.065746 4.8212743 -1001.8266
51.666725 5.0994258 -1001.902
52.300705 4.8968616 -1001.6614
-33.801643 6.1367207 -1001.6633
-32.938541 6.2458234 -1001.5685
51.541557 6.4356565 -1001.562
52.129799 6.2162914 -1001.7846
-33.767502 7.8605499 -1002.32
-33.11694 7.7562528 -1001.6174
-32.096565 7.7305665 -1001.4617
51.444874 7.950459 -1001.5319
52.060997 7.6187224 -1001.6171
-33.728802 9.0363798 -1001.39
-32.918007 9.0666876 -1001.712
-32.017677 9.3185701 -1001.5825
51.311062 9.2179689 -1001.6724
51.867512 8.8998652 -1001.7433
-32.683418 10.403717 -1001.604
-31.737808 10.375255 -1001.7026
51.152111 10.451333 -1001.6419
52.218102 11.0929 -1002.21
-32.559212 11.928166 -1001.7977
-31.393816 11.875255 -1001.7208
50.350403 12.34995 -1002.165
50.944508 11.895056 -1001.6261
52.242199 11.5138 -1002.21
-32.416901 12.7579 -1002.23
-31.465582 13.223594 -1001.6379
-30.427099 13.647181 -1001.576
50.117172 13.346644 -1001.8266
50.955868 13.187991 -1001.6867
-32.4897 14.6131 -1001.34
-31.296129 14.581532 -1001.7587
-30.244448 14.8536 -1001.6833
49.954391 14.660409 -1001.8027
50.738674 14.76435 -1001.645
-31.056498 16.148699 -1001.5049
-30.232035 16.116566 -1001.8228
49.841911 16.176388 -1001.7394
50.661316 15.928584 -1001.7283
-31.107401 17.618299 -1001.01
-30.02113 17.476604 -1001.648
-28.928837 17.510124 -1001.9813
48.82925 17.932549 -1002.24
49.643177 17.45503 -1001.6876
-29.867098 18.761271 -1001.67
-28.804132 19.022409 -1001.7521
48.728687 18.8878 -1001.8724
49.524143 18.830355 -1001.6607
-28.761393 20.353842 -1001.7294
-27.824718 20.581341 -1001.784
45.1591 19.747801 -1001.34
48.741203 20.32555 -1001.6699
49.517654 20.393467 -1001.6412
-28.591421 21.657568 -1001.7744
-27.471954 21.903246 -1001.8754
-26.4583 21.5872 -1002.25
48.661167 21.683434 -1001.8633
49.666195 21.698086 -1001.7861
-28.361916 23.066216 -1001.4766
-27.512003 23.113508 -1001.6733
48.890224 23.297701 -1001.8725
49.537727 23.093092 -1001.6438
-28.287165 24.363434 -1001.735
-27.422174 24.441977 -1001.7806
47.410999 24.507601 -1002.01
48.63744 24.601109 -1001.7061
49.515427 24.391701 -1001.8418
-28.211 25.977041 -1001.6671
-27.588055 25.953516 -1001.71
48.508926 25.866064 -1001.6791
49.403465 26.008074 -1001.6527
-28.1707 26.98745 -1001.385
-27.343723 27.333982 -1001.6965
47.2477 27.136801 -1002.01
48.264034 27.287455 -1001.6776
49.178497 26.844551 -1001.82
-28.2061 28.2696 -1002.38
-27.242754 28.700569 -1001.7138
-26.301359 28.808073 -1001.6815
47.293446 28.999048 -1001.8184
48.380684 28.586296 -1001.5399
-26.942513 30.0567 -1001.6517
-25.963568 30.24774 -1001.868
47.123493 30.18829 -1001.6868
48.051117 29.918617 -1001.5883
-26.675501 31.0758 -1001.47
-26.055363 31.566488 -1001.665
-25.075352 31.711325 -1001.6775
46.945107 31.390841 -1001.8163
47.815689 31.517 -1001.7213
-25.8036 32.803528 -1001.8038
-24.831545 32.940811 -1001.7333
46.749573 32.87542 -1001.7576
48.2309 32.712898 -1001.5
-25.393351 34.203449 -1001.6683
-24.556791 34.322716 -1001.7177
-23.7796 34.828701 -1002.08
45.991966 34.341011 -1001.7681
46.772911 34.232635 -1001.6436
47.611698 33.828999 -1002.1
-24.589346 35.676319 -1001.6586
-23.482487 35.803017 -1001.7999
45.690243 35.806416 -1001.73
46.571064 35.658241 -1001.77
48.264099 35.093102 -1001.6
-25.2278 36.822498 -1001.05
-24.086338 37.038059 -1001.5941
-23.168423 37.201309 -1001.68
45.385708 37.016102 -1001.7813
46.290741 36.9767 -1001.79
-24.018351 38.18655 -1001.57
-23.206125 38.455574 -1001.7567
-22.222868 38.646297 -1001.9966
22.115801 39.0951 -1001.59
31.736799 38.9091 -1001.3
32.704453 39.089752 -1001.37
33.9147 38.854301 -1001.19
35.5457 39.098099 -1001.13
37.177799 38.827534 -1002.1166
38.349602 38.895447 -1001.165
39.7281 38.748299 -1002.39
41.611797 38.700119 -1001.5519
42.884949 38.716351 -1001.3525
44.522491 38.535179 -1001.821
45.466694 38.583809 -1001.618
46.201199 37.962898 -1001.37
-22.908848 39.708366 -1001.6957
-21.942457 39.941074 -1001.7943
6.6873202 40.586102 -1002.24
8.8430204 40.2257 -1001.24
10.759399 40.431 -1001.58
12.90185 40.424202 -1002.02
14.11145 40.374451 -1001.6
15.636033 40.331066 -1001.93
17.552925 40.003277 -1001.54
18.909039 40.17308 -1001.92
19.782801 40.490799 -1001.57
21.555149 39.7425 -1001.745
22.7999 40.153049 -1001.6275
24.506273 40.073875 -1001.665
25.667225 39.838375 -1001.6675
27.291367 39.958866 -1002.0767
28.560541 40.087212 -1001.7414
29.589399 39.537899 -1001.57
31.198025 39.936749 -1001.8625
33.159534 39.807133 -1001.46
34.434837 39.880035 -1001.8538
35.648056 39.986263 -1001.829
37.306721 39.795383 -1001.792
38.676769 39.888832 -1001.3133
39.917667 39.726799 -1001.9467
41.144348 39.758827 -1001.645
42.818573 39.878025 -1001.885
44.234325 39.66687 -1001.8228
45.1703 39.3927 -1002.21
-22.7073 41.316898 -1001.616
-21.833931 41.26305 -1001.6435
-20.8258 41.838902 -1002.34
-18.445299 41.813801 -1001.33
-17.7658 41.9356 -1001.55
-16.626949 41.8922 -1001.89
-14.8016 41.702999 -1001.34
-13.219266 41.737366 -1001.6
-11.485225 41.863678 -1001.99
-10.0408 41.7813 -1001.28
-8.733345 41.692451 -1001.73
-7.97123 41.745598 -1002.18
-6.04285 41.371601 -1001.68
-4.8106251 41.417053 -1001.47
-3.3520651 41.720551 -1001.985
-2.1447148 41.4585 -1001.7225
-0.66255248 41.391602 -1001.8325
0.97369498 41.412266 -1001.5334
2.2820385 41.171505 -1001.5617
4.0663748 41.327477 -1001.8775
4.3911753 41.269402 -1001.37
6.5338035 41.221333 -1001.6467
7.5660701 41.155132 -1001.6501
9.9187603 41.264099 -1002.08
13.798 40.776798 -1001.07
14.75255 40.790749 -1002.21
16.410801 40.718899 -1001.49
17.2113 40.720936 -1001.7734
18.4671 40.733601 -1002.36
20.106501 41.047401 -1001.86
21.210899 40.672298 -1001.93
23.086475 40.763046 -1001.8975
24.0564 40.6115 -1001.7
26.455099 40.661598 -1001.31
27.323099 40.652 -1002.38
30.160265 40.652134 -1002.1767
-21.602438 42.326939 -1001.7488
-20.467937 42.525139 -1001.91
-19.117174 42.622673 -1001.78
-17.396719 42.398884 -1001.9559
-16.244333 42.390198 -1001.8734
-15.048651 42.430473 -1001.58
-13.549466 42.333935 -1001.3699
-11.9647 42.255501 -1001.62
-10.416201 42.427597 -1001.865
-9.2560434 42.297768 -1001.84
-7.9491301 42.007801 -1002.14
-6.4507151 42.21925 -1001.9325
-4.5428352 42.010101 -1002.1
16.325001 44.430302 -1002.14
17.739599 44.0107 -1002.37
16.2435 45.583351 -1002.1825
16.8134 45.961102 -1001.54
20.3321 46.033798 -1002.12
15.158051 47.060699 -1002.25
16.252972 47.102997 -1001.8443
16.993299 47.2015 -1001.275
19.5439 46.862251 -1002.235
20.418425 46.815025 -1001.7875
21.509333 47.241436 -1001.23
13.4551 48.804901 -1002.23
15.0825 48.340073 -1001.83
16.056719 48.544682 -1001.7
17.3223 48.5644 -1001.5
19.387199 47.976349 -1001.395
20.011101 47.6777 -1001.31
22.146601 48.191502 -1002.38
13.50385 49.77705 -1001.635
14.804 49.618042 -1001.8308
16.183849 49.249603 -1001.765
16.8995 49.0872 -1001.23
19.0007 49.828445 -1001.7344
19.671249 49.834297 -1002.27
22.0555 49.790401 -1001.75
22.950399 49.878101 -1002.06
13.56685 50.950321 -1001.6912
14.581566 51.050781 -1001.9233
19.074022 50.977757 -1001.6622
19.78635 51.153702 -1001.85
22.805799 50.413898 -1001.27
13.671386 52.536346 -1001.88
14.468577 52.386204 -1001.6056
19.260965 52.460766 -1001.73
20.115583 52.449131 -1001.7851
21.5625 53.057499 -1002.03
13.807375 53.741425 -1001.7575
14.761092 53.868042 -1001.7083
15.64835 54.310349 -1001.945
19.3302 53.747002 -1001.62
20.28549 53.862232 -1001.71
13.07475 54.91515 -1001.79
14.716101 55.399326 -1001.6332
15.636024 55.55925 -1002.1
20.308681 55.246773 -1001.5641
21.0858 55.310852 -1002.115
13.9987 56.140999 -1001.25
14.956 56.830902 -1001.6375
15.819044 56.631477 -1001.8167
16.92495 56.9119 -1001.66
20.537275 56.727173 -1001.6254
21.161098 56.951851 -1002.13
24.338499 57.061401 -1002.13
15.164701 58.209499 -1001.6528
15.950947 58.115219 -1001.8668
16.9426 58.613098 -1001.04
20.506388 57.99831 -1001.7411
21.454912 58.313053 -1002.0287
25.059 58.7188 -1001.76
15.1686 58.966599 -1001.94
16.090651 59.519909 -1001.673
17.024767 59.591328 -1001.75
20.790625 59.358776 -1001.24
21.463636 59.623867 -1001.6462
22.767832 59.848969 -1002.05
15.3756 61.369499 -1001.595
16.068336 60.850647 -1001.5855
17.24 61.138298 -1001.955
19.118299 61.328701 -1001.725
20.352133 61.330902 -1001.6433
21.668962 60.836349 -1001.7263
22.831839 60.945183 -1001.708
14.983521 62.60664 -1001.692
16.279699 62.235249 -1001.66
17.540962 62.263332 -1001.7861
18.747435 62.060486 -1001.6533
20.271429 62.205387 -1001.6857
21.771349 62.153088 -1001.4
22.723167 61.957733 -1001.83
15.2511 63.337299 -1001.21
16.262556 63.720612 -1001.6025
17.20175 63.783501 -1001.47
20.4792 63.7449 -1001.13
16.833 64.6717 -1001.18
35.9678 -75.693901 -999.763
36.8932 -75.694855 -1000.1895
-23.7463 -74.240196 -1000.05
37.28397 -74.844246 -1000.0956
38.045765 -74.707436 -1000.86
-25.579601 -73.300125 -1000.521
-24.750113 -73.546074 -1000.0754
37.427299 -73.960403 -999.604
38.562557 -73.579361 -1000.2203
39.277599 -72.919151 -1000.69
-25.812307 -72.081833 -1000.3278
-24.894867 -72.583 -999.823
38.868198 -72.732201 -999.65198
39.74054 -72.037827 -1000.3268
-27.051466 -70.350098 -1000.73
-26.218853 -70.882416 -1000.1545
40.4538 -71.250801 -1000.4256
40.892712 -70.531754 -1000.3007
-27.180916 -69.268303 -1000.3539
-26.3641 -69.762604 -999.66901
41.460945 -69.259499 -1000.3286
-28.2031 -67.8545 -1000.465
-27.515717 -68.117699 -1000.251
41.858513 -67.941322 -1000.064
42.352161 -67.652748 -1000.4814
-28.498108 -66.554123 -1000.2743
-27.798624 -66.901871 -999.86346
42.672943 -66.533318 -1000.2332
-29.569864 -64.672729 -1000.3133
-28.883686 -65.207008 -1000.2856
43.034218 -65.309036 -1000.3268
43.533367 -65.001129 -1000.1653
-29.772181 -63.47464 -1000.2878
-29.269625 -63.733372 -1000.069
44.022476 -63.73946 -1000.3013
-31.871401 -62.044601 -1000.64
-30.055422 -62.268108 -1000.192
44.485435 -62.370785 -1000.1993
44.854752 -61.859398 -1000.735
-32.254299 -60.606602 -1000.5
-31.280149 -60.699299 -1000.0682
-30.410124 -61.008083 -1000.2968
44.780602 -60.577999 -999.737
45.118607 -60.944298 -1000.2692
46.492901 -60.8815 -1000.28
-32.49025 -59.612049 -1000.37
-31.126314 -59.426384 -1000.4465
-30.6751 -59.748901 -999.90253
45.742069 -59.602287 -1000.3797
-32.842827 -58.125153 -1000.018
-31.496109 -58.031219 -1000.3239
45.974922 -58.477959 -1000.0696
46.422039 -57.954277 -1000.4643
-32.965923 -56.544323 -1000.5375
-31.778685 -56.719322 -1000.3394
46.118999 -57.398998 -1000.56
46.936535 -56.703533 -1000.1843
47.718102 -56.096401 -1000.91
-33.841999 -54.973 -1000.71
-32.564068 -55.293457 -1000.3799
-32.041126 -55.440548 -1000.3008
47.342934 -55.2882 -1000.1439
47.79306 -55.371601 -1000.5601
-32.740627 -53.927135 -1000.3001
-31.989901 -54.3596 -999.896
47.2514 -53.88105 -1000.2601
47.76273 -54.033081 -1000.5474
-34.169937 -52.107899 -1000.5499
-33.112476 -52.547722 -1000.3303
47.361237 -52.725487 -1000.0504
47.778152 -52.407326 -1000.6227
-34.237953 -51.181503 -1000.0651
-33.311325 -51.100193 -1000.319
47.556801 -51.740799 -1000.81
48.03294 -51.077583 -1000.3118
-34.250336 -49.681019 -1000.3369
-33.175831 -49.864685 -1000.1099
48.422604 -49.674923 -1000.2477
-35.198536 -48.277866 -1000.6201
-34.128555 -48.275734 -1000.3721
-33.434925 -48.299599 -999.92297
48.755062 -48.353146 -1000.3333
49.34433 -48.046402 -1000.5867
-35.43174 -46.854103 -1000.472
-34.140358 -46.90884 -1000.313
48.749298 -47.020451 -999.75
49.36047 -46.818447 -1000.4076
-35.587849 -45.387173 -1000.2035
-34.32225 -45.521294 -1000.2595
49.842113 -45.438217 -1000.2239
50.464699 -45.245701 -1000.58
-35.79615 -44.036449 -1000.1695
-34.549576 -44.075188 -1000.2918
50.117596 -44.209698 -1000.2554
50.536083 -43.90514 -1000.4
-35.686611 -42.57209 -1000.4086
-34.704086 -42.640678 -1000.188
50.271709 -42.720749 -999.99762
50.758812 -42.649967 -1000.527
-36.435699 -41.016998 -1000.8
-35.661472 -41.299725 -1000.2728
-34.822578 -41.23634 -1000.3766
50.313732 -41.280201 -1000.006
50.75452 -41.2369 -1000.3465
-36.478302 -40.1106 -1000.63
-35.453098 -39.804234 -1000.2368
-34.8685 -40.107166 -999.99042
50.964039 -39.846317 -1000.1915
-36.56065 -38.445099 -1000.2297
-35.400833 -38.462132 -1000.4301
51.300266 -38.394825 -1000.3848
-36.760502 -37.086861 -1000.2954
-35.644722 -37.041256 -1000.4265
51.509266 -37.104309 -1000.2712
51.93095 -36.769451 -1000.81
-37.153889 -35.395844 -1000.5034
-36.165634 -35.701389 -1000.1458
51.565929 -35.834225 -1000.2644
51.911266 -35.521667 -1000.2833
-37.057884 -34.294094 -1000.3293
-36.241924 -34.357979 -1000.23
51.679852 -34.382198 -1000.3087
51.984249 -34.282017 -1000.4228
-36.913174 -32.953255 -1000.2721
-36.145142 -32.83569 -1000.2277
51.788502 -33.2033 -999.953
52.210533 -32.860809 -1000.4322
-36.969208 -31.540569 -1000.4468
-36.07597 -31.456615 -1000.1197
52.388302 -31.389647 -1000.3125
-36.876423 -30.199921 -1000.291
-36.118141 -30.046169 -1000.292
52.495678 -30.087294 -1000.2425
-37.042412 -28.735754 -1000.4619
-36.265747 -28.600525 -1000.2732
52.94487 -28.791466 -1000.4016
53.385769 -28.459101 -1000.1357
-37.045193 -27.3592 -1000.3466
-36.246574 -27.374664 -1000.1838
52.592476 -26.891376 -999.94598
53.592411 -27.270285 -1000.4023
54.855499 -27.753201 -1000.12
-37.073669 -25.92029 -1000.3424
-36.271217 -25.885267 -1000.145
52.9814 -25.831312 -1000.3266
53.587063 -26.019358 -1000.5414
-36.979851 -24.59938 -1000.3149
-35.981853 -24.547075 -1000.1136
52.922226 -24.659149 -1000.2021
53.431332 -24.386766 -1000.3133
-37.001549 -23.117802 -1000.2731
-36.050522 -23.11911 -1000.4547
53.00045 -23.157688 -1000.2686
