# .PCD v0.7 - Point Cloud Data file format
VERSION 0.7
FIELDS x y z
SIZE 4 4 4
TYPE F F F
COUNT 1 1 1
WIDTH 1663
HEIGHT 1
VIEWPOINT 0 0 0 1 0 0 0
POINTS 1663
DATA ascii
0 0 0
86.1437 -167.44901 -999.617
85.682297 -166.797 -1000.29
84.8508 -167.20399 -999.66101
84.282501 -167.02 -999.784
83.737801 -166.908 -999.77899
83.1539 -166.76601 -999.67499
82.615501 -166.573 -999.66498
81.953499 -166.802 -999.18103
81.334396 -167.07001 -998.70398
80.995201 -166.483 -999.31702
80.216202 -167.063 -998.59998
79.702103 -166.63 -998.91803
78.947098 -166.97501 -998.33899
78.372902 -166.799 -998.41998
77.726601 -166.961 -998.06299
77.073799 -167.02699 -997.81799
76.460503 -167.03101 -997.63098
75.896896 -166.94299 -997.565
75.383499 -166.73399 -997.67401
74.848503 -166.604 -997.69702
74.1968 -166.73 -997.37402
73.594398 -166.72 -997.17999
72.935898 -166.86099 -996.85199
72.4021 -166.65401 -996.979
71.680099 -166.858 -996.50897
71.136299 -166.61301 -996.60797
70.549202 -166.44299 -996.65997
69.878998 -166.601 -996.29102
69.2612 -166.54401 -996.18903
59.9953 -166.907 -992.89899
59.403 -166.392 -993.26099
58.739498 -166.451 -992.98602
58.2038 -166.168 -993.18903
57.5439 -166.28999 -992.87701
56.976299 -166.241 -992.77197
56.397301 -166.157 -992.66199
55.717701 -166.32899 -992.276
55.118801 -166.32899 -992.07703
42.7342 -166.198 -988.49103
42.203098 -165.91299 -988.62903
41.646099 -165.713 -988.68903
40.956902 -165.793 -988.38898
40.345798 -165.776 -988.245
39.7682 -165.632 -988.21802
39.023998 -165.95799 -987.63898
38.522301 -165.73599 -987.755
37.880001 -165.875 -987.41199
37.403702 -165.496 -987.61102
36.644299 -165.884 -987.01398
36.151402 -165.494 -987.31702
35.417 -165.688 -986.87
34.819099 -165.21899 -987.26801
0 0 0
-63.129902 -169.41701 -952.30103
0 0 0
0 0 0
0 0 0
-66.1483 -169.758 -950.85699
0 0 0
93.439903 -170.33501 -996.396
92.692299 -168.972 -998.02002
91.966202 -167.855 -999.16602
90.999702 -167.845 -998.96503
90.338501 -167.089 -999.78198
0 0 0
88.911301 -166.63499 -1000.08
88.029503 -166.681 -999.80298
0 0 0
0 0 0
86.424301 -166.32001 -999.99597
85.6362 -166.563 -999.48999
85.218201 -165.752 -1000.41
84.496696 -166.13699 -999.88397
83.807297 -166.242 -999.50897
83.3283 -165.743 -1000.07
82.606598 -166.142 -999.40198
81.947502 -166.32401 -998.94
81.393402 -166.55499 -998.61401
80.844002 -166.472 -998.448
80.334 -166.21201 -998.56403
79.721298 -166.162 -998.414
79.001503 -166.423 -998.026
78.480698 -166.147 -998.20398
77.851799 -166.11301 -997.98798
77.193298 -166.228 -997.73401
76.586197 -166.172 -997.612
76.0065 -166.183 -997.435
75.450104 -166.19299 -997.284
74.891899 -166.061 -997.255
74.162003 -166.40401 -996.68201
73.650299 -166.196 -996.815
73.0186 -166.26601 -996.57001
72.455498 -166.045 -996.633
71.804298 -166.09399 -996.40698
71.2276 -165.883 -996.40302
70.544701 -166.035 -996.08899
69.863899 -166.149 -995.73199
69.297203 -165.89101 -995.87701
68.5588 -165.62199 -995.94397
60.174702 -165.881 -993.06201
59.576801 -165.59 -993.26099
58.847198 -165.651 -992.91602
58.245201 -165.623 -992.77301
57.6404 -165.508 -992.72498
57.042198 -165.49899 -992.52899
56.427898 -165.57001 -992.32397
55.8181 -165.591 -992.09497
55.258099 -165.427 -992.04901
42.402901 -168.63499 -984.53699
42.874401 -165.383 -988.40002
42.2724 -165.258 -988.315
41.749802 -165.04201 -988.48602
41.0728 -165.065 -988.20099
40.5341 -164.84399 -988.32599
39.8344 -165.01601 -987.87299
39.130699 -165.215 -987.45001
38.6115 -165 -987.54401
38.033001 -165.01199 -987.34302
37.375801 -165.13901 -987.008
36.875599 -164.867 -987.172
36.170101 -165.007 -986.83801
35.451698 -165.136 -986.46503
34.7999 -164.978 -986.49402
-62.157501 -170.91901 -949.77502
0 0 0
-62.485901 -169.19501 -951.63599
0 0 0
-64.312698 -170.34599 -949.60797
-65.143402 -170.714 -948.914
-65.8358 -170.009 -949.48401
-66.982399 -171.017 -947.61499
94.515701 -167.091 -999.388
92.989899 -168.06 -998.20398
91.849701 -168.106 -997.85901
91.317398 -166.61501 -999.56299
90.412003 -166.509 -999.51001
89.604202 -166.52299 -999.34601
88.929497 -166.224 -999.56201
88.222099 -166.006 -999.729
0 0 0
87.120499 -165.76801 -999.96399
86.449799 -165.666 -999.69397
85.919601 -165.31 -1000
85.187698 -165.507 -999.56
84.476303 -165.77699 -999.05701
84.031502 -165.26199 -999.59802
83.313202 -165.533 -999.20898
82.729401 -165.466 -999.25
82.043297 -165.799 -998.72699
81.597702 -165.51801 -998.896
81.0009 -165.52901 -998.59998
80.426903 -165.44901 -998.48798
79.799004 -165.44299 -998.28601
79.132599 -165.438 -998.04498
78.533302 -165.45799 -997.922
77.884697 -165.578 -997.60699
77.404701 -165.254 -997.84802
76.673203 -165.565 -997.211
76.073097 -165.604 -997.09198
75.515999 -165.53 -997.04999
74.927498 -165.526 -996.90399
74.374603 -165.394 -996.88599
73.815804 -165.308 -996.85999
73.147003 -165.407 -996.53699
72.512398 -165.47701 -996.302
71.936699 -165.261 -996.31799
71.187103 -165.563 -995.76501
70.602898 -165.392 -995.75403
70.024696 -165.20599 -995.80798
69.307404 -165.31799 -995.448
57.912899 -143.92799 -1019.74
62.1506 -163.38 -995.35797
60.284199 -165.14799 -992.95697
59.667801 -164.81 -993.15698
58.967999 -164.888 -992.81799
58.273899 -165.05099 -992.453
57.737701 -164.849 -992.49402
57.112 -164.864 -992.30902
56.477402 -164.925 -992.03601
55.922501 -164.806 -991.97498
55.3363 -164.756 -991.89398
42.827 -166.89 -985.48401
42.938099 -164.75 -988.117
42.374802 -164.54601 -988.17499
41.831501 -164.35899 -988.21301
41.0779 -164.664 -987.71899
40.452801 -164.633 -987.53998
39.9333 -164.341 -987.68402
39.351501 -164.269 -987.612
38.661301 -164.51401 -987.10498
38.0937 -164.47501 -986.96899
37.4678 -164.54601 -986.742
36.821602 -164.60699 -986.44098
36.228901 -164.495 -986.42999
35.602901 -164.485 -986.28601
34.843102 -164.56799 -985.94397
34.830502 -162.03 -989.04303
-61.9688 -171.26601 -948.133
0 0 0
0 0 0
0 0 0
0 0 0
-64.930199 -170.201 -948.37299
0 0 0
94.2603 -167.839 -997.70898
92.214897 -166.52901 -998.79401
91.479103 -165.85201 -999.625
90.528503 -165.998 -999.14502
89.816803 -165.714 -999.34302
89.001999 -165.78101 -999.14697
88.441498 -165.224 -999.79498
0 0 0
87.153397 -165.146 -999.60999
0 0 0
85.837402 -165.09399 -999.25098
85.3909 -164.62399 -999.70099
84.651199 -164.90401 -999.15802
84.060303 -164.85899 -999.11102
83.349701 -165.097 -998.63397
82.739502 -165.116 -998.53003
82.204102 -164.896 -998.66498
81.648598 -164.91901 -998.51398
81.101898 -164.79401 -998.53302
80.406601 -165.10699 -997.961
79.839996 -164.95799 -997.96997
79.181198 -164.974 -997.66699
78.557602 -164.845 -997.63702
77.911003 -164.97701 -997.29102
77.399101 -164.748 -997.396
76.830299 -164.83501 -997.07898
76.211998 -164.83701 -996.974
75.687401 -164.62601 -997.16998
75.153099 -164.52499 -997.20502
74.332199 -164.995 -996.37701
73.844498 -164.741 -996.55103
73.241096 -164.759 -996.33899
72.598099 -164.867 -996.05298
71.975098 -164.72701 -996.03302
71.337502 -164.66 -995.84399
70.654503 -164.856 -995.48297
69.969498 -164.91299 -995.23798
69.320297 -164.73199 -995.24799
58.9207 -142.51601 -1020.73
60.3792 -164.408 -992.84698
59.692299 -164.32899 -992.758
59.027 -164.326 -992.50598
58.398499 -164.26601 -992.45898
57.771702 -164.286 -992.16498
57.217701 -164.151 -992.20599
56.597401 -164.144 -991.95001
55.983898 -164.243 -991.66199
55.403702 -164.17 -991.63098
42.962601 -164.411 -987.54602
42.450401 -164.039 -987.82202
41.816502 -164.09 -987.57202
41.213299 -163.94 -987.52197
40.636902 -163.79401 -987.474
40.038799 -163.757 -987.33801
39.361198 -163.923 -986.99597
38.795601 -163.905 -986.828
38.2267 -163.845 -986.755
37.641602 -163.799 -986.59998
37.029999 -163.82899 -986.38501
36.477001 -163.64999 -986.46698
35.736099 -163.843 -986.00098
35.131802 -163.64799 -986.05902
0 0 0
0 0 0
-62.533401 -170.87801 -947.13
-62.9501 -170.502 -947.45697
0 0 0
0 0 0
0 0 0
-66.194298 -171.272 -945.362
93.403999 -166.48 -998.19098
92.208801 -166.478 -997.979
91.472 -165.59599 -998.84698
90.688103 -165.18401 -999.16602
89.925201 -164.97099 -999.20697
89.163597 -165.091 -999.07202
0 0 0
87.937103 -164.554 -999.479
0 0 0
86.660698 -164.214 -999.612
86.040802 -164.14301 -999.565
85.2528 -164.59399 -998.83801
84.729897 -164.386 -998.91199
84.127998 -164.317 -998.75299
83.523102 -164.274 -998.75299
82.979797 -164.121 -998.80499
82.247597 -164.431 -998.27399
81.705299 -164.349 -998.20801
81.200302 -164.11 -998.401
80.5383 -164.27499 -997.992
79.922798 -164.302 -997.81
79.270103 -164.252 -997.65399
78.609001 -164.30099 -997.47699
78.119003 -163.96001 -997.75299
77.462601 -164.202 -997.26599
76.919502 -164.155 -997.086
76.460503 -163.77901 -997.38202
75.733398 -164.117 -996.67499
75.100304 -164.313 -996.30798
74.430801 -164.34599 -996.164
73.886703 -164.147 -996.21698
73.292099 -164.21001 -996.04797
72.636398 -164.222 -995.87799
71.998398 -164.23 -995.66699
71.334198 -164.299 -995.427
70.825699 -163.91701 -995.651
70.054001 -164.23801 -995.09601
69.474197 -163.903 -995.33099
58.4142 -143.198 -1019.04
60.375801 -164.00101 -992.396
59.7118 -163.839 -992.354
59.158199 -163.564 -992.565
58.522202 -163.554 -992.33002
57.838299 -163.80901 -991.89502
57.297901 -163.62801 -991.935
56.6301 -163.71001 -991.57001
56.031101 -163.745 -991.37701
55.447201 -163.675 -991.27301
43.063702 -163.92599 -987.19202
42.7019 -163.15401 -987.94501
42.028599 -163.272 -987.58899
41.317902 -163.44501 -987.14203
40.719101 -163.397 -986.99597
40.1376 -163.29201 -986.91901
39.487099 -163.422 -986.61401
38.845299 -163.513 -986.37799
38.205799 -163.659 -985.95502
37.780201 -163.25999 -986.28302
37.1404 -163.34 -986.00403
36.5453 -163.25101 -985.987
35.8713 -163.312 -985.68903
35.233898 -163.14101 -985.61102
34.796101 -162.2 -986.50897
0 0 0
-61.771301 -170.293 -947.05298
0 0 0
-63.462101 -171.069 -945.60999
0 0 0
0 0 0
-65.391701 -171.612 -944.27002
-65.647202 -171.117 -944.61798
93.374702 -166.32001 -997.50403
92.361198 -165.965 -997.73798
91.475601 -165.242 -998.34698
90.682701 -164.93201 -998.479
0 0 0
89.215401 -164.82001 -998.45001
88.591797 -164.31599 -999.052
0 0 0
87.2668 -164.134 -998.92798
86.710602 -163.80299 -999.24902
85.9646 -164.08299 -998.69299
85.379898 -163.845 -998.82898
84.801201 -163.688 -998.84601
84.312897 -163.46899 -998.95801
83.6287 -163.72099 -998.50299
82.976402 -163.787 -998.28198
82.384201 -163.685 -998.31299
81.753998 -163.76801 -997.90503
81.205704 -163.67999 -997.96002
80.620903 -163.66901 -997.82599
79.923203 -163.88901 -997.34003
79.399597 -163.577 -997.62299
78.835197 -163.36301 -997.776
78.1409 -163.49001 -997.46997
77.556099 -163.53999 -997.25897
76.931602 -163.633 -996.896
76.380699 -163.395 -996.81598
75.731499 -163.64 -996.34802
75.2173 -163.53799 -996.20801
74.614502 -163.55099 -996.01599
73.975998 -163.692 -995.82501
73.348602 -163.69701 -995.68103
72.715401 -163.55 -995.685
72.071701 -163.58099 -995.52197
71.455002 -163.536 -995.38397
70.869003 -163.39999 -995.36902
70.204697 -163.453 -995.16998
69.625397 -163.17101 -995.27399
60.534801 -163.177 -992.45801
59.828098 -163.16701 -992.24298
59.1735 -163.263 -991.97803
58.556499 -163.13 -991.91199
57.9557 -163.049 -991.77899
57.424198 -162.883 -991.89301
56.628601 -163.411 -991.00598
56.133999 -163.117 -991.15802
55.553398 -163.08299 -991.07599
54.572102 -163.868 -989.90601
42.969101 -164.037 -986.04102
42.687302 -162.99699 -987.13098
42.161499 -162.769 -987.26898
41.5495 -162.69099 -987.08698
40.800201 -163.01401 -986.55103
40.247002 -162.866 -986.52002
39.630402 -162.90199 -986.25201
39.072201 -162.854 -986.18701
38.540298 -162.718 -986.15399
37.832199 -162.955 -985.69202
37.251301 -162.92599 -985.54199
36.648201 -162.85699 -985.401
36.0135 -162.834 -985.26501
35.331699 -162.71899 -985.146
-63.306499 -172.66901 -942.69501
-63.445099 -171.849 -943.65002
0 0 0
-64.687302 -172.043 -942.953
-65.064796 -171.729 -943.16302
0 0 0
94.237602 -167.812 -994.745
93.535301 -165.645 -997.414
92.465897 -165.537 -997.35303
91.6726 -164.543 -998.45398
90.851799 -164.08701 -998.87097
90.220596 -163.995 -998.85901
89.440399 -163.868 -998.88
88.645897 -163.84801 -998.67297
88.077103 -163.42 -999.034
87.359299 -163.521 -998.729
0 0 0
86.124603 -163.242 -998.83301
85.564796 -162.88901 -999.08502
84.847702 -163.157 -998.64398
84.322403 -163.011 -998.63898
83.655197 -163.209 -998.255
83.079201 -162.993 -998.29102
82.456902 -163.076 -998.021
81.866798 -163.127 -997.82001
81.325203 -163.00101 -997.86603
80.723801 -163.05299 -997.67902
80.079697 -163.17 -997.40302
79.455002 -163.047 -997.33899
78.823799 -162.992 -997.29602
78.319702 -162.668 -997.49298
77.576103 -163.02299 -996.81097
76.960899 -163.05299 -996.5
76.368797 -163.054 -996.33398
75.8498 -162.92799 -996.36102
75.226601 -163.12601 -996.02899
74.6129 -163.259 -995.56598
74.172997 -162.86301 -995.94897
73.387001 -163.224 -995.35199
72.781998 -163.049 -995.435
72.1744 -162.896 -995.34802
71.561996 -162.88499 -995.198
70.900002 -162.96001 -994.94098
70.288101 -162.85201 -994.94702
69.742996 -162.424 -995.21399
60.589901 -162.714 -992.06897
59.8955 -162.755 -991.82202
59.301601 -162.56799 -991.84698
58.682598 -162.549 -991.67603
58.028999 -162.619 -991.34399
57.389801 -162.735 -991.08002
56.893101 -162.438 -991.216
56.371201 -162.256 -991.24597
55.5998 -162.769 -990.51501
54.831699 -163.019 -989.93103
43.0952 -163.584 -985.50201
42.865799 -162.45799 -986.88
42.189899 -162.54201 -986.51202
41.672798 -162.32201 -986.61499
40.911701 -162.621 -986.04999
40.341202 -162.564 -985.96698
39.718601 -162.55701 -985.76099
39.260101 -162.341 -985.89099
38.566898 -162.578 -985.35101
37.983601 -162.533 -985.255
37.438 -162.45799 -985.17902
36.7178 -162.666 -984.73499
36.0923 -162.511 -984.68103
35.522202 -162.19 -984.85498
-63.951401 -173.758 -940.20801
0 0 0
0 0 0
94.538803 -166.91901 -995.16998
93.620102 -165.371 -996.87799
92.702003 -164.35699 -997.90698
91.608597 -164.29401 -997.79602
91.121002 -163.38699 -998.98199
90.270302 -163.41299 -998.84003
89.546097 -163.16299 -998.83301
88.764999 -163.189 -998.633
0 0 0
0 0 0
86.939201 -162.423 -999.00897
86.186798 -162.714 -998.534
85.6642 -162.313 -998.85101
84.912201 -162.71001 -998.237
84.404999 -162.36099 -998.42401
83.7817 -162.338 -998.23499
83.090103 -162.58099 -997.69202
82.567802 -162.424 -997.77899
81.9608 -162.54401 -997.54999
81.382004 -162.537 -997.50598
80.842201 -162.366 -997.56897
80.140198 -162.556 -997.18701
79.582497 -162.382 -997.23102
78.919601 -162.44901 -996.98297
78.265701 -162.47501 -996.82898
77.675903 -162.22701 -996.90503
76.9506 -162.688 -996.20697
76.539001 -162.32201 -996.526
75.983902 -162.358 -996.48602
75.192703 -162.767 -995.79498
74.744598 -162.42999 -995.867
74.118103 -162.709 -995.28198
73.583801 -162.314 -995.53497
72.8582 -162.42 -995.16901
72.215897 -162.422 -994.89899
71.573898 -162.502 -994.67102
70.9384 -162.575 -994.495
70.416397 -162.14301 -994.78601
69.757103 -162.10699 -994.71997
60.6917 -162.215 -991.66998
60.0686 -162.05901 -991.69202
59.344398 -162.26199 -991.22998
58.7794 -162.06 -991.302
58.0872 -162.246 -990.78802
57.622601 -161.94 -991.02698
56.959801 -162.106 -990.67603
56.43 -162.007 -990.612
55.826401 -161.998 -990.47101
42.865398 -162.403 -985.95697
42.3092 -162.18401 -986.04797
41.836601 -161.94701 -986.23901
41.067001 -162.282 -985.53101
40.505699 -162.092 -985.61798
39.948898 -161.99899 -985.49701
39.255798 -162.21201 -984.96503
38.751499 -162.082 -984.97699
38.1824 -162.078 -984.78998
37.614799 -162.034 -984.69501
36.961899 -162.063 -984.44598
36.3372 -161.952 -984.32703
35.509201 -162.162 -983.80798
34.8727 -161.942 -983.86102
-65.263397 -175.062 -937.11401
-65.161903 -172.62199 -939.67999
95.292397 -164.88499 -996.78998
93.837097 -164.68201 -996.85498
92.9095 -163.561 -997.95398
91.781403 -163.597 -997.88098
91.080002 -163.289 -998.21698
90.347 -162.85699 -998.513
89.568604 -162.746 -998.38702
88.933197 -162.353 -998.68103
0 0 0
87.514702 -162.38901 -998.28302
86.882401 -162.3 -998.18701
86.4058 -161.71899 -998.74298
85.750801 -161.71001 -998.58698
85.060303 -161.877 -998.172
84.413803 -161.983 -997.87598
83.778198 -161.97099 -997.586
83.2407 -161.83099 -997.61401
82.582497 -162.16 -997.02502
82.097 -161.992 -997.216
81.4506 -162.05901 -997.10699
80.858299 -161.992 -997.02301
80.306801 -161.836 -997.11298
79.656502 -161.845 -996.883
78.983002 -161.99699 -996.53497
78.324898 -162.02299 -996.42102
77.680199 -162.024 -996.32703
77.036003 -162.235 -995.97498
76.622398 -161.97701 -996.17499
76.083504 -161.755 -996.30499
75.335602 -161.987 -995.68799
74.726402 -162.082 -995.34003
74.273102 -161.869 -995.35901
73.531502 -161.98399 -994.88898
72.973099 -161.87601 -994.78101
72.386703 -161.851 -994.74902
71.704697 -161.964 -994.40399
71.154602 -161.786 -994.46399
70.516403 -161.692 -994.33002
69.831703 -161.7 -994.146
69.3106 -160.819 -995.112
60.7533 -161.939 -991.06201
60.218399 -161.526 -991.30902
59.5732 -161.52 -991.151
58.962002 -161.429 -991.04199
58.305 -161.565 -990.65503
57.6996 -161.623 -990.40399
57.099499 -161.681 -990.16901
56.553101 -161.576 -990.15002
55.884102 -161.714 -989.76898
55.295601 -161.589 -989.729
43.027901 -162.086 -985.34802
42.4594 -161.90601 -985.35101
41.8438 -161.907 -985.20898
41.314999 -161.661 -985.31799
40.712002 -161.67799 -985.10797
40.150799 -161.55299 -985.09198
39.528999 -161.673 -984.74799
38.930599 -161.72099 -984.50403
38.3619 -161.78999 -984.25897
37.827202 -161.56 -984.328
37.208801 -161.549 -984.13898
36.413898 -161.828 -983.53802
35.836201 -161.532 -983.76099
35.202599 -161.44901 -983.72601
95.486504 -164.252 -996.73199
93.987701 -164.138 -996.526
92.843597 -163.74699 -996.84497
92.177803 -162.476 -998.422
91.159203 -162.82401 -997.75702
90.483704 -162.144 -998.36499
89.681396 -162.131 -998.12903
88.985901 -161.93401 -998.26599
0 0 0
0 0 0
87.0923 -161.46899 -998.34802
86.4338 -161.412 -998.23602
85.7593 -161.42599 -998.01202
85.089401 -161.336 -997.82703
84.511299 -161.202 -997.77301
83.953903 -161.164 -997.67102
83.399803 -161.259 -997.44299
82.800598 -161.526 -997.06299
82.103302 -161.881 -996.53601
81.574097 -161.506 -996.83502
80.958199 -161.455 -996.71997
80.397003 -161.36 -996.72998
79.781998 -161.237 -996.67999
79.105301 -161.41701 -996.23297
78.481598 -161.453 -996.03601
77.965599 -161.16299 -996.30902
77.278 -161.433 -995.883
76.671997 -161.509 -995.60797
76.111 -161.321 -995.60901
75.434502 -161.37 -995.34698
74.9142 -161.32201 -995.20001
74.374901 -161.26601 -995.01703
73.736504 -161.188 -994.84698
72.992599 -161.69 -994.09198
72.480499 -161.452 -994.21503
71.863899 -161.362 -994.133
71.299301 -161.14799 -994.19897
70.598503 -161.30099 -993.79602
70.066704 -160.96201 -994.03998
67.335098 -164.892 -988.83698
60.8638 -161.56 -990.48401
60.2365 -161.367 -990.53003
59.689301 -161.088 -990.68298
59.032501 -161.20799 -990.28302
58.453899 -161.13499 -990.198
57.777599 -161.35001 -989.74597
57.2728 -161.19701 -989.771
56.666401 -161.19701 -989.591
56.089802 -161.166 -989.461
55.345501 -161.459 -988.84399
42.6493 -163.341 -982.65503
42.631599 -161.689 -984.64697
42.0019 -161.64301 -984.45099
41.540798 -161.263 -984.849
40.9202 -161.341 -984.49799
40.257301 -161.498 -984.17401
39.721901 -161.38699 -984.073
39.060299 -161.599 -983.61902
38.394798 -161.832 -983.23901
37.927601 -161.505 -983.37701
37.3549 -161.42799 -983.31403
36.692699 -161.47701 -983.02301
35.9701 -161.51401 -982.87402
35.347301 -161.323 -982.85602
94.907799 -165.77499 -993.53302
93.5103 -165.69099 -993.51202
92.999802 -163.14799 -996.53302
92.193703 -162.26601 -997.5
91.407097 -161.834 -997.83301
90.524498 -161.742 -997.74402
89.9021 -161.271 -998.19897
0 0 0
88.5718 -160.88499 -998.31799
0 0 0
87.227303 -160.799 -998.23602
86.639099 -160.508 -998.396
85.907501 -160.633 -997.98499
85.361801 -160.325 -998.23798
84.709396 -160.47 -997.95801
84.257896 -160.23801 -998.12299
83.438904 -160.97701 -997.10602
82.933403 -161.03 -996.883
82.354797 -160.964 -996.71899
81.699699 -160.91701 -996.57501
81.126503 -160.826 -996.44397
80.554497 -160.67599 -996.48401
79.886803 -160.78101 -996.146
79.318298 -160.711 -996.10797
78.594299 -161.03999 -995.495
77.971199 -161.07001 -995.31403
77.451401 -160.84399 -995.42902
76.801697 -160.994 -995.01898
76.195 -160.97099 -994.90802
75.654999 -160.617 -995.16101
75.004997 -160.78 -994.729
74.555702 -160.509 -994.85303
73.927002 -160.60201 -994.57703
73.297096 -160.778 -994.19397
72.591003 -160.936 -993.78998
71.963097 -160.873 -993.599
71.3368 -160.89799 -993.38397
70.743401 -160.83299 -993.26501
70.165604 -160.64 -993.31201
61.695801 -161.48199 -989.724
61.062401 -161.035 -989.979
60.474098 -160.77 -990.13599
59.767502 -160.955 -989.71002
59.173901 -160.853 -989.62402
58.6717 -160.64301 -989.76398
58.112099 -160.675 -989.60797
57.438202 -160.851 -989.164
56.8913 -160.692 -989.14398
56.247898 -160.815 -988.79199
55.563499 -160.955 -988.40997
54.759102 -161.444 -987.646
42.4426 -162.63499 -982.24902
42.305801 -161.194 -983.93298
41.693298 -161.188 -983.75403
41.052898 -161.276 -983.42499
40.5896 -160.998 -983.70502
39.9772 -161.112 -983.315
39.431599 -161.062 -983.18201
38.719799 -161.38901 -982.57599
38.0228 -161.612 -982.16101
37.4776 -161.407 -982.18799
36.9841 -161.134 -982.37701
36.1283 -161.563 -981.60999
35.337101 -161.85699 -981.02301
94.268898 -163.483 -995.33502
93.114998 -162.52699 -996.26501
92.360397 -161.657 -997.185
91.429901 -161.638 -997.151
90.562599 -161.39799 -997.13702
89.902298 -160.91901 -997.48999
89.179497 -160.991 -997.24799
0 0 0
88.0681 -160.174 -998.06702
87.352097 -160.151 -997.89301
86.698601 -160.075 -997.79498
86.0942 -160.10201 -997.60498
85.4608 -160.145 -997.49402
84.803101 -160.239 -997.41998
84.150597 -160.463 -997.03802
83.599701 -160.42599 -996.875
83.078697 -160.35899 -996.63702
82.515999 -160.181 -996.58301
81.893204 -160.26801 -996.29797
81.303802 -160.21899 -996.12097
80.725998 -160.065 -996.13599
80.108002 -160.11099 -995.927
79.4151 -160.37199 -995.44397
78.740898 -160.521 -995.06201
78.215897 -160.30701 -995.14001
77.6465 -160.213 -995.04401
77.007896 -160.29201 -994.802
76.431297 -160.278 -994.65503
75.785004 -160.35001 -994.39697
75.186501 -160.30099 -994.37701
74.593697 -160.33299 -994.18298
73.970398 -160.394 -993.83301
73.370201 -160.461 -993.56702
72.800697 -160.356 -993.42297
72.096397 -160.55499 -992.95801
71.535599 -160.39799 -992.992
71.022003 -160.10899 -993.151
70.334198 -160.147 -992.82703
61.343601 -160.399 -989.71802
60.7188 -160.311 -989.646
60.0061 -160.491 -989.17798
59.486801 -160.25999 -989.25201
58.924301 -160.19901 -989.271
58.291698 -160.36301 -988.84802
57.6605 -160.446 -988.48798
57.080399 -160.44099 -988.35101
56.449001 -160.511 -988.09399
55.8307 -160.506 -987.89502
55.254601 -160.442 -987.797
42.247898 -161.89301 -981.80701
41.933498 -161.047 -982.74902
41.311001 -161.142 -982.46899
40.7393 -161.151 -982.26599
40.214199 -161.026 -982.30902
39.569 -161.222 -981.86603
39.117298 -160.886 -982.12598
38.550999 -160.873 -982
37.8242 -161.14 -981.50598
37.1423 -161.341 -980.974
36.452702 -161.513 -980.58502
36.0229 -160.856 -981.20898
95.544098 -164.082 -993.987
93.200897 -162.341 -995.547
92.540901 -161.004 -997.02802
91.582298 -161.146 -996.70502
90.714104 -160.95399 -996.73602
0 0 0
0 0 0
88.670799 -160.30901 -996.93201
88.122398 -159.76801 -997.315
87.526901 -159.515 -997.39801
86.977798 -159.41901 -997.44
86.227402 -159.85699 -996.862
85.663101 -159.793 -996.86902
84.975601 -159.899 -996.56201
84.393204 -159.842 -996.51099
83.817001 -159.813 -996.38
83.2202 -159.827 -996.13
82.593903 -159.97 -995.79602
82.134903 -159.569 -996.07501
81.4384 -159.814 -995.57703
80.837898 -159.882 -995.31403
80.241402 -159.83 -995.24103
79.624001 -159.838 -995.09497
79.049896 -159.722 -995.12201
78.444702 -159.74699 -994.83698
77.821404 -159.784 -994.62903
77.1707 -159.92101 -994.18701
76.616798 -159.843 -994.11499
76.047501 -159.74899 -994.09802
75.349899 -160.00301 -993.586
74.857201 -159.67599 -993.78003
74.150703 -159.981 -993.26898
73.612099 -159.804 -993.25702
72.992897 -159.82899 -993.04999
72.327599 -159.994 -992.62903
71.784103 -159.791 -992.63
71.069298 -160.05299 -992.065
70.496597 -159.88 -992.12097
62.131901 -160.72501 -988.61298
61.606899 -160.00999 -989.177
60.919201 -160.065 -988.90997
60.2169 -160.224 -988.47803
59.647499 -160.116 -988.45697
59.077 -160.054 -988.35101
58.448502 -160.24699 -987.91101
58.010601 -159.892 -988.23102
57.2892 -160.203 -987.60999
56.5597 -160.52699 -986.97498
56.0797 -160.23801 -987.17102
55.515598 -160.13 -987.17401
54.1217 -161.82401 -984.724
41.910301 -161.922 -980.62201
41.559799 -161.295 -981.32599
41.1012 -161.024 -981.57001
40.5676 -161.01601 -981.46899
39.8694 -161.27 -981.01398
39.159801 -161.522 -980.44202
38.740002 -161.245 -980.71002
38.023102 -161.429 -980.33801
37.598301 -160.98801 -980.75098
37.016399 -160.87399 -980.74597
35.998699 -161.698 -979.39697
94.699997 -162.015 -995.17603
0 0 0
92.637398 -160.89101 -996.12701
91.720802 -160.586 -996.362
90.971901 -160.209 -996.65503
90.206802 -160.03999 -996.724
89.503502 -159.974 -996.59399
0 0 0
88.241501 -159.367 -996.84998
87.615402 -159.32401 -996.72101
87.099403 -159.239 -996.69702
86.537102 -159.183 -996.68701
85.830803 -159.405 -996.25702
85.237297 -159.31 -996.27301
84.600197 -159.36099 -996.04199
83.8741 -159.688 -995.41498
83.426498 -159.314 -995.77399
82.877602 -159.283 -995.60101
82.177498 -159.53 -995.14697
81.599701 -159.54401 -994.92999
80.842796 -159.98199 -994.20898
80.313004 -159.722 -994.367
79.729103 -159.68401 -994.263
79.169502 -159.577 -994.31403
78.5298 -159.608 -994.02399
77.9683 -159.5 -993.97101
77.429199 -159.383 -993.88
76.860901 -159.34 -993.73602
76.074402 -159.87601 -992.92603
75.632103 -159.44901 -993.22803
74.992699 -159.452 -993.047
74.411102 -159.433 -992.87097
73.760201 -159.57401 -992.48199
73.136902 -159.577 -992.23401
72.5737 -159.528 -992.15698
71.9049 -159.743 -991.67798
71.232399 -159.823 -991.388
70.701698 -159.515 -991.58197
62.2519 -160.75101 -987.53003
61.810299 -159.869 -988.38202
61.0005 -160.187 -987.78802
60.3568 -160.278 -987.40802
59.907299 -159.879 -987.74103
59.2901 -159.94099 -987.45599
58.664501 -160.07001 -987.09399
58.061699 -160.14 -986.84302
57.422501 -160.269 -986.39301
56.828999 -160.317 -986.15601
56.2202 -160.33299 -985.99597
55.613998 -160.45 -985.65997
55.1064 -160.10201 -985.97302
42.138699 -161.235 -980.76398
41.5271 -161.112 -980.828
40.864799 -161.13499 -980.70502
40.333302 -160.976 -980.77502
39.434101 -161.743 -979.63397
38.901699 -161.54601 -979.68402
38.339199 -161.437 -979.67297
37.7495 -161.396 -979.534
37.131599 -161.408 -979.31299
36.515999 -161.119 -979.41998
3.1823699 -99.842499 -1049.55
95.593697 -164.186 -991.89697
93.778 -160.992 -995.47302
92.590302 -161.21899 -994.89099
0 0 0
91.125702 -159.78999 -996.29102
90.466003 -159.41499 -996.56403
0 0 0
89.095001 -159.177 -996.47498
88.446404 -158.994 -996.45599
87.889702 -158.713 -996.69397
87.270302 -158.936 -996.35602
86.548798 -159.399 -995.58899
86.0569 -158.98599 -995.88098
85.384399 -159.078 -995.62097
84.728104 -159.21201 -995.27698
84.183502 -159.02901 -995.36798
83.591599 -159.007 -995.18103
82.969597 -159.22099 -994.745
82.403 -159.123 -994.71198
81.842003 -159.05901 -994.70697
81.222603 -159.065 -994.46503
80.544403 -159.315 -993.98199
79.934799 -159.319 -993.74298
79.3563 -159.209 -993.71503
78.806099 -159.009 -993.67999
78.129303 -159.23399 -993.211
77.562798 -159.209 -993.12598
77.021896 -159.08701 -993.07703
76.416702 -159.18401 -992.71301
75.739304 -159.392 -992.26898
75.264297 -159.028 -992.52698
74.516899 -159.44099 -991.83801
73.9646 -159.28 -991.90399
73.3806 -159.272 -991.72198
72.598503 -159.76801 -990.849
72.199303 -159.269 -991.30902
71.567596 -159.28799 -991.09003
71.055397 -158.93201 -991.36102
62.004299 -159.83099 -987.42297
61.376999 -159.69701 -987.302
60.768398 -159.724 -987.086
60.057499 -160.056 -986.45001
59.529099 -159.85899 -986.57898
58.865799 -159.99899 -986.23798
58.411999 -159.828 -986.297
57.879501 -159.77499 -986.10901
57.0158 -160.44701 -985.09601
56.569901 -160.192 -985.28802
56.067402 -159.903 -985.495
55.191601 -160.552 -984.46802
54.713799 -160.151 -984.90503
41.016102 -161.392 -979.38501
40.358299 -161.188 -979.32703
39.896099 -160.882 -979.60199
39.170898 -161.116 -979.00098
38.629601 -160.834 -979.14301
37.856998 -161.106 -978.487
37.236099 -160.979 -978.46698
36.660099 -160.56799 -978.65997
96.042099 -163.77499 -991.81799
94.352798 -163.48801 -991.87598
93.821999 -160.881 -994.78198
92.984398 -160.32899 -995.19897
91.987503 -160.248 -994.96802
0 0 0
0 0 0
0 0 0
89.295898 -158.71201 -996.11298
88.645401 -158.65199 -995.91901
88.087196 -158.64799 -995.78699
87.471703 -158.66299 -995.66498
86.727097 -159.08099 -995.00403
86.180496 -158.88699 -995.021
85.567001 -158.81 -994.97998
84.944 -158.89 -994.73901
84.307999 -158.959 -994.45001
83.755096 -158.868 -994.43201
83.1436 -158.99899 -994.06598
82.551003 -159.054 -993.81702
81.918098 -159.19299 -993.44702
81.343498 -159.08299 -993.44
80.891296 -158.67101 -993.784
80.177597 -158.98599 -993.19702
79.562202 -158.995 -992.987
78.9841 -158.89 -992.896
78.328796 -159.01401 -992.54199
77.789803 -158.935 -992.43903
77.227402 -158.907 -992.40997
76.551598 -159.161 -991.79199
76.003998 -159.01401 -991.74902
75.480103 -158.84599 -991.78699
74.840302 -158.985 -991.42798
74.273003 -158.93201 -991.323
73.592499 -159.12801 -990.922
73.035896 -159.024 -990.83301
72.204903 -159.68201 -989.78198
71.745102 -159.187 -990.224
71.255096 -158.80099 -990.48297
62.818501 -160.302 -986.229
62.390202 -159.578 -986.77399
61.593201 -159.97301 -986.02502
61.0942 -159.705 -986.23199
60.641998 -159.468 -986.32703
59.873199 -159.899 -985.67902
59.337898 -159.827 -985.54303
58.629902 -160.194 -984.98999
58.006901 -160.338 -984.698
56.933899 -160.194 -984.60303
56.320702 -160.24001 -984.43201
54.9034 -160.756 -983.53302
41.142101 -160.7 -978.71002
40.4524 -160.49699 -978.61499
38.662498 -160.5 -977.815
37.987598 -160.66 -977.39697
37.393101 -160.53999 -977.33301
96.408302 -162.925 -991.92999
94.861099 -162.386 -992.422
94.118301 -160.66299 -994.16602
93.106697 -160.40601 -994.15802
92.301201 -159.64799 -994.81299
0 0 0
0 0 0
90.077599 -158.91299 -995.12402
89.454697 -158.58501 -995.30103
88.663803 -158.843 -994.74799
88.103798 -158.965 -994.453
87.621498 -158.743 -994.62
87.042198 -158.57899 -994.677
86.379402 -158.717 -994.28101
85.887604 -158.446 -994.51099
85.1726 -158.584 -994.15802
84.589996 -158.569 -993.96301
84.076797 -158.42101 -993.96698
83.458199 -158.584 -993.61499
82.824997 -158.767 -993.21503
82.304901 -158.55701 -993.31097
81.588898 -158.92999 -992.63599
80.968498 -158.96201 -992.41998
80.3936 -158.86501 -992.35699
79.734398 -158.981 -991.99902
79.209099 -158.74899 -992.078
78.510399 -159.04401 -991.422
78.181198 -158.35899 -992.19202
77.427902 -158.903 -991.24402
76.743698 -159.134 -990.80902
76.190804 -158.981 -990.87701
75.7528 -158.66701 -991.06702
75.081703 -158.922 -990.56598
74.564903 -158.737 -990.62598
73.853203 -159.08 -989.93201
73.2099 -159.149 -989.63501
72.548302 -159.27299 -989.401
72.052597 -159.092 -989.26398
71.406403 -159.185 -989.00299
62.455898 -160.62199 -984.36603
60.879799 -159.69501 -985.10797
55.1465 -160.995 -981.87201
54.631001 -160.629 -982.39801
112.821 -176.28 -978.18103
96.460197 -163.097 -990.90802
95.010597 -162.48399 -991.164
94.346802 -160.435 -993.487
93.3666 -160.175 -993.52002
92.550102 -159.515 -994.03497
0 0 0
91.119904 -158.625 -994.71198
90.280296 -158.862 -994.14203
89.579597 -158.745 -994.08899
88.967796 -158.511 -994.30402
88.5009 -158.28999 -994.54401
87.915199 -158.42 -994.229
87.367897 -158.19099 -994.24902
86.713203 -158.23 -994.02399
86.183899 -158.129 -993.92401
85.404404 -158.576 -993.16901
85.039902 -157.97701 -993.72198
84.348602 -158.368 -993.04901
83.650597 -158.77299 -992.39099
83.282501 -158.037 -993.18799
82.627899 -158.338 -992.61401
81.933998 -158.621 -992.07501
81.353996 -158.433 -992.133
80.8246 -158.328 -992.06097
80.062302 -158.661 -991.33899
79.427803 -158.82001 -990.95898
78.848 -158.77699 -990.86798
78.314903 -158.65601 -990.77698
77.696198 -158.88699 -990.31897
76.999001 -159.179 -989.71802
76.556602 -158.84801 -990.00897
76.003098 -158.735 -990.091
75.601898 -158.235 -990.51099
75.074799 -158.036 -990.48297
74.241798 -158.614 -989.38501
73.650803 -158.521 -989.383
72.912697 -158.64101 -988.83002
72.460899 -158.194 -989.302
113.376 -176.20399 -977.05298
97.3069 -161.047 -992.25299
94.754997 -160.002 -993.06097
93.810699 -159.562 -993.23901
92.814796 -159.436 -993.15002
0 0 0
0 0 0
90.684799 -158.504 -993.61902
89.905403 -158.60001 -993.33899
89.544296 -157.739 -994.35602
88.868103 -157.97099 -993.89899
88.397499 -157.729 -994.00201
87.590103 -158.27699 -993.07898
86.910301 -158.541 -992.53198
86.2379 -158.728 -992.18799
85.751602 -158.30499 -992.51501
85.139702 -158.467 -992.19702
84.465401 -158.815 -991.63599
83.864601 -159.002 -991.21503
83.395897 -158.614 -991.58502
82.741798 -158.839 -991.08698
82.385201 -158.112 -991.96802
81.561501 -158.812 -990.84302
81.103302 -158.388 -991.21899
80.392197 -158.698 -990.61298
79.857399 -158.541 -990.61401
78.954002 -159.382 -989.34497
78.467697 -159.12199 -989.32202
78.033798 -158.815 -989.41803
77.606697 -158.407 -989.633
76.7892 -158.689 -988.96301
76.928497 -155.765 -992.35498
38.970501 -164.215 -970.77301
38.465698 -163.681 -971.23199
113.562 -175.34599 -977.34003
112.877 -175.31599 -977.245
98.042801 -165.119 -986.52698
97.539497 -161.334 -991.13
95.636703 -162.532 -989.34003
0 0 0
0 0 0
0 0 0
92.5327 -158.496 -993.22803
91.771004 -158.35899 -993.14502
90.987701 -158.50301 -992.724
90.2472 -158.672 -992.28497
89.712502 -158.28999 -992.58398
88.990097 -158.603 -992.05103
88.533203 -158.383 -992.12097
87.975304 -158.181 -992.28198
87.355797 -158.38699 -991.81799
86.449799 -159.233 -990.54901
85.888901 -159.161 -990.45502
85.553299 -158.595 -991.09003
84.984901 -158.755 -990.92102
84.550201 -158.35201 -991.40002
83.886002 -158.524 -991.08099
83.142601 -158.909 -990.41699
82.536903 -158.79201 -990.38501
82.061203 -158.52 -990.591
81.389603 -158.755 -990.11603
80.647301 -159.04201 -989.461
79.985703 -159.13901 -989.078
39.0355 -164.10201 -969.26703
38.522301 -163.478 -969.76001
37.9594 -163.433 -969.67297
113.709 -174.812 -976.87299
113.128 -174.326 -977.17102
112.371 -174.46001 -976.79901
95.035202 -161.38699 -989.37402
94.001999 -161.20399 -989.22198
93.750099 -159.129 -991.92102
92.666702 -159.564 -990.93597
91.932297 -159.056 -991.27399
91.427597 -158.49001 -991.771
90.511497 -159.034 -990.79901
90.036903 -158.769 -990.94202
89.119499 -159.687 -989.63898
88.727203 -159.17799 -990.16998
88.272598 -158.75 -990.60699
87.878197 -158.36099 -990.93103
87.194199 -158.485 -990.57898
86.385597 -159.07899 -989.60199
85.655098 -159.80099 -988.47601
84.9869 -159.196 -989.06403
84.183502 -158.744 -989.66498
83.487297 -158.66 -989.586
82.891899 -158.437 -989.59998
82.262199 -158.44099 -989.34698
81.673698 -158.228 -989.24298
80.866096 -158.472 -988.63397
113.911 -173.92 -976.91302
113.15 -174.213 -976.43298
112.66 -173.19901 -977.448
112.024 -172.93201 -977.547
98.139603 -160.858 -989.69
96.877098 -160.888 -989.22803
0 0 0
94.817703 -160.082 -989.73901
94.100197 -159.494 -990.185
93.226799 -159.283 -990.237
92.288696 -159.509 -989.67102
90.957001 -159.231 -989.62402
90.5718 -158.40601 -990.57001
90.078796 -158.386 -990.43799
89.636497 -158.33701 -990.26202
88.780602 -158.832 -989.60602
88.194199 -159.08501 -989.02899
88.080704 -157.621 -990.828
87.127296 -158.757 -989.11102
86.345001 -159.39301 -987.96503
85.959396 -159.12601 -988.12
85.377602 -159.028 -988.06
84.2323 -158.73801 -987.86902
83.653999 -158.013 -988.57703
83.077698 -157.952 -988.302
82.355301 -158.291 -987.70203
81.944099 -157.59599 -988.25299
61.507301 -154.948 -986.81097
113.176 -173.87399 -975.88599
112.665 -173.088 -976.66498
111.996 -172.46899 -976.98602
98.396004 -161.77 -987.39899
97.158401 -161.608 -987.35797
96.327904 -160.16901 -988.89099
95.320999 -160.29601 -988.51099
94.430099 -159.78 -988.93799
93.782501 -159.33299 -989.22498
92.736801 -160.091 -988.03101
92.566704 -158.075 -990.45099
91.635803 -159.006 -989.03699
91.111801 -158.774 -989.19897
90.501701 -159 -988.69897
89.816002 -159.369 -988.11499
89.336601 -159.205 -988.14301
88.565598 -159.729 -987.22198
87.544899 -159.286 -987.45801
87.347298 -158.179 -988.64697
84.080299 -158.216 -987.35699
75.1418 -153.86099 -990.96002
60.128799 -130.534 -1017.23
62.084 -155.149 -985.25
61.805901 -154.382 -985.99597
61.162102 -154.505 -985.711
60.474998 -154.74001 -985.22998
59.489899 -155.632 -983.948
59.397598 -154.519 -985.25897
58.685001 -154.625 -984.71899
113.605 -172.03799 -976.97998
112.577 -173.183 -975.422
112.094 -172.218 -976.427
98.5401 -162.565 -985.33197
97.1791 -162.814 -984.85797
96.419296 -161.418 -986.34399
95.712601 -160.70599 -986.94098
94.2677 -159.289 -988.35699
93.190399 -160.222 -986.95398
92.702904 -159.642 -987.47803
92.165497 -159.416 -987.61603
91.661797 -159.09399 -987.86603
91.067902 -159.181 -987.60303
90.265701 -159.968 -986.34497
89.572899 -160.117 -985.974
89.358002 -159.16499 -987.01099
88.885201 -159.106 -986.90198
87.990601 -160.091 -985.44299
87.512299 -159.70799 -985.70398
62.846901 -153.798 -985.91302
62.124699 -154.06599 -985.495
59.870098 -153.77499 -985.04602
59.330002 -153.83701 -984.82501
58.6861 -154.02499 -984.39801
58.2225 -154.153 -984.15002
57.064899 -155.47501 -982.06201
113.553 -172.158 -976.02502
112.928 -171.72501 -976.30402
111.919 -172.362 -975.18103
97.893501 -162.14799 -984.78601
97.220703 -160.52 -986.53003
96.249901 -160.362 -986.50299
95.268303 -160.51401 -986.04199
94.682899 -159.577 -987.01099
93.935699 -159.735 -986.573
93.312599 -159.668 -986.52502
92.513496 -160.10699 -985.80298
91.997597 -159.96899 -985.82703
91.191299 -160.47501 -984.94897
90.697899 -160.159 -985.08502
90.139 -160.189 -984.93402
89.067299 -160.158 -984.65302
88.151604 -159.974 -984.43298
84.447304 -160.118 -983.49902
84.084 -160.104 -983.23401
62.7113 -154.27499 -984.47699
61.5825 -154.112 -984.328
60.274399 -154.338 -983.43402
59.943298 -153.694 -984.23401
57.785198 -154.267 -982.85101
57.454899 -154.32201 -982.58698
113.491 -172.211 -974.97498
112.81 -171.89 -975.05603
100.795 -162.659 -983.66498
99.0354 -163.659 -982.263
98.2379 -162.255 -983.75403
97.660896 -160.633 -985.45001
95.501503 -161.328 -984.08398
94.606003 -161.638 -983.33002
94.484596 -159.72099 -985.73297
93.604698 -160.52901 -984.42499
93.2229 -160.041 -984.92902
92.433601 -160.494 -984.15302
92.019203 -159.99001 -984.58899
90.323601 -159.811 -984.39801
89.465302 -160.707 -983.09802
89.064499 -160.82401 -982.61798
88.943497 -159.826 -983.84601
88.558601 -159.80499 -983.66302
85.893799 -160.017 -982.85602
84.906898 -161.33501 -980.90302
84.658401 -160.858 -981.35901
84.062698 -160.647 -980.83099
63.011799 -153.599 -984.35901
61.002201 -153.939 -983.33698
113.733 -171.23801 -975.26703
112.997 -171.142 -975.03998
112.425 -170.57401 -975.68201
99.363503 -164.32201 -980.479
98.415703 -163.40199 -981.32703
97.6371 -162.355 -982.22601
97.110802 -160.918 -983.92999
96.2453 -160.758 -983.87799
95.3899 -160.97501 -983.35901
94.665802 -160.927 -983.22498
94.3535 -160.043 -984.27698
93.749702 -160.10201 -984.05902
93.096298 -160.34399 -983.48401
92.294197 -161.093 -982.26398
90.657799 -160.726 -982.23297
90.178101 -160.507 -982.28101
89.1754 -160.189 -982.10699
85.972099 -161.564 -979.992
85.660202 -160.73399 -980.58197
85.100502 -160.558 -980.56598
84.5317 -160.299 -980.30402
73.5177 -152.653 -987.88599
72.7575 -153.01601 -987.00299
72.163902 -152.967 -987.03101
0 0 0
112.594 -169.554 -975.86298
111.647 -170.60201 -974.44202
101.25 -164.64101 -979.43103
100.156 -163.295 -980.78003
99.008499 -163.05299 -980.68903
97.792801 -160.80701 -983.13202
96.523697 -161.772 -981.664
96.060097 -160.769 -982.69702
95.447403 -160.606 -982.65399
94.364799 -161.895 -980.86499
93.981697 -161.399 -981.255
93.593803 -160.726 -982.04303
93.087997 -160.577 -982.13
92.035202 -160.465 -981.73199
91.195396 -160.929 -980.99298
90.717201 -160.858 -980.883
89.795303 -162.396 -978.55298
89.528 -162.33501 -978.599
89.605499 -161.27 -979.875
88.510696 -159.62801 -981.87201
86.145203 -160.961 -979.25098
85.694397 -160.302 -979.828
76.254402 -152.026 -988.32098
75.738403 -151.35699 -988.83899
74.876602 -152.05901 -987.849
74.179703 -152.20399 -987.37097
73.109596 -152.203 -987.40198
113.077 -170.354 -973.987
112.445 -170.30901 -973.95898
112.051 -169.209 -975.35999
101.744 -165.01199 -978.07001
100.387 -164.636 -978.07202
98.814102 -162.058 -980.789
97.767097 -162.63499 -979.77002
96.963402 -162.39 -979.86499
96.377403 -161.584 -980.62799
95.300003 -161.25 -980.823
94.350304 -162.13901 -979.39203
93.729301 -162.392 -978.85101
93.3479 -162.034 -979.19098
93.233597 -160.459 -981.078
92.147202 -162.024 -978.79901
90.933296 -162.35001 -977.96802
90.206001 -162.407 -977.5
87.334 -165.82401 -972.67798
87.807602 -160.851 -978.901
76.095596 -152.38901 -986.58698
75.433998 -152.06799 -986.79602
3.9528201 -91.533501 -1046.8
2.99313 -92.053596 -1045.96
113.26 -169.812 -973.68701
112.694 -168.957 -974.62903
112.06 -168.80901 -974.78003
111.107 -169.351 -973.66699
101.268 -163.66499 -978.401
100.071 -163.608 -978.11603
99.302902 -162.59801 -979.224
98.5774 -161.851 -979.91199
97.474998 -162.755 -978.36902
96.977798 -161.71201 -979.604
96.178299 -162.26401 -978.70898
95.900497 -161.321 -979.81201
95.268997 -161.59599 -979.29901
94.428101 -162.414 -977.97101
93.833199 -162.505 -977.65302
93.410004 -162.27499 -977.67798
92.783798 -162.215 -977.65997
92.051804 -162.687 -976.76801
91.682404 -162.355 -977.01202
90.695198 -163.09599 -975.62097
90.4347 -161.772 -977.31299
87.680603 -163.662 -974.33002
76.180397 -151.716 -986.64697
113.364 -169.248 -973.435
112.845 -168.297 -974.33801
112.124 -168.254 -974.26001
111.537 -167.75101 -974.84198
101.7 -164.28 -976.67297
100.482 -164.437 -976.005
99.932701 -162.742 -977.96399
98.904503 -163.062 -977.27899
98.158401 -162.556 -977.63702
96.435699 -161.99001 -977.81598
94.539902 -162.77299 -976.26202
93.786598 -163.239 -975.43799
93.1194 -163.418 -975.00201
92.351402 -164.18401 -973.71899
92.169403 -162.908 -975.20203
88.410797 -164.287 -972.57501
113.475 -168.772 -972.841
112.997 -167.58501 -974.10602
112.587 -166.427 -975.5
111.479 -167.79601 -973.59399
102.24 -164.67999 -975.04602
101.567 -163.13 -976.55603
100.245 -163.931 -975.27002
99.713097 -162.82899 -976.56299
98.686401 -163.369 -975.43701
97.961403 -163.201 -975.57599
97.690399 -162.53 -976.211
96.219704 -163.58501 -974.49298
96.246902 -161.69901 -976.823
95.274498 -162.935 -974.97498
94.747101 -162.828 -975.01599
92.662399 -163.731 -973.07397
92.293404 -163.778 -972.854
91.622398 -164.244 -971.91602
89.104401 -164.998 -970.81702
88.749001 -162.854 -972.96698
2.1881399 -90.755699 -1044.62
113.919 -167.16901 -973.81897
113.001 -167.339 -973.29901
112.226 -167.645 -972.89899
111.472 -167.72 -972.62402
111.019 -166.784 -973.72302
102.676 -165.731 -972.39697
101.884 -164.41499 -973.81799
100.836 -164.19 -973.81201
100.367 -162.855 -975.52002
98.211502 -163.118 -974.51703
97.389 -163.927 -973.224
96.735497 -164.339 -972.573
96.210297 -164.108 -972.68201
95.506798 -164.705 -971.72101
95.172997 -164.086 -972.28497
94.625702 -163.744 -972.59601
93.649101 -162.929 -973.22101
92.205498 -165.25999 -969.763
90.136902 -165.214 -969.67603
88.638702 -165.722 -968.31799
60.201698 -124.823 -1014.68
3.2091401 -88.457703 -1046.71
113.118 -167.034 -972.72699
112.535 -166.33501 -973.51703
111.682 -166.52299 -973.03198
111.14 -166.19299 -973.57501
104.275 -167.201 -970.35797
103.237 -166.002 -971.22803
102.468 -164.808 -972.34399
100.498 -165.032 -971.53198
99.999802 -163.81799 -972.91699
99.383797 -163.429 -973.28003
97.769302 -163.646 -972.48297
96.992599 -164.04401 -971.77301
96.313202 -164.39301 -971.15997
95.848099 -164.23599 -971.16498
95.348198 -163.966 -971.328
94.016602 -164.39 -970.24103
0 0 0
113.388 -165.81 -973.30499
112.419 -166.57401 -972.09998
111.95 -165.789 -973.04901
111.168 -165.90601 -972.68597
104.653 -167.702 -968.61798
102.783 -165.74899 -970.17902
101.724 -165.998 -969.51202
100.935 -165.98599 -969.34698
100.738 -163.909 -971.87701
99.825104 -164.623 -970.81598
98.4674 -165.065 -969.849
98.067001 -164.53799 -970.32898
96.880898 -164.98199 -969.39899
96.482498 -164.383 -970.01599
96.124603 -163.85899 -970.59003
95.153 -165.07001 -968.73602
94.898399 -164.16299 -969.66901
0 0 0
112.702 -165.502 -972.60999
111.913 -165.743 -972.05402
111.233 -165.60201 -972.13702
104.057 -167.58299 -967.25897
102.454 -165.703 -969.18103
102.077 -164.16499 -970.95898
100.882 -165.351 -969.06201
100.166 -165.681 -968.47302
100.013 -164.569 -969.71698
99.374496 -164.57401 -969.64697
98.554802 -165.47701 -968.19299
97.82 -166.03999 -967.28101
97.405899 -165.351 -968.02301
96.826401 -165.715 -967.245
96.254997 -165.66 -967.12097
95.562202 -165.96201 -966.53802
95.144203 -165.61099 -966.76202
88.629898 -168.653 -961.14801
87.764297 -168.966 -960.302
0 0 0
0 0 0
112.958 -164.67799 -972.69
112.147 -164.705 -972.35498
111.515 -164.448 -972.57599
110.776 -164.433 -972.58197
105.453 -166.04601 -968.57599
104.001 -166.62 -967.323
103.2 -166.23199 -967.53101
102.294 -165.989 -967.64502
101.07 -167.26801 -965.66101
101.121 -164.72301 -968.85901
99.633003 -165.907 -966.94098
99.011398 -166.153 -966.44501
98.594597 -165.754 -966.81
98.1185 -165.562 -966.802
97.704002 -165.08299 -967.27002
96.604797 -166.73801 -964.841
96.076797 -166.689 -964.737
95.529999 -166.49001 -964.73499
95.047401 -166.235 -964.87097
94.4077 -167.02499 -963.57501
93.386398 -164.049 -967.17902
91.3694 -166.274 -963.79999
90.454102 -167.76401 -961.63202
89.998398 -167.99001 -961.06598
89.559998 -167.756 -961.03699
88.678001 -168.347 -959.90002
88.004204 -168.181 -959.71301
87.401398 -167.617 -960.177
61.023899 -122.813 -1013.86
112.804 -165.179 -970.94897
112.351 -163.994 -972.24902
111.608 -163.992 -972.052
111.138 -163.172 -973.00299
104.75 -166.645 -966.237
102.419 -165.397 -967.185
101.703 -165.689 -966.52502
100.164 -166.785 -964.77899
99.7789 -166.20799 -965.31598
98.449501 -166.886 -964.13
97.656601 -165.828 -965.117
96.700203 -166.94701 -963.49902
95.986099 -167.40199 -962.67499
95.211304 -167.78999 -961.815
94.636497 -168.494 -960.63501
91.338699 -168.799 -959.51398
90.916 -168.25301 -959.64099
90.559502 -167.53101 -960.37402
89.669998 -168.267 -958.94202
89.116798 -167.87801 -959.17401
88.515701 -167.83299 -958.89697
112.932 -164.328 -970.72101
112.262 -164.104 -971.13702
111.726 -163.539 -971.57599
110.915 -163.64999 -971.26202
105.004 -168.437 -962.93903
104.371 -167.239 -964.297
103.493 -167.211 -964.15302
102.693 -167.136 -963.90698
102.066 -166.94501 -963.87097
100.894 -167 -963.35999
100.324 -167.088 -963.14899
100.062 -166.108 -964.30798
99.255798 -166.80701 -963.25299
98.588799 -167.26199 -962.35303
97.759598 -167.888 -961.41699
97.157501 -168.032 -961.04102
96.603104 -167.70599 -961.25897
95.880302 -168.315 -960.10602
91.783096 -170.153 -956.58502
91.588699 -168.394 -958.43799
90.9291 -167.92 -958.71198
90.096298 -168.90601 -957.112
89.736397 -168.368 -957.41199
0 0 0
4.4742398 -84.637604 -1046.45
3.2179 -85.603401 -1044.9
112.902 -164.742 -969.20898
112.488 -163.327 -970.95697
111.801 -163.214 -971.02698
110.965 -163.286 -970.62299
110.341 -162.804 -971.12201
104.678 -168.86501 -961.26501
104.524 -166.586 -963.93701
103.486 -167.21201 -962.91998
102.524 -167.93401 -961.68799
102.223 -166.923 -962.716
101.459 -167.416 -961.92603
100.237 -167.86099 -960.98999
99.125801 -167.879 -960.54797
98.411697 -168.358 -959.71802
98.289398 -166.81 -961.58398
97.410103 -167.63901 -960.27899
0 0 0
0 0 0
4.9026799 -84.719704 -1045.6
4.3111 -84.515099 -1045.76
2.8034401 -84.734703 -1045.05
112.581 -162.94501 -970.315
111.903 -162.61 -970.57501
111.334 -162.011 -971.25201
110.687 -161.70399 -971.35303
109.939 -161.86501 -971.20099
103.897 -168.888 -959.49799
103.529 -167.552 -961.13898
102.885 -167.53999 -960.914
102.382 -167.14 -961.28601
101.828 -167.48 -960.65399
101.244 -167.605 -960.27197
100.296 -168.662 -958.68103
