# .PCD v0.7 - Point Cloud Data file format
VERSION 0.7
FIELDS x y z
SIZE 4 4 4
TYPE F F F
COUNT 1 1 1
WIDTH 1733
HEIGHT 1
VIEWPOINT 0 0 0 1 0 0 0
POINTS 1733
DATA ascii
-102.211 -145.77901 -1058.11
-101.035 -145.567 -1057.8101
-100.354 -145.455 -1057.9
-99.684303 -145.27699 -1057.97
-98.746803 -145.049 -1057.92
-98.436897 -144.97501 -1058.3
-97.400002 -144.714 -1058.16
-96.540497 -144.50101 -1058.13
-96.1091 -144.41299 -1058.4301
-96.012901 -144.411 -1059.04
-95.415298 -144.258 -1059.41
-94.7379 -144.127 -1059.6801
-95.994797 -144.41499 -1061.45
-87.582497 -143.077 -1067.87
-83.616898 -142.162 -1065.87
-82.944199 -142.078 -1066.26
-11.1342 -128.892 -1108.95
-10.4006 -128.758 -1109.22
-9.7305899 -128.66901 -1109.48
-9.0323496 -128.53 -1109.72
-8.5311899 -128.435 -1110.14
-8.17383 -128.38699 -1110.65
-7.4009399 -128.20799 -1110.78
-6.8231802 -128.10201 -1111.17
-6.31494 -127.967 -1111.46
-6.0538902 -127.998 -1112.1
-5.0201998 -127.833 -1112.0699
1.31909 -126.755 -1117.72
2.5261199 -126.489 -1117.5699
2.97662 -126.449 -1118.08
3.7372999 -126.295 -1118.3101
4.3445401 -126.171 -1118.62
4.5111699 -126.186 -1119.28
5.2518902 -126.061 -1119.41
5.7094102 -125.997 -1119.8
6.0349102 -125.946 -1120.33
6.3642001 -125.898 -1120.89
7.2754502 -125.706 -1120.92
7.6824298 -125.617 -1121.39
8.5180101 -125.499 -1121.53
9.0059204 -125.399 -1121.98
9.5701904 -125.336 -1122.36
9.8489399 -125.316 -1122.9399
10.4693 -125.132 -1123.15
11.0157 -125.035 -1123.51
11.5127 -124.952 -1123.87
12.0766 -124.835 -1124.21
12.2769 -124.783 -1124.9399
13.3389 -124.528 -1124.91
13.8751 -124.385 -1125.23
13.9169 -124.421 -1125.99
14.8301 -124.226 -1126.01
15.0612 -124.235 -1126.71
15.5038 -124.248 -1127.08
16.446501 -124.075 -1127.0601
17.2316 -123.883 -1127.2
17.416 -123.963 -1127.88
18.0061 -123.855 -1128.25
18.436501 -123.793 -1128.73
18.7554 -123.72 -1129.37
19.6534 -123.603 -1129.45
20.4247 -123.453 -1129.61
20.743401 -123.362 -1130.22
20.747101 -123.402 -1131.04
21.9771 -123.132 -1130.7
22.312 -123.078 -1131.25
22.3214 -123.136 -1132.2
23.4681 -122.901 -1131.99
24.336201 -122.719 -1132.05
23.833799 -122.936 -1133.52
24.7806 -122.725 -1133.5699
25.4484 -122.594 -1133.84
26.389601 -122.421 -1134.66
26.451401 -122.531 -1135.47
27.174299 -122.373 -1135.67
28.340799 -122.155 -1135.53
29.087 -122.047 -1135.66
28.3995 -122.287 -1137.3
28.459 -122.306 -1138.23
30.452299 -121.819 -1137.24
30.615299 -121.83 -1138.1
31.009701 -121.808 -1138.61
31.706499 -121.651 -1138.86
31.364 -121.825 -1140.1
32.348301 -121.64 -1139.96
32.790298 -121.558 -1140.47
33.5369 -121.475 -1141.71
35.804901 -120.94 -1140.45
34.792999 -121.257 -1142.45
34.736599 -121.341 -1143.52
35.7076 -121.105 -1143.48
36.443901 -120.974 -1143.61
36.805199 -120.962 -1144.27
37.467999 -120.875 -1144.73
37.395 -121.072 -1147.53
-116.796 -148.55701 -1062.22
-115.051 -148.23199 -1061.88
-113.893 -148.07001 -1062.02
-112.126 -147.742 -1061.95
-103.337 -145.27299 -1058.3199
-102.191 -145.04401 -1057.9
-101.325 -144.896 -1057.85
-100.493 -144.73801 -1057.8101
-99.400902 -144.44099 -1057.6
-98.619202 -144.27499 -1057.67
-98.2369 -144.231 -1058.02
-97.462502 -144.04601 -1058.08
-97.280899 -144.063 -1058.59
-96.384598 -143.841 -1058.45
-95.700996 -143.659 -1058.6899
-95.174004 -143.54601 -1059.12
-94.709999 -143.40199 -1059.51
-95.621101 -143.62801 -1061
-86.653702 -142.084 -1067.02
-83.666397 -141.49001 -1065.73
-82.736504 -141.31 -1065.89
-10.6765 -128.133 -1109.48
-9.7568998 -127.973 -1109.51
-9.60394 -127.957 -1110.24
-9.0859404 -127.84 -1110.64
-8.3028603 -127.746 -1110.78
-7.9665499 -127.701 -1111.34
-6.9856 -127.541 -1111.34
-6.65698 -127.51 -1111.83
-6.26752 -127.439 -1112.33
-5.4814501 -127.293 -1112.51
-4.7375498 -127.214 -1112.74
1.01984 -126.038 -1118.03
2.27631 -125.823 -1117.89
2.8257401 -125.765 -1118.36
3.7429199 -125.552 -1118.4399
4.1932998 -125.505 -1118.86
4.5382099 -125.45 -1119.38
4.8354502 -125.454 -1119.91
5.3909302 -125.377 -1120.24
5.8809199 -125.309 -1120.61
6.2548199 -125.241 -1121.15
7.24225 -125.022 -1121.08
7.2470698 -125.089 -1121.96
8.1875601 -124.857 -1122
8.6763897 -124.791 -1122.47
9.6432505 -124.598 -1122.47
9.8703003 -124.583 -1123.15
10.1827 -124.53 -1123.67
11.0724 -124.395 -1123.7
11.7004 -124.228 -1124
11.8176 -124.207 -1124.79
12.3562 -124.121 -1125.22
12.8427 -124.006 -1125.59
12.9764 -124.059 -1126.24
13.529 -123.936 -1126.65
14.1671 -123.847 -1126.9301
14.1712 -123.839 -1127.77
15.8071 -123.485 -1127.11
15.5893 -123.643 -1128.14
16.437401 -123.491 -1128.26
16.9797 -123.373 -1128.6
17.686001 -123.298 -1128.91
17.6005 -123.381 -1129.85
18.166401 -123.268 -1130.29
19.268101 -123.043 -1130.22
19.5812 -123.023 -1130.9
20.550501 -122.84 -1130.79
21.145599 -122.708 -1131.1
21.207399 -122.783 -1132.78
22.129 -122.631 -1132.75
23.0005 -122.404 -1132.88
23.499701 -122.351 -1133.39
23.316099 -122.472 -1134.46
24.308001 -122.314 -1134.52
24.6782 -122.237 -1135.12
24.857201 -122.245 -1135.85
25.396299 -122.144 -1136.21
25.952499 -122.079 -1136.52
26.529301 -121.989 -1136.92
27.736099 -121.683 -1136.6801
27.4935 -121.818 -1137.86
27.5632 -121.896 -1138.76
28.9177 -121.622 -1138.39
28.8333 -121.673 -1139.46
29.0509 -121.709 -1140.28
31.0721 -121.11 -1139.27
31.187401 -121.194 -1140.09
30.606899 -121.406 -1141.51
31.5546 -121.192 -1141.49
31.921301 -121.18 -1142.11
33.254101 -120.909 -1142.8101
33.313 -120.992 -1143.72
34.369099 -120.72 -1143.65
34.521099 -120.757 -1144.47
34.800201 -120.741 -1145.13
35.271999 -120.738 -1145.59
36.222301 -120.512 -1145.49
37.370098 -120.202 -1145.53
36.914902 -120.486 -1147.1899
37.641998 -120.5 -1149.5699
36.397301 -121.056 -1152.6899
-117.545 -148.049 -1062.67
-114.94 -147.51199 -1061.71
-114.21 -147.436 -1062.1
-103.004 -144.515 -1057.86
-102.028 -144.27699 -1057.59
-101.464 -144.202 -1057.74
-100.571 -143.979 -1057.66
-99.497002 -143.744 -1057.51
-98.639297 -143.552 -1057.51
-97.7799 -143.345 -1057.5
-97.416397 -143.239 -1057.8101
-96.535004 -143.145 -1057.76
-96.503304 -143.205 -1058.36
-95.793404 -143.10699 -1058.66
-95.092697 -142.965 -1058.9399
-94.574402 -142.91901 -1059.3101
-95.511002 -143.15199 -1060.8199
-87.174301 -141.507 -1067.21
-83.894501 -140.79201 -1065.7
-82.981499 -140.62801 -1065.9
-11.5156 -127.582 -1109.3199
-11.2363 -127.599 -1110.03
-10.0966 -127.362 -1109.91
-9.5289898 -127.283 -1110.25
-9.3959398 -127.28 -1110.97
-8.5700703 -127.141 -1111.08
-7.9408598 -127.062 -1111.38
-7.35394 -126.986 -1111.74
-6.8735399 -126.917 -1112.16
-6.31604 -126.776 -1112.45
-5.8583398 -126.719 -1112.89
-5.2986498 -126.636 -1113.29
-3.2434101 -126.239 -1112.64
1.2049 -125.298 -1117.98
1.29541 -125.393 -1118.9301
2.8866 -125.066 -1118.49
3.31653 -125.011 -1118.99
3.5634201 -125.067 -1119.64
4.0963702 -124.941 -1120.01
4.7525001 -124.828 -1120.2
4.8927598 -124.824 -1120.91
5.4351802 -124.707 -1121.28
5.74579 -124.707 -1121.87
6.6889601 -124.495 -1121.87
7.3753099 -124.329 -1122.14
7.1136498 -124.493 -1123.27
8.0436401 -124.299 -1123.35
9.0336304 -124.101 -1123.3101
9.4915199 -124.013 -1123.78
9.7269297 -124.02 -1124.45
10.0833 -124.001 -1124.99
10.6523 -123.857 -1125.35
11.6619 -123.613 -1125.36
12.522 -123.41 -1125.4399
12.2732 -123.575 -1126.39
12.3112 -123.626 -1127.3
13.2643 -123.367 -1127.36
13.4631 -123.353 -1128.03
13.8189 -123.333 -1128.47
14.8248 -123.147 -1128.4399
15.333 -123.1 -1128.88
15.9246 -122.975 -1129.24
16.3528 -122.921 -1129.75
16.489201 -122.958 -1130.48
17.0233 -122.859 -1130.95
18.1609 -122.628 -1130.87
18.687201 -122.574 -1131.39
18.9506 -122.567 -1132.01
19.410101 -122.518 -1132.5
20.105301 -122.407 -1132.6899
20.0159 -122.436 -1133.65
20.942301 -122.266 -1133.67
21.602699 -122.087 -1133.95
21.590401 -122.258 -1134.85
22.709299 -122.001 -1134.76
23.4135 -121.844 -1134.99
23.649401 -121.861 -1135.85
23.936199 -121.82 -1136.48
25.2936 -121.53 -1136.12
24.836399 -121.658 -1137.48
25.2747 -121.584 -1137.9399
26.534599 -121.314 -1137.67
26.5987 -121.36 -1138.47
26.9396 -121.328 -1139.13
26.7682 -121.426 -1140.23
28.5889 -121.078 -1140.53
28.9034 -121.069 -1141.22
29.0709 -121.108 -1142.02
29.4338 -121.083 -1142.5
30.660999 -120.732 -1142.23
30.2892 -120.909 -1143.5601
31.3109 -120.656 -1143.51
32.054699 -120.513 -1143.78
32.531399 -120.433 -1144.23
32.455101 -120.535 -1145.36
31.7377 -120.869 -1146.98
34.666 -120.056 -1145.13
35.020302 -120.056 -1145.61
35.4174 -119.98 -1146.1899
33.953701 -120.426 -1148.5699
36.2565 -119.878 -1147.41
38.423599 -119.354 -1146.53
37.7267 -119.69 -1148.61
37.660301 -119.799 -1150.1899
-117.247 -147.21201 -1062.33
-115.484 -146.88901 -1061.97
-114.491 -146.78999 -1062.1801
-111.614 -146.22501 -1061.25
-101.44 -143.439 -1057.5601
-100.467 -143.28 -1057.45
-99.860901 -143.121 -1057.63
-98.860001 -142.925 -1057.54
-97.879501 -142.715 -1057.48
-97.543602 -142.701 -1057.75
-97.178001 -142.634 -1058
-96.628197 -142.53101 -1058.28
-95.978203 -142.345 -1058.59
-95.087601 -142.259 -1058.71
-94.738197 -142.278 -1059.25
-96.3088 -142.67101 -1061.3
-86.931 -140.763 -1066.88
-84.074898 -140.134 -1065.65
-82.992897 -139.914 -1065.71
-12.5125 -127.095 -1110.21
-11.3862 -126.948 -1110.26
-10.439 -126.742 -1110.3199
-9.9468403 -126.707 -1110.75
-9.4374399 -126.599 -1111.13
-8.6749897 -126.412 -1111.29
-8.1405602 -126.314 -1111.6801
-7.5159302 -126.244 -1112.03
-7.5729399 -126.315 -1112.91
-7.0252099 -126.199 -1113.26
-6.16571 -126.02 -1113.33
-5.4833398 -125.944 -1113.64
-4.76056 -125.876 -1114
1.3212301 -124.684 -1119.16
1.95276 -124.608 -1119.55
2.2554901 -124.607 -1120.28
2.8694501 -124.54 -1120.53
3.8108499 -124.283 -1120.59
4.2642202 -124.21 -1121.02
4.6354399 -124.156 -1121.53
4.4007001 -124.297 -1122.5601
5.3976402 -124.146 -1122.49
6.05054 -124.036 -1122.83
6.2953501 -124.075 -1123.49
6.8507099 -123.956 -1123.92
7.7068501 -123.818 -1124.09
8.3049297 -123.737 -1124.4399
8.5987501 -123.739 -1125.1
9.2039804 -123.643 -1125.4
10.7634 -123.262 -1124.86
9.90765 -123.487 -1126.6899
11.2407 -123.173 -1126.22
10.964 -123.267 -1127.35
11.2421 -123.294 -1127.98
12.2337 -122.983 -1127.99
13.0778 -122.855 -1128.05
13.9949 -122.707 -1129.01
13.5313 -122.865 -1130.4
14.0327 -122.82 -1130.71
15.6978 -122.423 -1130.11
15.8214 -122.422 -1130.8199
16.761299 -122.276 -1131.8199
16.995899 -122.316 -1132.61
18.194799 -122.029 -1132.4399
17.742201 -122.205 -1133.89
19.297501 -121.829 -1133.24
19.5252 -121.89 -1134.76
20.6362 -121.67 -1134.59
20.950001 -121.613 -1135.22
21.3312 -121.616 -1135.84
21.777901 -121.518 -1136.36
22.451401 -121.4 -1136.65
22.769699 -121.406 -1137.35
22.679899 -121.561 -1138.4301
24.2386 -121.11 -1137.88
24.524099 -121.107 -1138.53
23.843201 -121.311 -1140.0699
25.189899 -121.039 -1139.64
26.056101 -120.857 -1139.79
25.741501 -121.03 -1140.99
27.221001 -120.64 -1140.63
26.750799 -120.861 -1142.05
27.510401 -120.714 -1142.3199
28.120001 -120.567 -1142.72
29.1141 -120.415 -1142.7
29.060499 -120.454 -1143.72
29.3818 -120.395 -1144.27
30.3915 -120.169 -1144.26
31.312599 -119.958 -1144.28
31.0494 -120.131 -1145.46
31.774 -120.052 -1146.75
32.524101 -119.974 -1147
32.7061 -119.959 -1147.77
33.374802 -119.81 -1148.11
34.6838 -119.522 -1147.79
35.023499 -119.453 -1148.46
35.7393 -119.295 -1148.8101
36.1912 -119.398 -1150.8
36.464901 -119.553 -1152.1
36.629902 -119.619 -1153.97
-117.042 -146.46201 -1062.04
-116.158 -146.37801 -1062.38
-115.132 -146.239 -1062.5601
-111.452 -145.442 -1060.9301
-101.329 -142.77901 -1057.35
-100.385 -142.55499 -1057.24
-99.709503 -142.41701 -1057.36
-99.109398 -142.332 -1057.53
-98.1838 -142.17799 -1057.53
-97.420303 -142.02 -1057.5
-96.8619 -141.912 -1057.64
-96.4561 -141.774 -1058.03
-95.918503 -141.60899 -1058.36
-95.4673 -141.55499 -1058.77
-94.988098 -141.48399 -1059.1899
-96.4786 -141.905 -1061.22
-86.626198 -139.998 -1066.51
-83.933098 -139.41499 -1065.36
-83.081802 -139.239 -1065.6
-62.746498 -133.22099 -1040.53
-11.9489 -126.229 -1109.84
-11.2479 -126.207 -1110.33
-10.8609 -126.17 -1110.89
-10.0247 -126.011 -1111.02
-10.1028 -126.045 -1111.9
-9.3399 -125.899 -1112.0699
-8.4509296 -125.749 -1112.1801
-8.1328697 -125.72 -1112.79
-7.5782499 -125.608 -1113.14
-7.1823101 -125.601 -1113.65
-6.8522902 -125.511 -1114.1801
-6.08008 -125.386 -1114.4
-5.3678598 -125.289 -1114.7
0.38769501 -124.148 -1120.33
1.3479 -124.051 -1120.52
2.1482501 -123.968 -1120.79
2.3231201 -124.041 -1121.5601
2.93262 -123.969 -1121.8101
3.2111199 -123.965 -1122.41
3.6306801 -123.941 -1122.84
5.0034199 -123.681 -1122.4399
5.1486201 -123.751 -1123.1801
5.3685899 -123.79 -1123.88
6.24615 -123.623 -1123.98
6.7299199 -123.562 -1124.49
7.17523 -123.504 -1124.99
7.7739301 -123.442 -1125.4
8.21173 -123.319 -1125.9399
9.0659199 -123.148 -1126.03
9.1274996 -123.109 -1127.22
9.4993896 -122.984 -1127.58
9.5050001 -122.942 -1128.23
11.1136 -122.574 -1127.76
11.6851 -122.525 -1128.12
12.2117 -122.44 -1128.51
11.3978 -122.782 -1130.16
12.1063 -122.538 -1130.53
12.9805 -122.372 -1130.65
13.8225 -122.154 -1130.79
13.9579 -122.193 -1131.54
15.0262 -121.962 -1131.37
15.1719 -121.936 -1132.16
15.7088 -121.926 -1133.48
17.0114 -121.666 -1134.26
17.736799 -121.537 -1134.5
18.4401 -121.414 -1134.8
18.7012 -121.398 -1135.46
18.655399 -121.451 -1136.3199
19.8246 -121.161 -1136.1801
19.135401 -121.437 -1137.7
21.3405 -120.919 -1136.59
20.8585 -121.099 -1138.03
21.2633 -121.084 -1138.53
22.5734 -120.748 -1138.35
23.2689 -120.651 -1138.63
22.549299 -120.915 -1140.26
23.406401 -120.736 -1140.35
24.1185 -120.618 -1140.54
24.922501 -120.435 -1140.6801
24.763901 -120.515 -1141.86
25.649099 -120.373 -1141.89
26.2703 -120.234 -1142.3101
26.3325 -120.281 -1143.1899
26.8943 -120.208 -1143.65
27.949301 -119.968 -1143.6899
27.718399 -120.092 -1144.88
28.9011 -119.802 -1144.65
29.549801 -119.758 -1145.8199
29.9156 -119.705 -1146.45
30.944401 -119.567 -1147.38
31.124701 -119.608 -1148.26
32.209702 -119.419 -1148.05
32.314602 -119.369 -1149.01
32.680599 -119.357 -1149.64
34.684601 -118.867 -1148.5699
33.851501 -119.14 -1150.38
33.8941 -119.186 -1151.3199
36.068199 -118.824 -1151.65
34.853001 -119.376 -1156.39
-117.643 -145.992 -1062.42
-115.931 -145.64799 -1062.09
-114.984 -145.532 -1062.33
-112.278 -144.967 -1061.42
-112.181 -144.96899 -1062.65
-101.658 -142.202 -1057.4399
-100.318 -141.867 -1057.05
-99.893799 -141.778 -1057.33
-98.857697 -141.582 -1057.16
-98.392197 -141.56599 -1057.45
-97.833801 -141.451 -1057.63
-97.132896 -141.261 -1057.75
-96.699097 -141.201 -1058.12
-95.921204 -140.961 -1058.25
-95.189499 -140.79601 -1058.39
-94.7966 -140.755 -1058.84
-84.050697 -138.76801 -1065.28
-82.758202 -138.528 -1065.2
-80.6987 -138.127 -1064.91
-63.068501 -132.705 -1040.62
-11.9262 -125.753 -1111.17
-11.2559 -125.616 -1111.4301
-10.5566 -125.511 -1111.73
-10.7637 -125.61 -1112.79
-9.6722403 -125.383 -1112.67
-8.8703604 -125.187 -1112.84
-8.3236704 -125.093 -1113.24
-8.2487803 -125.089 -1113.99
-7.5087299 -124.942 -1114.24
-7.4539199 -124.913 -1115.02
3.92419 -123.178 -1123.71
4.3051801 -123.291 -1124.25
5.0947299 -123.088 -1124.35
5.50629 -123.056 -1124.85
6.03546 -122.999 -1125.29
6.42065 -122.908 -1125.83
7.8112798 -122.528 -1125.39
7.9913301 -122.463 -1126.08
9.2685499 -122.174 -1125.8101
9.8449097 -122.232 -1127.5699
9.3884897 -122.237 -1128.9
10.2206 -122.175 -1129.1
10.3721 -122.26 -1129.9
12.1481 -121.835 -1130.1801
12.2791 -121.907 -1131
12.0126 -122.057 -1132.26
13.1431 -121.831 -1132.03
12.7388 -121.987 -1133.23
13.7845 -121.715 -1133.12
13.7815 -121.765 -1134.0601
14.7955 -121.561 -1134.05
15.4446 -121.406 -1134.4301
15.3711 -121.496 -1135.52
17.4224 -121.103 -1136.37
17.8974 -121.087 -1136.8
18.680401 -120.965 -1137.85
19.679501 -120.757 -1137.88
19.6021 -120.802 -1138.9
20.216499 -120.684 -1139.24
20.4132 -120.719 -1140.03
21.940001 -120.337 -1139.61
21.9797 -120.404 -1140.5601
22.9711 -120.177 -1140.61
22.952101 -120.248 -1141.45
23.1726 -120.214 -1142.23
23.4123 -120.272 -1142.87
24.4279 -120.024 -1142.84
25.2642 -119.836 -1142.98
27.094299 -119.475 -1143.12
26.481899 -119.697 -1144.78
27.179399 -119.62 -1145.08
27.1665 -119.694 -1146.09
28.409401 -119.343 -1145.75
29.228901 -119.253 -1145.9
29.584 -119.2 -1146.4301
30.2082 -119.05 -1146.79
29.932899 -119.196 -1148.0601
30.723101 -119.088 -1148.24
30.851 -119.107 -1149.1899
31.3232 -119.044 -1149.73
32.169701 -118.874 -1149.84
32.3895 -118.856 -1150.65
32.966202 -118.742 -1151.01
33.551998 -118.621 -1151.3
33.801701 -118.618 -1152.1
34.868801 -118.438 -1152.26
34.520802 -118.669 -1154.1
-116.161 -145.056 -1062.21
-115.39 -144.966 -1062.54
-112.696 -144.51801 -1061.61
-101.988 -141.66299 -1056.88
-101.632 -141.552 -1057.3
-100.292 -141.213 -1056.9
-99.840599 -141.095 -1057.13
-99.082802 -140.98 -1057.14
-98.3545 -140.87 -1057.22
-97.7509 -140.73599 -1057.4
-96.917999 -140.595 -1057.45
-96.614601 -140.539 -1057.91
-95.887703 -140.38699 -1058.08
-95.399498 -140.313 -1058.41
-94.973099 -140.16701 -1058.8101
-96.485199 -140.58099 -1060.83
-89.284401 -139.32001 -1068.02
-84.188698 -138.233 -1065.25
-83.420197 -138.09399 -1065.54
-12.4907 -125.294 -1111.92
-12.1661 -125.291 -1112.6
6.5859399 -121.761 -1125.72
7.70538 -121.533 -1125.61
8.1989698 -121.459 -1126.05
8.4419603 -121.494 -1126.92
10.4048 -121.14 -1126.35
8.4345102 -122.006 -1130.54
10.0797 -121.675 -1129.9
9.6135902 -121.85 -1131.21
10.0944 -121.804 -1131.71
11.2687 -121.52 -1131.62
11.2606 -121.574 -1132.62
11.8485 -121.553 -1133
11.7121 -121.593 -1134.0699
12.9473 -121.308 -1133.76
13.4316 -121.245 -1134.16
13.7435 -121.27 -1135.6899
15.3133 -120.86 -1135.11
15.2321 -120.961 -1136.26
16.657101 -120.669 -1136.87
16.552299 -120.823 -1137.9
18.878599 -120.162 -1136.5699
17.0441 -120.742 -1139.22
18.2971 -120.399 -1138.95
19.2654 -120.217 -1138.9301
20.6362 -119.841 -1138.6
20.2584 -120.013 -1139.88
20.704399 -119.927 -1140.49
20.573999 -120.042 -1141.58
22.672199 -119.605 -1141.4399
22.390499 -119.76 -1142.6899
22.2068 -119.814 -1143.85
23.438801 -119.595 -1143.52
23.812 -119.588 -1144.15
23.964701 -119.661 -1144.91
24.542801 -119.533 -1145.3199
25.5646 -119.315 -1145.36
26.2444 -119.158 -1145.73
26.805 -119.117 -1146.22
26.879999 -119.155 -1147.1
28.2076 -118.886 -1146.65
27.2477 -119.155 -1148.59
28.7257 -118.861 -1148.09
28.1714 -119.102 -1149.48
29.378401 -118.802 -1149.29
29.1271 -118.937 -1150.47
30.545799 -118.627 -1150.22
31.390699 -118.421 -1150.3199
30.999901 -118.652 -1151.6899
32.185902 -118.34 -1151.5699
32.457199 -118.348 -1152.27
32.5942 -118.358 -1153.05
33.736401 -118.138 -1152.8199
32.979301 -118.386 -1154.97
33.9692 -118.217 -1155.24
34.935299 -118.063 -1155.84
34.087299 -118.585 -1158.67
-116.463 -144.461 -1062.3101
-115.034 -144.269 -1062.16
-113.855 -144.05099 -1062.3
-101.828 -140.97501 -1056.62
-101.52 -140.884 -1057.14
-100.284 -140.564 -1056.77
-99.772202 -140.45799 -1056.86
-99.052597 -140.407 -1056.95
-98.381401 -140.293 -1057.11
-98.077797 -140.255 -1057.5
-97.1996 -140.05299 -1057.51
-96.660896 -139.97099 -1057.8101
-95.827904 -139.839 -1057.9301
-95.859398 -139.84399 -1058.7
-94.877403 -139.56799 -1058.62
-84.080597 -137.58501 -1065.04
-83.104797 -137.40601 -1065.14
-12.2542 -124.642 -1112.22
8.2059898 -121.209 -1127.7
7.9221201 -121.645 -1131.74
7.95398 -121.686 -1132.59
8.7838697 -121.502 -1132.52
9.9879799 -121.249 -1132.46
9.6458101 -121.386 -1133.84
10.7379 -121.199 -1133.8
11.0782 -121.129 -1134.41
11.4466 -121.06 -1134.95
12.0033 -120.975 -1135.27
12.8698 -120.827 -1135.27
13.7247 -120.643 -1135.4
13.3812 -120.786 -1136.7
13.5904 -120.748 -1137.5
15.1277 -120.422 -1137.09
15.3801 -120.322 -1137.8101
15.4626 -120.437 -1138.65
22.8619 -119.168 -1145.72
24.334499 -118.911 -1145.2
24.178499 -119.047 -1146.39
24.164801 -119.161 -1147.4301
25.1127 -118.966 -1147.51
24.4592 -119.2 -1149.22
26.011499 -118.816 -1148.63
26.081699 -118.876 -1149.47
27.867599 -118.448 -1148.6
27.700001 -118.556 -1149.76
28.8104 -118.273 -1149.62
28.4265 -118.478 -1150.95
28.753901 -118.458 -1151.6
30.9515 -117.954 -1150.53
30.998501 -117.982 -1151.46
31.467699 -117.937 -1151.98
31.194799 -117.997 -1153.33
31.7278 -117.926 -1153.62
31.8832 -118.013 -1154.4399
32.7822 -117.785 -1154.65
31.8463 -118.199 -1158.08
33.791199 -117.985 -1159.9
-117.333 -144.026 -1062.83
-115.39 -143.698 -1062.3
-114.315 -143.53799 -1062.47
-100.436 -140.01601 -1056.73
-100.236 -140.06 -1057.0601
-99.602898 -139.901 -1057.22
-98.2957 -139.61301 -1056.91
-97.787804 -139.54401 -1057.1801
-97.056099 -139.34399 -1057.26
-96.070396 -139.132 -1057.21
-96.093597 -139.179 -1057.9301
-95.342201 -139.049 -1058.14
-95.134201 -139.04601 -1058.6801
-95.979698 -139.205 -1060.15
-84.104301 -136.911 -1064.89
-82.918503 -136.705 -1064.83
7.9393301 -120.774 -1128.5
4.1076002 -122.109 -1135
7.4238901 -121.15 -1133.04
9.68048 -120.656 -1132.34
8.7135601 -121.019 -1134.25
9.5221596 -120.852 -1134.66
9.5654297 -120.967 -1135.51
11.1934 -120.58 -1135.88
12.4832 -120.262 -1135.54
12.1894 -120.43 -1136.63
11.8856 -120.523 -1137.9399
13.0931 -120.244 -1137.72
13.8713 -120.109 -1137.9
21.465401 -119.007 -1148.97
23.245501 -118.692 -1148.1
23.771601 -118.635 -1148.49
24.6553 -118.494 -1148.79
24.2505 -118.668 -1150.1801
25.587299 -118.318 -1149.76
26.3477 -118.198 -1149.96
26.5662 -118.201 -1150.71
26.7637 -118.196 -1151.42
27.9785 -117.922 -1151.22
27.981899 -117.962 -1152.2
29.1674 -117.725 -1152
28.5665 -117.967 -1153.6801
29.9877 -117.665 -1153.28
29.7778 -117.779 -1154.4399
29.5721 -117.892 -1155.71
30.285601 -117.747 -1155.9301
30.339701 -117.795 -1156.87
32.349701 -117.358 -1155.89
32.918598 -117.325 -1156.49
32.815399 -117.497 -1158.03
33.181 -117.447 -1159.13
-117.531 -143.401 -1062.91
-115.974 -143.145 -1062.67
-114.624 -142.994 -1062.63
-112.084 -142.465 -1062.09
-101.013 -139.617 -1056.98
-100.25 -139.41 -1056.97
-99.474503 -139.25301 -1057
-98.198097 -138.961 -1056.7
-97.767502 -138.86 -1057.01
-96.929497 -138.64 -1057.02
-96.452499 -138.558 -1057.35
-95.648399 -138.37801 -1057.46
-95.034203 -138.284 -1057.74
-95.135399 -138.291 -1058.51
-84.538498 -136.366 -1065.09
-83.2313 -136.119 -1064.92
-82.346603 -135.929 -1065.24
6.7061801 -120.822 -1132.26
5.7932701 -120.925 -1134.46
6.3223901 -120.882 -1134.8
8.3920298 -120.372 -1134.35
7.7782001 -120.625 -1135.97
8.2576303 -120.561 -1136.5
9.9768696 -120.187 -1135.85
9.7809401 -120.298 -1137.03
10.5039 -120.122 -1137.25
10.8764 -120.086 -1137.76
11.1094 -120.064 -1138.48
20.2689 -118.787 -1150.58
23.0923 -118.267 -1151.03
24.408001 -117.969 -1150.79
25.7029 -117.697 -1150.51
25.0175 -117.998 -1152.04
27.438299 -117.558 -1153.54
28.164101 -117.416 -1153.85
28.648199 -117.336 -1154.36
29.253799 -117.338 -1155.85
29.2078 -117.359 -1156.9
30.135599 -117.217 -1156.9399
31.476999 -117 -1157.5699
32.047501 -116.923 -1158.21
31.3002 -117.399 -1162.03
-117.959 -142.88 -1063.11
-116.649 -142.589 -1063.04
-115.1 -142.345 -1062.8101
-111.643 -141.655 -1061.59
-102.081 -139.244 -1057.0601
-100.941 -138.97099 -1056.75
-100.177 -138.759 -1056.79
-99.078796 -138.468 -1056.6
-98.638702 -138.367 -1056.88
-97.883499 -138.205 -1056.95
-96.980499 -138.017 -1056.91
-96.413101 -137.862 -1057.16
-96.044098 -137.812 -1057.59
-95.244003 -137.60899 -1057.74
-94.514503 -137.407 -1057.97
-86.962303 -136.216 -1065.9301
-84.350304 -135.64101 -1064.8199
-83.203903 -135.433 -1064.78
-82.775299 -135.423 -1065.46
5.64429 -120.428 -1136.21
7.0314298 -120.124 -1135.59
6.5653701 -120.291 -1136.79
8.0657997 -119.951 -1136.38
8.51898 -119.907 -1136.96
8.1433697 -120.027 -1138.3199
8.9788198 -119.882 -1138.42
9.2055101 -119.841 -1139.4
20.1584 -118.327 -1151.9399
21.076799 -118.133 -1151.55
21.103901 -118.114 -1152.16
23.1644 -117.552 -1151.01
22.917101 -117.813 -1153.09
24.249001 -117.512 -1152.77
24.5632 -117.482 -1153.35
25.0126 -117.401 -1153.8199
25.261 -117.416 -1154.58
25.752001 -117.343 -1155.08
27.303499 -116.913 -1154.5
27.651699 -116.983 -1155.11
27.383699 -117.151 -1156.45
27.749599 -117.064 -1157.1899
29.580299 -116.611 -1156.38
30.092501 -116.572 -1157.84
30.465799 -116.56 -1158.51
31.126499 -116.447 -1160.03
31.253599 -116.575 -1161.3101
32.740501 -116.365 -1161.42
29.6777 -117.383 -1166.54
-118.416 -142.18401 -1063.36
-116.393 -141.815 -1062.8
-115.599 -141.717 -1063.02
-112.771 -141.241 -1062.2
-101.817 -138.395 -1056.6801
-100.848 -138.149 -1056.59
-99.916397 -137.961 -1056.5
-99.158401 -137.795 -1056.55
-98.503799 -137.638 -1056.65
-97.913696 -137.543 -1056.87
-97.236298 -137.379 -1057
-96.641098 -137.257 -1057.21
-96.035202 -137.183 -1057.51
-95.446503 -136.97701 -1057.87
-94.824997 -136.869 -1058.1801
-84.336899 -135.00101 -1064.76
-83.737503 -134.834 -1065.16
-82.955597 -134.74699 -1065.53
3.6493499 -120.274 -1138.1801
4.08673 -120.201 -1138.52
5.0184302 -119.984 -1138.25
6.5204501 -119.596 -1137.62
6.69806 -119.684 -1138.4399
8.72754 -119.183 -1137.5699
8.7329102 -119.218 -1138.53
8.09863 -119.416 -1140.45
18.24 -118.17 -1153.9301
19.0446 -118.074 -1153.83
20.105801 -117.731 -1153.51
20.7831 -117.61 -1153.48
21.9669 -117.216 -1153.1801
22.0975 -117.267 -1153.8199
22.83 -117.185 -1154.04
24.4142 -116.867 -1154.46
24.947901 -116.82 -1154.9301
25.5242 -116.723 -1155.26
25.341101 -116.8 -1156.4301
26.5867 -116.559 -1157.21
27.502001 -116.522 -1158.37
27.8843 -116.473 -1159.02
28.9272 -116.239 -1160.02
28.444901 -116.42 -1161.4301
29.292 -116.287 -1161.67
30.306801 -116.109 -1161.74
30.271099 -116.398 -1164.88
-118.359 -141.40199 -1063.1801
-117.413 -141.41 -1063.47
-116.167 -141.129 -1063.35
-114.065 -140.80099 -1062.95
-102.202 -137.72 -1056.8101
-100.883 -137.42799 -1056.48
-100.022 -137.23199 -1056.47
-99.635696 -137.142 -1056.76
-98.558296 -136.952 -1056.5601
-97.962799 -136.823 -1056.77
-97.342796 -136.71201 -1056.96
-97.039703 -136.715 -1057.42
-96.065598 -136.52901 -1057.45
-95.7882 -136.47501 -1058
-94.998398 -136.40601 -1058.24
-86.6362 -134.82401 -1065.61
-84.296799 -134.27901 -1064.75
-83.778099 -134.17101 -1065.1801
-82.837898 -134.026 -1065.42
2.9627099 -119.763 -1139.75
3.40607 -119.734 -1139.98
3.97382 -119.589 -1140.0601
6.2044101 -119.08 -1138.6899
6.69135 -119.054 -1140.36
6.7089801 -119.141 -1141.78
6.9505 -119.266 -1142.92
15.7858 -118.169 -1155.88
17.875299 -117.587 -1155.0601
18.923599 -117.348 -1154.83
20.593 -116.949 -1154.55
21.6371 -116.689 -1154.27
22.186001 -116.71 -1155.67
22.794901 -116.619 -1156.1
23.163099 -116.537 -1156.67
22.979099 -116.672 -1158.83
24.5832 -116.326 -1158.14
24.731701 -116.348 -1159.11
25.545099 -116.197 -1159.3199
26.556499 -115.951 -1159.34
27.2083 -115.96 -1160.79
26.895 -116.025 -1162.05
27.853701 -115.871 -1162.0699
28.581499 -115.75 -1162.33
29.768299 -115.507 -1162.21
29.186199 -115.758 -1163.98
29.278601 -115.892 -1165.4
30.1826 -115.766 -1166.34
-117.025 -140.57401 -1063.0601
-116.281 -140.476 -1063.35
-114.051 -140.056 -1062.75
-101.132 -136.786 -1056.55
-100.008 -136.533 -1056.4
-99.366096 -136.42101 -1056.48
-98.647102 -136.231 -1056.51
-98.130898 -136.12601 -1056.78
-97.607399 -136.056 -1057.0601
-97.052498 -135.95399 -1057.35
-96.383499 -135.825 -1057.5699
-95.580597 -135.711 -1057.71
-95.782799 -135.86501 -1058.67
-85.978798 -133.964 -1065.24
-84.838898 -133.731 -1065.1899
-84.135498 -133.53101 -1065.4399
15.1622 -109.549 -1015.6
1.6162699 -119.423 -1141.91
3.2502401 -119.024 -1141.03
3.7539699 -118.963 -1141.1
4.4552598 -118.82 -1141.27
7.06812 -118.2 -1139.88
5.5639601 -118.699 -1142.58
15.9309 -117.432 -1156.8
18.1143 -116.864 -1155.52
18.5641 -116.792 -1155.88
19.6478 -116.589 -1155.5601
20.336599 -116.351 -1155.6
19.6196 -116.571 -1157.3199
20.6686 -116.513 -1159.1899
21.2449 -116.358 -1159.64
22.0439 -116.246 -1159.77
23.037701 -115.968 -1159.74
24.169399 -115.854 -1160.64
26.0334 -115.395 -1159.77
25.1707 -115.731 -1161.78
24.6471 -115.884 -1163.27
26.2318 -115.507 -1162.78
25.8027 -115.67 -1164.23
27.361401 -115.463 -1165.65
28.4415 -115.274 -1165.83
-117.8 -140.063 -1063.51
-116.703 -139.89799 -1063.5601
-114.065 -139.386 -1062.61
-102.485 -136.39101 -1056.8199
-101.342 -136.187 -1056.65
-100.475 -135.992 -1056.65
-99.707802 -135.817 -1056.6801
-99.172401 -135.66 -1056.87
-98.387703 -135.498 -1056.95
-97.762001 -135.338 -1057.13
-97.113701 -135.175 -1057.33
-96.499603 -135.131 -1057.5601
-95.7966 -135.02299 -1057.8199
-95.758202 -135.01601 -1058.63
-86.221497 -133.33299 -1065.5
-84.952103 -133.048 -1065.34
-84.346298 -132.929 -1065.66
-83.536598 -132.80701 -1065.96
2.14063 -118.627 -1142.25
1.9486099 -118.725 -1143.05
3.2518899 -118.441 -1142.35
2.8721299 -118.607 -1143.64
3.43121 -118.554 -1144.26
4.8120699 -118.319 -1144.23
4.2937002 -118.55 -1145.9399
4.7725201 -118.527 -1146.9399
14.658 -117.096 -1157.8
16.6691 -116.52 -1156.7
17.4769 -116.314 -1156.74
17.9634 -116.185 -1157.15
17.422199 -116.403 -1158.58
18.742599 -116.094 -1158.21
19.0942 -116.098 -1158.73
18.746599 -116.238 -1160.24
21.412701 -115.63 -1159.5
19.917801 -116.107 -1161.89
21.3999 -115.703 -1161.38
22.8463 -115.392 -1160.98
22.979799 -115.437 -1161.86
24.111601 -115.197 -1161.6899
24.4659 -115.157 -1162.4399
23.930401 -115.355 -1163.97
24.6686 -115.384 -1166.38
26.6187 -114.866 -1165.38
27.605301 -114.772 -1166.5
26.6959 -114.987 -1168.78
-117.672 -139.375 -1063.33
-116.438 -139.173 -1063.3
-114.412 -138.772 -1062.73
-100.314 -135.25999 -1056.47
-99.786697 -135.205 -1056.7
-99.2379 -135.06599 -1056.9
-98.559502 -134.944 -1057.11
-97.444298 -134.63499 -1056.98
-97.319397 -134.67599 -1057.5
-97.006897 -134.603 -1057.92
-96.608902 -134.577 -1058.4
-86.133499 -132.687 -1065.5
-85.344398 -132.51199 -1065.77
-84.803596 -132.429 -1066.11
-83.425499 -132.144 -1066
2.6426401 -117.953 -1143.8199
3.65961 -117.8 -1143.6899
4.3221998 -117.704 -1144.11
4.4054599 -117.821 -1145.28
4.4622202 -117.809 -1146.52
4.5819101 -117.905 -1147.6899
13.0321 -116.956 -1158.13
14.3731 -116.426 -1157.79
15.1682 -116.142 -1157.9399
16.0585 -115.937 -1157.92
16.783899 -115.787 -1158.16
16.2761 -116.068 -1159.5
17.9221 -115.758 -1159.8101
18.2978 -115.757 -1161.55
19.847601 -115.447 -1160.87
20.191 -115.392 -1161.62
21.353701 -115.23 -1163.39
21.497999 -115.251 -1164.3
23.5702 -114.753 -1163.29
23.6947 -114.804 -1164.05
22.864401 -115.062 -1166.08
24.455 -114.686 -1165.54
24.287201 -114.797 -1166.73
25.350401 -114.603 -1166.62
25.6178 -114.527 -1167.4399
26.0811 -114.563 -1169.05
27.9487 -114.176 -1168.47
26.2318 -114.988 -1173.8199
-117.909 -138.862 -1063.4
-116.926 -138.63699 -1063.55
-114.674 -138.211 -1062.8101
-100.448 -134.72501 -1056.59
-100.231 -134.64799 -1057.0699
-99.198196 -134.43201 -1056.9399
-98.540703 -134.283 -1057.11
-98.113403 -134.233 -1057.4301
-97.574402 -134.19099 -1057.76
-97.621101 -134.22301 -1058.47
-96.592697 -133.942 -1058.5
-88.5942 -132.558 -1066.71
-86.5597 -132.14301 -1065.98
-85.629204 -131.94701 -1066.0699
-85.123398 -131.881 -1066.48
-84.379997 -131.744 -1066.8199
0.56720001 -117.904 -1145.14
1.47723 -117.738 -1144.9399
2.2432301 -117.558 -1145.84
2.70789 -117.52 -1146.37
4.2976699 -117.119 -1146.1
4.03546 -117.305 -1147.55
4.01019 -117.554 -1150.03
11.7139 -116.555 -1158.11
12.671 -116.119 -1158.24
13.4311 -115.842 -1158.48
14.3069 -115.678 -1158.5699
14.3619 -115.8 -1159.34
15.0605 -115.585 -1159.6
15.1363 -115.728 -1160.52
15.5308 -115.781 -1162.08
17.320101 -115.384 -1161.3
17.1583 -115.453 -1162.49
18.195999 -115.224 -1162.48
18.1847 -115.296 -1163.5
18.7665 -115.23 -1163.88
19.1653 -115.2 -1164.49
19.492701 -115.171 -1165.11
21.075001 -114.788 -1164.58
22.186701 -114.575 -1165.49
22.9007 -114.455 -1165.8
22.3113 -114.669 -1167.4301
23.3829 -114.374 -1167.51
24.152 -114.303 -1167.75
25.6868 -113.957 -1168.21
24.9741 -114.167 -1170.1
25.2983 -114.332 -1172.27
-118.159 -138.27901 -1063.5
-116.513 -137.922 -1063.15
-115.473 -137.7 -1063.24
-112.186 -137.216 -1062.14
-100.732 -134.12399 -1056.87
-100.206 -134.04201 -1057.12
-99.544098 -133.92799 -1057.28
-98.678398 -133.728 -1057.3
-97.9105 -133.52901 -1057.35
-98.243797 -133.647 -1058.24
-97.723 -133.55701 -1058.63
-96.789597 -133.38 -1058.75
-87.683296 -131.722 -1066.23
-86.784897 -131.617 -1066.3199
-86.244904 -131.459 -1066.71
-85.029297 -131.274 -1066.63
-85.169998 -131.3 -1067.64
-0.718445 -117.664 -1147.1801
0.72088599 -117.321 -1146.48
1.24884 -117.255 -1146.74
1.2921799 -117.231 -1147.49
2.3949599 -117.07 -1148.55
2.1395299 -117.168 -1149.88
4.2023301 -116.733 -1149.09
2.9121101 -117.112 -1151.4
3.7470701 -117.083 -1151.75
4.7799702 -116.901 -1151.92
5.1588702 -117.007 -1152.65
6.3909302 -116.985 -1152.6899
9.7945604 -116.164 -1156.8199
10.2973 -116.038 -1157.22
9.9377403 -116.054 -1158.58
10.7726 -115.864 -1158.6899
12.7729 -115.374 -1158.87
12.9399 -115.49 -1159.58
13.5408 -115.478 -1159.92
13.1581 -115.629 -1161.28
12.7767 -115.803 -1162.63
15.1065 -115.271 -1161.21
15.1352 -115.301 -1162.25
15.5793 -115.193 -1162.79
16.0471 -115.093 -1163.29
17.7778 -114.687 -1162.67
17.6553 -114.792 -1163.84
18.2241 -114.777 -1164.27
18.152599 -114.748 -1165.3
19.306499 -114.525 -1165.11
19.5256 -114.536 -1165.91
20.2003 -114.461 -1166.23
20.276899 -114.451 -1167.3101
20.6049 -114.502 -1169.1
21.0333 -114.395 -1169.76
21.8643 -114.357 -1170.96
23.796101 -113.842 -1170.15
23.346901 -114.054 -1171.58
24.9037 -113.706 -1170.95
25.561701 -113.63 -1171.59
-118.291 -137.61501 -1063.5699
-117.135 -137.401 -1063.5699
-116.313 -137.276 -1063.78
-113.654 -136.82001 -1062.92
-101.08 -133.576 -1057.22
-100.584 -133.49001 -1057.51
-99.7994 -133.375 -1057.58
-98.741898 -133.10001 -1057.49
-98.859497 -133.183 -1058.1899
-98.288399 -133.039 -1058.37
-98.066498 -133.03101 -1059.02
-90.996201 -131.87801 -1068.03
-87.770401 -131.14799 -1066.53
-87.261497 -131.05099 -1066.9301
-87.217003 -131.112 -1067.6899
-85.9944 -130.813 -1067.6
-0.66162097 -116.957 -1147.91
0.0241089 -116.935 -1147.96
0.35357699 -116.863 -1148.4399
0.672607 -116.806 -1149.04
1.20599 -116.76 -1149.45
1.25885 -116.795 -1151.51
2.0288701 -116.629 -1151.85
3.0697 -116.413 -1151.77
3.45276 -116.351 -1152.5
3.83795 -116.285 -1153.2
4.90765 -116.076 -1153.1899
4.51337 -116.278 -1154.62
5.4973102 -116.063 -1154.71
6.60956 -115.851 -1154.6899
6.41364 -116.035 -1155.96
7.1824999 -115.827 -1156.2
7.3323398 -115.794 -1157.0699
7.85291 -115.745 -1157.45
8.6063805 -115.523 -1157.6
8.9370699 -115.508 -1158.2
10.0844 -115.247 -1158.12
9.4420204 -115.519 -1159.73
9.8401499 -115.578 -1160.38
10.3936 -115.458 -1160.89
12.3055 -114.986 -1159.99
11.6921 -115.311 -1161.41
12.7148 -115.046 -1161.5699
12.8477 -115.065 -1162.3199
12.7131 -115.178 -1163.45
13.6801 -114.931 -1163.53
13.6978 -115.039 -1165.58
16.1957 -114.48 -1164.08
15.9707 -114.566 -1165.25
17.8041 -114.197 -1165.52
17.684401 -114.282 -1166.58
18.6943 -114.022 -1166.58
18.608 -114.125 -1167.66
20.035 -113.812 -1167.41
21.808399 -113.552 -1168.84
21.106001 -113.862 -1171.76
21.4816 -113.845 -1172.5
21.908899 -113.768 -1173
23.5019 -113.41 -1172.46
23.7738 -113.456 -1173.14
-117.915 -136.888 -1064.01
-116.791 -136.71001 -1064.02
-114.702 -136.289 -1063.45
-102.041 -133.13901 -1058.09
-101.091 -132.95799 -1058.08
-100.771 -132.951 -1058.48
-99.687599 -132.69901 -1058.38
-98.992599 -132.60001 -1058.45
-98.604897 -132.48399 -1058.83
-99.022499 -132.60001 -1059.97
-88.859001 -130.62399 -1066.6
-87.5746 -130.306 -1066.34
-86.440399 -130.119 -1066.26
-85.300697 -129.73199 -1065.96
-1.91168 -116.778 -1150.6801
-0.70831299 -116.479 -1150.25
-0.318542 -116.469 -1150.8101
0.041931201 -116.539 -1151.6
0.40924099 -116.459 -1152.26
0.77453601 -116.349 -1153.02
1.9846801 -116.06 -1152.8199
1.88367 -116.141 -1153.8199
2.3436301 -116.061 -1154.38
2.6557 -116.054 -1155.03
3.18274 -115.933 -1155.6
4.2983398 -115.72 -1155.52
5.3835402 -115.494 -1155.58
7.08392 -115.237 -1158.01
7.4812002 -115.233 -1158.5
7.6286001 -115.247 -1159.39
8.1159096 -115.183 -1159.88
9.0919199 -115.055 -1160.91
9.5512104 -115.049 -1161.48
10.6713 -114.741 -1161.39
10.0556 -114.945 -1162.95
11.3178 -114.69 -1162.7
12.5172 -114.448 -1162.61
13.3768 -114.362 -1163.72
13.8936 -114.31 -1164.2
14.0177 -114.32 -1165.17
15.214 -114.057 -1165.97
15.0761 -114.082 -1167.14
16.8232 -113.716 -1166.42
16.5427 -113.845 -1167.85
16.770599 -113.871 -1168.55
16.783001 -113.911 -1169.5601
17.324301 -113.82 -1170.02
18.457199 -113.694 -1172.22
19.8475 -113.432 -1171.8199
20.177799 -113.39 -1172.53
21.1313 -113.229 -1172.74
21.405199 -113.232 -1173.46
22.593599 -112.919 -1173.35
22.546301 -113.02 -1174.38
22.6647 -112.999 -1175.4
24.521799 -112.68 -1174.9
-117.721 -136.08099 -1063.78
-116.637 -135.95 -1063.86
-115.109 -135.689 -1063.6
-102.599 -132.62399 -1058.85
-101.688 -132.436 -1058.74
-100.197 -132.146 -1058.28
-100.098 -132.13901 -1058.89
-99.942497 -132.129 -1059.4399
-99.587799 -132.08501 -1059.95
13.0066 -105.771 -1015.98
-3.2095301 -116.415 -1151.8101
-1.34009 -115.985 -1150.9
-2.2305901 -116.301 -1152.58
-0.95459002 -116.055 -1152.34
-0.59777802 -116.005 -1153.17
-0.43176299 -116.047 -1154.01
0.90618902 -115.764 -1154.79
2.6363499 -115.43 -1154.9301
1.69684 -115.733 -1156.78
3.1019299 -115.411 -1156.38
2.9639299 -115.512 -1157.71
4.99823 -115.085 -1157.87
4.6084599 -115.206 -1159.2
6.1821299 -114.929 -1158.72
6.1249399 -114.934 -1159.8101
7.1786499 -114.736 -1159.72
6.2632399 -115.083 -1162.54
7.8677402 -114.748 -1162.01
7.9414701 -114.792 -1163.99
8.9826698 -114.603 -1163.98
9.8533897 -114.37 -1164.14
11.452 -113.989 -1163.6
10.3137 -114.375 -1165.64
11.1782 -114.156 -1165.91
13.3788 -113.81 -1166.73
12.7985 -114.111 -1169.41
14.4312 -113.651 -1168.79
15.7859 -113.375 -1168.48
15.6539 -113.518 -1170.59
16.297501 -113.389 -1171.09
17.187099 -113.27 -1171.22
17.7311 -113.183 -1171.6899
17.8363 -113.168 -1172.75
18.9261 -113.001 -1172.7
20.144501 -112.712 -1172.55
19.0499 -113.078 -1174.76
20.5903 -112.695 -1174.25
19.0037 -113.191 -1176.99
20.7589 -112.763 -1176.24
21.0243 -112.771 -1176.9301
20.6761 -112.902 -1178.54
-118.063 -135.478 -1064
-116.835 -135.312 -1063.92
-115.505 -135.05701 -1063.78
-103.943 -132.371 -1060.21
-102.71 -132.062 -1059.86
-102.529 -132.089 -1060.39
-101.099 -131.71001 -1060.01
-100.42 -131.575 -1060.22
-4.1307998 -116.093 -1154.37
-2.9033799 -115.839 -1154.27
-2.33038 -115.786 -1154.7
-1.08752 -115.547 -1154.53
-0.404419 -115.375 -1154.91
-0.983643 -115.536 -1156.5601
0.124084 -115.319 -1156.4301
1.31653 -115.028 -1156.14
1.4223599 -115.127 -1156.91
1.39923 -115.157 -1157.95
2.23914 -114.967 -1158.25
2.9728401 -114.905 -1158.54
3.08197 -114.869 -1159.61
4.8748798 -114.536 -1159.92
5.8566298 -114.318 -1161.09
5.0410199 -114.707 -1163.7
6.7418199 -114.296 -1163.09
6.6810298 -114.368 -1164.13
5.5610399 -114.715 -1166.28
8.2700195 -114.099 -1165.84
8.2555504 -114.164 -1166.76
8.4428701 -114.135 -1167.62
11.5768 -113.376 -1165.5699
11.2207 -113.505 -1166.98
11.0385 -113.719 -1167.98
11.8256 -113.52 -1168.34
12.821 -113.436 -1169.37
12.6746 -113.446 -1170.53
14.0936 -113.243 -1171.15
14.013 -113.251 -1172.46
14.0703 -113.338 -1173.3199
14.6689 -113.336 -1174.77
16.453699 -112.912 -1175.16
18.2628 -112.502 -1174.42
18.5583 -112.514 -1176.27
18.0324 -112.683 -1177.97
19.942301 -112.312 -1177.02
20.5438 -112.283 -1178.5699
20.910101 -112.23 -1179.4399
22.2773 -112.066 -1179.79
-116.706 -134.592 -1063.74
-116.073 -134.537 -1064.08
-114.005 -134.201 -1063.6899
-105.004 -131.92799 -1060.77
-103.99 -131.686 -1060.62
-102.962 -131.44 -1060.53
-102.346 -131.321 -1060.71
-101.839 -131.295 -1061.04
-3.4811399 -115.28 -1155.85
-3.2865601 -115.313 -1156.63
-2.5910599 -115.256 -1157.0699
-1.29407 -114.933 -1156.8
-2.9544101 -115.369 -1159.39
-1.2168601 -114.988 -1158.66
0.256042 -114.664 -1158.1
-0.29058799 -114.851 -1159.61
1.03833 -114.554 -1159.4
2.9198599 -114.231 -1159.71
2.11517 -114.467 -1161.4399
1.51831 -114.671 -1163.17
3.9997599 -114.056 -1161.95
3.34253 -114.281 -1163.52
4.7767301 -114.064 -1165.1801
5.5060401 -113.943 -1166.4301
4.6859698 -114.282 -1168.2
7.3789101 -113.6 -1166.65
7.3463702 -113.765 -1168.76
7.8314199 -113.689 -1169.41
8.1205397 -113.618 -1170.15
8.7550001 -113.556 -1170.46
10.9654 -113.028 -1169.29
10.6127 -113.136 -1170.65
9.8123798 -113.454 -1172.39
10.8862 -113.128 -1172.51
12.6614 -112.818 -1172.71
13.2844 -112.743 -1173.09
12.8924 -112.967 -1174.42
12.767 -112.997 -1175.73
14.0674 -112.79 -1176.58
15.0448 -112.528 -1176.59
15.5139 -112.439 -1177.14
17.1327 -112.14 -1176.6899
17.5145 -112.055 -1177.37
17.966 -111.956 -1178.04
18.1658 -112.04 -1178.9
18.3489 -112.035 -1179.6899
17.727301 -112.192 -1181.65
19.056 -112.005 -1181.42
-117.311 -134.049 -1064.1
-116.578 -133.89301 -1064.35
-115.138 -133.696 -1064.3101
-105.395 -131.33501 -1060.89
-105.449 -131.38699 -1061.55
-105.278 -131.302 -1062.09
-103.323 -130.909 -1061.24
-102.97 -130.894 -1061.65
-82.4673 -126.711 -1062.24
-83.5998 -126.887 -1064.5
-62.753201 -121.138 -1037.13
-62.710098 -121.092 -1037.76
14.9576 -103.809 -1015.44
-4.2953501 -114.748 -1156.64
-3.8729899 -114.678 -1157.26
-3.3496699 -114.618 -1157.6899
-2.6682701 -114.551 -1158.15
-2.6602199 -114.6 -1159.1801
-3.2410901 -114.773 -1160.6801
-0.51556402 -114.088 -1159.05
-2.8262899 -114.698 -1162.28
-1.13208 -114.372 -1161.53
-0.35241699 -114.3 -1161.7
0.54748499 -114.103 -1162.01
0.97308302 -113.978 -1162.6801
0.44189501 -114.187 -1164.21
1.23822 -114 -1164.55
2.49701 -113.766 -1164.41
2.3842199 -113.806 -1165.5699
2.88678 -113.817 -1166.98
3.75262 -113.594 -1167.1899
5.81354 -113.229 -1168.22
6.1168799 -113.345 -1169.89
6.97363 -113.129 -1170.12
7.3898301 -113.143 -1170.85
6.97119 -113.278 -1172.27
8.1592999 -112.999 -1172.05
8.43188 -112.987 -1172.83
9.4174204 -112.789 -1172.87
10.5801 -112.531 -1172.79
9.6002798 -112.834 -1174.77
12.2167 -112.286 -1174.12
11.7035 -112.465 -1175.8101
12.9036 -112.203 -1176.71
12.4663 -112.411 -1178.25
14.3209 -111.999 -1178.5
14.1823 -112.099 -1179.7
16.350599 -111.724 -1179.6899
16.3151 -111.782 -1180.8101
17.2955 -111.631 -1181.97
16.745501 -111.834 -1183.78
18.1584 -111.561 -1183.54
15.5718 -112.193 -1187.85
-118.019 -133.444 -1064.5
-116.795 -133.245 -1064.4301
-115.306 -133.019 -1064.25
-113.556 -132.692 -1064.3199
-106.779 -131.02499 -1062.39
-106.118 -130.87399 -1062.5
-105.151 -130.68201 -1062.49
-105.182 -130.705 -1063.16
-106.002 -131.013 -1064.55
-61.8549 -120.354 -1036.99
-6.7474399 -114.696 -1159.9
-5.45819 -114.432 -1159.79
-4.5377798 -114.258 -1159.8199
-5.0690899 -114.41 -1161.47
-3.72418 -114.148 -1161.16
-3.3256199 -114.157 -1162.8
-1.40741 -113.713 -1161.86
-0.92169201 -113.582 -1162.36
-1.78198 -113.905 -1164.16
-0.507263 -113.674 -1164.12
-0.428101 -113.706 -1165.04
0.27807599 -113.565 -1165.38
0.193542 -113.606 -1166.6801
0.56213403 -113.559 -1167.4399
0.58349597 -113.575 -1168.4
1.5427901 -113.402 -1168.48
2.55286 -113.171 -1168.37
2.95416 -113.194 -1168.97
3.66907 -113.069 -1169.41
3.59552 -113.115 -1170.53
4.2550001 -113.001 -1170.8199
4.0488901 -113.06 -1172.05
6.3773198 -112.474 -1170.74
6.2421899 -112.595 -1171.99
7.9335899 -112.273 -1172.46
7.4173002 -112.528 -1173.9399
8.5256996 -112.301 -1173.88
9.1331196 -112.152 -1174.28
9.58002 -112.124 -1174.79
10.0598 -111.97 -1175.3
9.3955698 -112.161 -1178.35
13.1412 -111.413 -1176.5699
11.1426 -111.962 -1179.73
12.7736 -111.655 -1179.16
12.3494 -111.834 -1180.42
13.9242 -111.491 -1181.16
14.2072 -111.523 -1181.95
15.1443 -111.334 -1181.96
13.8753 -111.73 -1184.41
15.3597 -111.35 -1183.99
16.047899 -111.241 -1184.45
18.3939 -110.761 -1183.42
17.1096 -111.222 -1186.21
-117.014 -132.67101 -1064.53
-116.011 -132.509 -1064.6801
-112.97 -131.95 -1063.75
-108.269 -130.789 -1064.01
-107.377 -130.62199 -1063.97
-107.063 -130.53 -1064.3199
-107.106 -130.59 -1065.1
-7.7456698 -114.203 -1160.51
-7.41821 -114.303 -1161.53
-6.4169302 -114.128 -1161.63
-6.0827599 -114.027 -1162.25
-5.20258 -113.883 -1162.5601
-4.0782499 -113.622 -1162.38
-4.8127398 -113.897 -1164.0601
-4.1485 -113.816 -1164.5
-2.7551899 -113.508 -1164.1899
-2.6328101 -113.565 -1164.92
-1.7198499 -113.399 -1165.11
-0.79138201 -113.172 -1165.34
-2.43695 -113.568 -1168.02
-0.459656 -113.178 -1167.05
-0.25933799 -113.101 -1168
0.47650099 -113.058 -1169.4
0.662292 -112.99 -1170.41
2.0214801 -112.741 -1169.86
3.5214801 -112.505 -1171.53
3.50403 -112.553 -1172.52
4.9692998 -112.202 -1172.14
4.5752001 -112.297 -1173.48
5.2906499 -112.233 -1173.88
6.90485 -111.867 -1173.4
6.5131798 -111.965 -1174.8101
6.94275 -111.865 -1175.49
9.8865995 -111.227 -1174.55
7.98102 -111.763 -1177.47
8.2481098 -111.695 -1178.25
9.6367197 -111.577 -1178.98
10.1956 -111.423 -1179.6899
10.8125 -111.365 -1179.98
10.9783 -111.432 -1180.98
11.2371 -111.393 -1181.61
12.8232 -111.037 -1181.13
13.412 -111.007 -1182.59
13.143 -111.147 -1183.98
12.932 -111.274 -1185.25
14.1771 -111.008 -1185.05
15.8715 -110.691 -1185.77
-118.097 -132.22099 -1064.4
-117.139 -132.01199 -1064.51
-116.865 -132.019 -1065.16
-113.482 -131.45399 -1063.88
-109.481 -130.48 -1064.78
-107.616 -130.02699 -1064
-108.225 -130.19 -1065.0699
-7.3309898 -113.735 -1163.3199
-5.17487 -113.32 -1163.3101
-5.1526499 -113.284 -1164.33
-5.3464999 -113.425 -1165.49
-3.6630199 -113.083 -1164.86
-4.2764902 -113.293 -1166.42
-2.6250601 -112.969 -1167.03
-0.75689697 -112.626 -1168.3199
-1.49518 -112.891 -1170.14
-1.3631001 -112.874 -1171.21
-0.99340802 -112.835 -1171.8199
0.80029303 -112.482 -1171.05
0.54895002 -112.524 -1172.36
1.88678 -112.258 -1173.05
1.76959 -112.296 -1174.29
2.9628301 -111.927 -1174.1899
7.9124799 -111.2 -1182.04
9.3930702 -110.859 -1181.55
11.7015 -110.559 -1182.13
11.1545 -110.853 -1183.61
11.327 -110.867 -1184.55
11.7283 -110.902 -1185.2
12.3561 -110.721 -1185.66
13.601 -110.522 -1186.64
14.388 -110.444 -1186.9399
-118.109 -131.61099 -1064.27
-117.533 -131.49001 -1064.75
-116.788 -131.401 -1065.04
-113.422 -130.78 -1063.63
-111.769 -130.409 -1066.4301
-111.313 -130.29601 -1066.66
-110.199 -130.088 -1066.42
14.6618 -104.437 -1087.45
-8.8941698 -113.422 -1163.64
-7.83917 -113.19 -1163.74
-7.7902799 -113.263 -1164.8
-8.2755699 -113.429 -1166.27
-6.6666298 -113.077 -1165.71
-6.22961 -112.982 -1166.23
-5.7473798 -112.878 -1166.76
-5.0511498 -112.808 -1167.28
-4.1533799 -112.629 -1167.36
-5.1365399 -112.989 -1169.33
-2.9093599 -112.435 -1169.3
-3.2995601 -112.66 -1170.76
-2.8027301 -112.579 -1171.28
-1.98236 -112.449 -1171.65
-1.83472 -112.385 -1172.71
-1.04272 -112.236 -1173.98
0.46423301 -111.726 -1173.5601
11.6551 -110.09 -1185.1899
11.0677 -110.4 -1186.74
11.2546 -110.431 -1187.73
12.0869 -110.223 -1188.02
12.908 -110.158 -1188.27
15.0275 -109.626 -1187.53
-118.568 -131.09399 -1064.65
-116.771 -130.701 -1064.11
-116.671 -130.724 -1064.89
-114.385 -130.31599 -1064.11
-111.839 -129.742 -1066.95
-110.726 -129.60699 -1066.72
-86.434097 -124.423 -1065.35
-86.705299 -124.448 -1066.3199
-86.596298 -124.531 -1067.09
-8.96661 -112.845 -1165.84
-7.8446698 -112.644 -1165.78
-8.8074303 -112.989 -1167.64
-7.6523399 -112.686 -1167.66
-6.8217201 -112.538 -1167.8199
-6.3891001 -112.464 -1169.48
-5.9430499 -112.399 -1170.03
-4.3055401 -112.123 -1170.59
-4.5001798 -112.313 -1171.78
-4.2773399 -112.256 -1172.71
-2.9511099 -111.97 -1173.6899
8.7155199 -110.127 -1189.47
12.207 -109.353 -1186.84
11.8398 -109.543 -1188.12
11.009 -109.901 -1190.2
12.4271 -109.623 -1189.92
11.4537 -109.97 -1192.52
-117.183 -130.13901 -1064.35
-116.972 -130.127 -1065
-115.717 -129.91701 -1064.96
-113.398 -129.571 -1064.58
-85.992699 -123.462 -1065.73
10.4744 -104.603 -1087.0601
-10.7229 -112.598 -1167.4301
-11.0568 -112.753 -1168.84
-10.4353 -112.673 -1170.3199
-11.28 -112.912 -1172.1
-7.6096802 -112.056 -1169.61
-9.0411997 -112.455 -1172.12
-6.5969801 -111.936 -1170.8
-6.8183599 -112.008 -1172.04
-5.3344102 -111.776 -1171.5601
-5.4319501 -111.767 -1172.79
-5.72858 -111.838 -1174.1801
9.3339195 -109.374 -1190.98
10.0181 -109.334 -1191.0601
11.2806 -109.174 -1190.96
12.2292 -109.056 -1191.5
-118.286 -129.77 -1065.08
-117.044 -129.495 -1065.02
-116.582 -129.45 -1065.48
-113.465 -128.91299 -1064.36
-13.4249 -112.554 -1169.9301
-12.233 -112.349 -1169.95
-11.5693 -112.297 -1170.37
-12.2469 -112.451 -1172.0601
-10.0682 -112.017 -1170.91
-11.7126 -112.439 -1173.64
-9.03302 -111.874 -1172.1
-9.1026001 -111.907 -1173.3101
-8.5161104 -111.753 -1173.77
-8.70648 -111.916 -1174.87
-7.0742202 -111.468 -1174.5
7.5811801 -109.29 -1193.1
9.2088003 -108.861 -1192.15
8.6084003 -109.11 -1193.6801
10.8447 -108.719 -1192.8
-118.453 -129.013 -1065.14
