# .PCD v0.7 - Point Cloud Data file format
VERSION 0.7
FIELDS x y z
SIZE 4 4 4
TYPE F F F
COUNT 1 1 1
WIDTH 1729
HEIGHT 1
VIEWPOINT 0 0 0 1 0 0 0
POINTS 1729
DATA ascii
17.886801 24.6383 -1035.95
14.6215 25.643999 -1036.17
13.472 25.655701 -1036.04
12.5693 25.9359 -1036.22
9.8239098 26.393499 -1036.15
7.6875601 26.5263 -1035.76
6.1521602 26.736 -1035.67
5.1363502 26.8964 -1035.22
3.9698801 26.8097 -1035.15
3.4819 26.853701 -1035.1
1.59506 26.879601 -1034.64
0.68722498 27.260401 -1034.36
-0.29818699 27.0762 -1034.15
-2.16467 26.8211 -1033.85
-4.5431199 26.677401 -1032.78
-6.0306101 26.906601 -1032.21
-7.0476999 26.677799 -1031.91
-8.5028696 26.820601 -1031.1801
-12.332 26.1866 -1028.88
-14.0102 26.2103 -1028.28
47.733101 10.3906 -1017.02
46.698799 11.6653 -1018.57
45.587898 12.6368 -1020.32
44.147301 14.0837 -1022.3
43.344101 14.7228 -1023.33
42.2094 15.2335 -1024.53
41.376301 15.8609 -1024.6899
40.766998 16.3759 -1025.71
40.005798 16.5746 -1026.23
38.512699 17.65 -1027.28
37.966202 17.890301 -1027.7
36.117199 18.8783 -1028.89
35.3699 19.3794 -1029.7
34.072601 20.051701 -1030.29
33.3517 20.320601 -1030.87
32.8745 20.497601 -1031.38
31.8654 21.009899 -1031.4301
31.212999 21.415899 -1032.34
30.673599 21.697599 -1032.9399
29.991899 21.887501 -1032.86
29.5599 22.2834 -1033.1
26.5774 22.9576 -1033.75
22.974199 24.299 -1034.51
20.2451 24.8169 -1035.3101
16.8934 25.5394 -1035.6899
15.9131 25.5676 -1035.64
15.2036 25.862 -1035.76
14.2157 26.155199 -1035.92
13.542 26.087299 -1035.6899
11.5971 26.6397 -1036.02
10.4911 26.4025 -1035.71
8.7989798 26.882299 -1035.72
7.64047 27.301399 -1035.64
3.4707301 27.234699 -1035
-0.38537601 27.517401 -1033.8199
-1.01572 27.461599 -1033.67
-3.02121 27.35 -1032.92
-4.5328999 27.2397 -1032.77
-5.89151 27.454599 -1032.09
-7.3046298 26.9039 -1031.25
-9.3589497 27.081499 -1030.3199
-10.8455 26.872499 -1029.5
45.129501 13.7773 -1020.94
43.380199 14.9241 -1022.65
42.631302 15.6493 -1023.72
41.716702 15.9955 -1024.1801
41.0084 16.6471 -1025.16
40.320099 16.934 -1025.65
39.288502 17.4167 -1026.72
38.856602 18.030001 -1027.0699
37.444401 18.662399 -1027.92
35.382 19.6229 -1029.13
34.786999 20.0973 -1029.8101
33.973999 20.3971 -1029.92
33.221401 20.751101 -1030.6
32.1693 21.2833 -1031.22
30.584 21.875099 -1031.99
29.563999 22.589701 -1032.95
18.2363 25.355301 -1034.85
15.8381 26.1866 -1035.47
12.645 26.745001 -1035.55
9.69067 26.7558 -1035.39
8.2569304 27.191299 -1035.37
6.65027 27.2934 -1034.88
5.9091501 27.4118 -1035.03
5.0831299 27.877199 -1034.85
4.2079201 27.7771 -1034.87
3.1859701 27.7777 -1034.5601
2.66083 27.7791 -1034.39
-0.41253701 28.000299 -1033.65
-4.7202802 28.2054 -1032.23
-12.4281 26.918301 -1028.38
49.5284 9.3905897 -1012.87
47.012501 12.1298 -1017.34
45.320301 14.0623 -1020.4
44.4492 14.7682 -1021.48
43.5205 15.3755 -1022.38
42.687801 15.8311 -1023.04
41.992599 16.606501 -1024.1899
41.383099 16.923599 -1024.4301
40.282799 17.368999 -1025.41
39.588699 17.8895 -1026
38.975601 18.413601 -1026.7
38.392101 18.4489 -1026.67
37.577499 19.106001 -1027.6801
36.8605 19.0742 -1028.05
36.057999 19.7458 -1028.4399
35.612999 20.246599 -1029.1801
34.237801 20.818501 -1029.83
33.685699 21.0214 -1030.16
32.879002 21.3811 -1030.5699
32.290699 21.681801 -1030.9399
29.407301 23.0991 -1032.49
28.635099 23.3097 -1032.83
26.6716 23.905399 -1033.22
22.1458 25.253 -1034.53
20.406099 25.6777 -1034.83
17.077999 26.4123 -1035.2
14.7919 26.7146 -1035.17
14.5054 26.916901 -1034.98
13.2004 26.966299 -1035.11
11.7305 27.2073 -1034.9301
9.0062904 27.8099 -1035.3101
8.1558199 27.577499 -1035.0601
7.3996902 27.8494 -1034.95
6.4983201 28.190201 -1035.25
3.2111499 28.129801 -1034.1899
2.32022 28.4666 -1034.0699
1.68024 28.1854 -1033.85
0.52804601 28.200701 -1033.83
-1.8241301 28.287901 -1032.9301
-2.3621199 28.226299 -1032.67
-3.43243 28.120001 -1033.03
-3.8557401 28.229601 -1032.17
-7.3202801 28.160999 -1031.14
-10.5512 27.727699 -1029.66
-12.6025 27.383801 -1028.1801
-13.038 27.3654 -1027.59
-15.0471 26.899599 -1026.4399
48.2761 11.0007 -1014.45
47.181599 12.3741 -1016.7
46.010601 13.6897 -1018.69
45.711102 13.7897 -1019.02
44.563202 15.0041 -1020.92
43.647202 15.7509 -1021.85
42.920502 16.357901 -1022.98
41.292999 17.390699 -1024.5
39.8563 17.8545 -1025.37
39.157299 18.633101 -1025.92
38.270901 18.9338 -1026.58
37.6679 19.4193 -1027.23
36.893101 19.554701 -1027.95
36.254501 20.026899 -1028.04
35.705799 20.389799 -1028.72
34.834499 20.552601 -1029.1
34.424301 21.329201 -1029.83
32.944302 21.7069 -1030.1
31.679701 22.153099 -1030.35
30.9496 22.972 -1031.86
30.6224 23.226 -1032.36
28.047001 23.738501 -1032.52
22.7635 25.3839 -1033.99
20.958099 25.8148 -1034.28
18.7367 26.2759 -1034.47
16.463301 26.697701 -1034.58
13.7882 27.2507 -1034.75
13.4166 27.591999 -1035.12
12.4995 27.840099 -1034.9301
10.0351 27.920799 -1034.91
9.6178598 28.2395 -1034.92
8.1075697 28.0422 -1034.74
6.4072299 28.1103 -1034.08
4.8975201 28.6896 -1034.17
3.30475 28.556801 -1034.05
0.230774 28.7159 -1033.35
-0.53131098 28.4541 -1033.26
-1.80417 28.611099 -1032.5699
-2.76508 28.675301 -1032.34
-5.0250502 28.476 -1031.45
-6.1851501 28.6168 -1031.13
-6.6603999 28.5655 -1030.89
-7.6257601 28.4911 -1030.42
-11.1472 28.009001 -1028.37
48.862801 11.5073 -1014.24
46.214199 13.8342 -1017.94
45.436501 14.5141 -1019.31
44.4795 15.0213 -1020.37
43.916599 16.1644 -1021.73
41.959099 17.415199 -1023.16
41.261501 17.705 -1023.87
40.623001 18.245899 -1024.76
39.861301 18.3694 -1025.29
39.1712 19.1348 -1026
38.333199 19.3186 -1026.26
37.764599 19.786301 -1026.83
37.0564 20.0819 -1027.25
36.440701 20.587999 -1027.8199
35.6511 20.8493 -1028.46
34.4188 21.586201 -1029.22
33.612301 21.674601 -1029.23
32.9729 21.891001 -1029.66
32.444599 22.4121 -1030.22
31.569599 23.0345 -1030.89
30.9112 23.391399 -1031.6801
29.8423 23.737499 -1031.92
28.811501 24.0849 -1032.21
26.898399 24.5746 -1032.6
25.814899 25.021 -1033.1
18.84 26.719101 -1034.22
18.2176 26.841801 -1034.36
16.0509 27.395 -1034.58
15.516 27.542 -1034.64
13.8083 27.8186 -1034.6899
12.9561 28.1106 -1034.91
11.8728 28.2346 -1034.88
9.18787 28.664 -1034.92
8.0447998 28.6052 -1034.49
6.5968599 28.951599 -1034.6
5.7758799 28.8591 -1034.38
2.8227799 28.966801 -1033.5699
2.14166 29.2826 -1033.3101
1.27112 29.2013 -1033.25
0.25552401 29.103701 -1032.98
-1.20041 29.1471 -1032.63
-1.72131 29.153099 -1032.3101
-2.62305 29.2103 -1032.29
-3.6470001 29.0401 -1032.3
-4.21066 29.0791 -1031.53
-4.6908598 29.101299 -1031.4
-8.1133699 28.813999 -1029.77
-9.1674805 28.410601 -1029.6801
-11.0746 28.423 -1028.15
-16.1481 27.6091 -1024.88
47.929199 12.6812 -1014.45
43.508099 16.489599 -1021.2
43.2127 17.062 -1022.1
41.434898 17.936001 -1023.35
40.595001 18.5786 -1024.54
39.067402 19.508801 -1025.4
38.284199 19.7407 -1025.95
37.860199 20.1422 -1026.42
37.252201 20.6476 -1027.14
36.302399 20.876301 -1027.3101
35.746899 21.092501 -1027.61
35.199402 21.665199 -1028.49
34.545898 22.044201 -1028.95
33.802101 22.2239 -1029.1
32.617802 22.982901 -1030.14
31.5259 23.457001 -1030.55
28.9491 24.577 -1032.01
24.7227 25.778 -1033.0699
21.7264 26.538401 -1033.66
19.4998 27.0515 -1033.92
17.869301 27.490801 -1034.3
15.0302 28.0049 -1034.39
13.6082 28.0189 -1034.01
11.5245 28.962999 -1034.87
8.6348896 28.995701 -1034.3199
8.27283 29.2589 -1034.54
5.7265902 29.3501 -1034.14
5.1525602 29.622101 -1034.25
3.96118 29.4814 -1033.7
1.45715 29.9296 -1033.3101
0.406158 29.747499 -1033.04
-1.64386 29.700899 -1032.37
-3.5932 29.8307 -1031.63
-5.1732202 29.6322 -1031.09
-6.2760601 29.3218 -1030.97
-7.5542002 29.4258 -1030.04
-9.1332703 29.1089 -1029.84
46.761002 14.0759 -1016.53
45.630402 15.1552 -1018.39
45.171902 16.2521 -1019.88
44.115002 16.6653 -1020.46
43.103901 16.994801 -1020.9
42.1609 18.0471 -1022.19
41.6343 18.4524 -1023.16
40.865101 18.9436 -1023.82
40.0821 19.518499 -1024.2
39.461601 20.0005 -1025.36
38.662899 20.103701 -1025.5
38.094501 20.777201 -1026.45
37.105999 21.1675 -1026.5601
36.6544 21.204901 -1026.73
35.094299 21.7777 -1028
34.636799 22.3922 -1028.54
33.931702 22.6943 -1028.91
32.9091 22.8451 -1029.16
31.7983 23.6777 -1030.22
31.2057 24.229 -1030.86
30.310699 24.4942 -1031.45
27.413099 25.5574 -1031.65
26.593901 25.924801 -1032.41
25.404301 26.0221 -1032.58
23.004801 26.6376 -1033.1
22.251499 26.727501 -1033.5
21.07 27.146601 -1033.45
20.7218 27.347 -1033.67
20.1707 27.476801 -1033.84
19.008699 27.5931 -1033.6899
18.1514 27.7432 -1033.9301
17.2981 27.9438 -1033.86
15.6194 28.3092 -1034.05
14.3233 28.690201 -1034.0601
13.6595 28.6257 -1034.05
13.0728 28.741199 -1034.37
12.3395 28.646601 -1034.1899
8.81738 29.590099 -1034.0699
6.6577802 29.889099 -1034.12
5.4668002 29.8382 -1033.75
3.57794 30.4156 -1033.98
2.47137 30.089399 -1033.52
1.6142 30.382401 -1033.08
0.785065 30.4196 -1033.23
-0.330383 30.093399 -1032.76
-1.06644 30.3116 -1032.6
-2.62097 30.223801 -1031.9301
-4.5057702 30.271299 -1031.45
-5.7397199 30.084299 -1031.3101
-7.1486201 30.054399 -1030.24
-8.6889601 29.7141 -1029.83
-9.0868502 29.7621 -1029.02
-12.3548 29.3631 -1027.45
45.326302 16.538799 -1019.19
44.278702 17.032301 -1019.88
43.481899 17.763 -1021.04
42.463001 18.326599 -1021.61
41.796299 18.7882 -1022.52
40.332901 20.040899 -1024.38
39.621498 20.432501 -1024.96
38.819599 20.6957 -1025.3101
37.457401 20.9949 -1026.2
36.823502 21.839701 -1026.87
35.866699 22.019199 -1027.23
34.698399 22.748501 -1027.98
33.822899 23.286301 -1028.65
33.393501 23.444 -1028.9301
32.693501 23.594101 -1029.03
32.1138 24.4258 -1030.29
31.0144 24.4949 -1030.13
30.705 24.8377 -1030.86
25.462999 26.424999 -1032.13
18.6052 28.288799 -1033.6801
18.0847 28.476801 -1033.85
16.91 28.7006 -1033.83
15.1485 28.9114 -1033.74
14.685 29.0905 -1033.95
12.4748 29.481701 -1033.97
11.9032 29.8993 -1034.26
11.2523 29.9995 -1034.51
10.2326 29.830999 -1034.03
9.6819201 29.8517 -1033.9301
9.0314302 30.1614 -1034.01
7.6480398 30.1411 -1033.85
6.9201698 30.6745 -1034.0601
6.1858501 30.707199 -1034.21
5.4867201 30.356501 -1033.61
4.40027 30.843399 -1033.5601
3.50314 30.708401 -1033.47
2.6073899 30.607599 -1033.38
0.44192499 30.781799 -1032.75
-0.60202003 30.7332 -1032.38
-1.57837 30.7061 -1032.02
-1.99774 30.824699 -1032.03
-3.47717 30.888901 -1031.66
-4.5164199 30.8263 -1031.13
-8.3579397 30.532301 -1029.41
-10.2726 30.124599 -1028.67
47.377399 14.5494 -1014.86
46.563 15.1401 -1016.09
45.397701 16.587 -1018.21
44.531601 17.5266 -1019.67
42.4431 18.8619 -1021.44
41.107399 19.686701 -1022.83
40.353199 20.3297 -1023.31
39.312401 20.826 -1024.4
38.864601 20.9128 -1024.61
38.255001 21.4699 -1025.39
36.609501 22.2535 -1026.39
36.301102 22.722401 -1027.14
35.4408 22.686399 -1027.29
34.2314 23.6597 -1028.3199
33.4179 23.7997 -1028.5
32.869801 24.1416 -1028.89
32.211601 24.8804 -1029.64
31.796101 24.886999 -1029.72
30.9823 25.238199 -1030.37
21.9858 27.888901 -1032.75
21.406 28.041 -1032.86
19.2463 28.648701 -1033.3199
18.157301 28.990101 -1033.61
14.5272 29.758499 -1033.74
13.9673 29.8895 -1034.0601
13.1497 29.7311 -1033.8
12.1336 30.2693 -1034.41
8.3196402 30.705299 -1033.9301
5.1993699 30.9046 -1033.51
1.61774 31.317101 -1032.89
0.491943 31.249701 -1032.47
-1.0396399 31.447901 -1032.26
-1.89557 31.407801 -1031.95
-2.9754601 31.742001 -1032.01
-5.3769202 31.338301 -1030.9
-6.9390898 31.207001 -1030.28
-8.1556396 31.251699 -1029.59
-9.8808298 30.8055 -1028.4
46.298698 15.5966 -1015.39
44.7878 17.9212 -1019.24
43.6628 18.118 -1019.87
43.014801 19.229401 -1021.13
42.080799 19.518999 -1021.63
41.180698 19.9529 -1022.23
40.352901 20.9107 -1023.22
38.933701 21.4692 -1024.53
38.423401 21.9366 -1025.08
37.811401 21.886999 -1025.45
36.982101 22.578699 -1025.95
36.193199 22.937799 -1026.47
35.429798 23.193701 -1027.1
34.575199 23.900499 -1027.46
33.613602 24.2598 -1028.03
32.844101 24.404499 -1028.58
31.5931 25.130501 -1029.28
31.1698 25.711399 -1029.4399
27.4272 26.850401 -1031.13
21.4576 28.4841 -1032.51
19.306101 29.272699 -1033.26
18.1593 29.530001 -1033.46
16.992001 29.7551 -1033.53
15.277 30.0991 -1033.7
6.9442701 31.5266 -1033.6
6.37955 31.6796 -1033.84
5.7358098 31.567699 -1033.52
5.2684898 31.7209 -1033.63
4.7773399 31.812599 -1033.65
4.1437702 31.6882 -1033.26
3.11551 31.7332 -1033.02
0.487427 31.8904 -1032.51
-0.63403302 32.063301 -1032.35
-1.50705 31.889999 -1031.9301
-3.5039699 31.868099 -1031.3101
-6.2438998 32.016201 -1030.58
45.7141 17.219299 -1017.02
44.773701 17.9009 -1018.08
43.8839 18.665701 -1019.26
43.108501 19.4065 -1020.43
42.308701 20.0037 -1021.34
41.517601 20.660299 -1022.29
40.658798 20.642 -1022.71
39.8764 21.343 -1023.24
39.219299 21.7932 -1023.9
38.543098 22.309 -1024.63
37.701 22.768 -1024.92
37.1189 22.9939 -1025.54
36.402699 23.291401 -1025.95
35.0485 24.055799 -1026.96
34.508301 24.595301 -1027.77
33.6567 24.601 -1027.61
31.992399 25.444099 -1028.72
25.749901 27.731701 -1031.24
22.741301 28.767401 -1032.2
21.560101 29.145901 -1032.62
14.5099 30.747999 -1033.08
6.9043002 32.236401 -1033.97
5.7525902 32.117699 -1033.84
5.00842 32.4897 -1033.54
4.07724 32.235901 -1033.2
3.24911 32.3549 -1033.52
2.61865 32.346699 -1032.99
1.62396 32.485802 -1032.88
-0.34637499 32.789001 -1032.45
-1.4633501 32.514099 -1032.08
-2.4559 32.864899 -1031.71
-4.3828101 32.544701 -1031.08
-7.5212698 32.328999 -1030.05
-8.9191904 32.553799 -1029.42
-11.0675 31.6583 -1027.95
-12.5819 31.6406 -1026.72
45.947399 17.4186 -1016.32
45.0882 18.1812 -1017.4
43.8806 18.922501 -1018.95
42.4687 20.334101 -1020.89
41.597401 20.5791 -1021.29
40.7374 21.3018 -1022.21
40.1544 21.9568 -1023.31
39.348499 22.202299 -1023.58
37.993301 23.0994 -1024.88
37.2691 23.4445 -1025.3199
36.5382 23.702 -1025.78
35.8703 24.144899 -1026.3
35.145802 24.442801 -1026.63
34.534401 24.812099 -1027.08
32.670101 25.813601 -1028.47
29.4886 26.963499 -1029.79
26.3988 28.1026 -1030.96
19.9158 29.999701 -1032.73
16.523899 30.9398 -1033.28
15.824 30.8055 -1033.0601
14.8699 31.394501 -1033.39
13.7823 32.0126 -1033.59
12.4838 32.065899 -1033.92
11.7673 32.074902 -1034.02
11.0124 32.056999 -1033.83
10.5795 32.2826 -1034.0699
9.4480896 32.274399 -1033.8199
8.8807402 32.321301 -1033.79
8.1454802 32.273102 -1033.77
6.9222999 32.728699 -1033.88
5.2834501 32.848202 -1033.63
4.3070402 32.961399 -1033.36
3.32288 32.762402 -1033.15
2.7831099 33.040798 -1033.1899
1.80011 33.150002 -1033.05
-1.30963 33.131699 -1032
-3.5000899 33.1744 -1031.26
-4.8315101 32.782101 -1030.59
-9.2753296 32.571999 -1028.5
-10.5287 33.040401 -1028.2
-11.149 32.335899 -1027.42
-12.9043 32.228401 -1026.99
-13.5273 31.938101 -1025.86
45.279598 18.410299 -1016.61
43.4613 20.115801 -1019.55
42.671902 20.8944 -1020.82
41.663898 20.976 -1020.93
40.368401 22.453199 -1023.12
39.160999 22.713499 -1023.53
38.793499 23.072701 -1023.92
38.109501 23.479799 -1024.6
37.233898 23.7719 -1024.79
36.663601 24.105 -1025.35
34.405701 25.066299 -1026.55
33.5242 25.2782 -1027.17
29.555799 27.406401 -1029.55
25.843599 28.806499 -1031.09
20.507401 30.280899 -1032.36
19.502501 30.7244 -1032.79
18.9424 30.9252 -1032.95
18.407801 31.1106 -1033.2
17.691601 31.1189 -1033.05
17.1367 31.292801 -1033.21
15.1346 32.034901 -1033.47
13.2162 32.1022 -1033.5699
12.25 32.516399 -1033.96
11.0703 32.6007 -1033.85
10.6333 32.7715 -1034
9.7611704 32.950199 -1033.76
8.2249098 32.707699 -1033.52
7.0236502 33.294201 -1033.88
5.8795199 33.0103 -1033.25
5.43646 33.486599 -1033.72
4.2038598 33.2766 -1032.8199
3.40765 33.3358 -1032.98
1.51715 33.438599 -1032.28
0.25253299 33.626301 -1032.4
-0.328522 33.1898 -1032.12
-1.3257101 33.597099 -1031.73
-2.3226299 33.533901 -1031.73
-3.4730799 33.776001 -1031.13
-4.7224398 33.504299 -1030.66
-5.9917302 33.229198 -1030.29
-7.4786701 33.287102 -1029.4301
-8.6932096 33.085499 -1028.61
-13.9346 32.363201 -1025.4399
-16.2367 31.794901 -1023.71
47.503201 16.9723 -1013.62
46.322201 17.5285 -1014.85
42.684299 20.892401 -1019.86
41.554699 21.509899 -1020.94
40.929001 21.836 -1021.23
40.290501 22.4191 -1022.08
39.744202 23.2104 -1023.27
38.822899 23.1966 -1023.16
38.247501 23.842899 -1024.13
37.447102 24.1021 -1024.49
36.773998 24.507999 -1025
36.081902 24.893999 -1025.5601
34.655201 25.4573 -1026.25
34.18 26.099899 -1027.25
31.589199 27.146 -1028.51
25.031601 29.840799 -1031.1899
23.571501 30.0364 -1031.67
22.3925 30.505301 -1032.08
21.7544 30.6644 -1032.2
20.466 30.7759 -1032.26
19.379801 31.502001 -1032.9301
17.710501 31.727699 -1033.1899
16.985201 32.062698 -1033.22
16.3456 31.9874 -1033.1899
14.998 32.492699 -1033.75
13.8266 32.523201 -1033.52
13.4032 32.776299 -1033.8199
11.0982 33.007999 -1033.64
9.6625099 33.242199 -1033.1801
8.9448204 33.156898 -1033.15
8.4210501 33.2575 -1033.34
5.9393601 33.533401 -1033.0699
3.3182399 33.796398 -1032.7
1.91284 34.058701 -1032.65
0.75882 33.942001 -1032.1899
-1.25632 33.868698 -1031.42
-2.5559101 33.764 -1030.98
-4.7711201 33.7649 -1030.15
-6.04565 33.694302 -1029.96
-7.4273701 33.923599 -1029.4301
-9.2988901 33.5695 -1027.83
47.307999 17.160101 -1012.9
45.7192 19.4335 -1016.53
44.779701 20.1502 -1017.66
43.641102 20.587 -1017.86
42.908501 21.4405 -1019.67
41.808399 21.7285 -1020.25
41.2285 22.434401 -1021.16
39.712799 23.2255 -1022.35
38.285 24.0511 -1023.51
37.539902 24.5534 -1024
36.9375 24.955 -1024.78
35.9776 25.0819 -1025.3101
35.487 25.5399 -1025.5601
34.632801 25.7178 -1025.61
34.198502 26.352501 -1026.6899
24.257999 30.484301 -1031.51
23.447399 30.459999 -1031.39
16.1441 32.776798 -1033.54
14.7529 33.255001 -1033.63
14.5657 32.543301 -1033.4
13.9691 33.022499 -1033.33
12.4235 33.455299 -1033.78
11.2489 33.525398 -1033.49
10.461 33.3895 -1033.37
7.5478802 33.690102 -1033.16
7.05826 34.067001 -1033.25
5.8509202 34.003502 -1032.8199
5.5878601 34.380299 -1033.33
4.2867098 34.4893 -1032.75
1.37305 34.3773 -1031.6899
0.60900903 34.482899 -1031.9
-0.322052 34.388802 -1031.85
-2.50406 34.478298 -1031.1
-3.63483 34.323299 -1030.39
-4.9263 34.369099 -1030.0601
-6.12079 34.107101 -1029.23
-6.5363798 34.171101 -1029.1899
-9.5325899 33.863201 -1027.6
45.818501 19.339399 -1015.43
44.7169 20.004499 -1016.34
43.894901 20.9459 -1017.94
43.09 21.722401 -1019.12
42.1021 22.146999 -1019.72
40.602699 23.237301 -1021.4
39.824699 23.6049 -1021.94
38.969299 23.929701 -1022.63
38.4692 24.521601 -1023.24
37.827599 25.0009 -1024.02
37.084801 25.3342 -1024.45
36.324699 25.6628 -1024.9
35.525799 25.895 -1025.08
34.870899 26.432301 -1025.84
34.3895 26.5688 -1026.04
33.128101 26.907101 -1026.8199
32.642101 26.907801 -1026.9301
32.1255 27.5119 -1027.26
31.579599 27.979401 -1027.9301
30.2397 28.184601 -1028.77
29.9102 28.534201 -1029.39
28.3976 29.276699 -1029.41
27.7841 29.615499 -1029.64
27.2953 30.0623 -1030.22
21.2337 31.974899 -1032.47
19.547501 32.3186 -1032.66
19.006399 32.491001 -1032.8199
14.6516 33.527802 -1033.09
14.0778 33.702702 -1033.58
8.2015696 34.427502 -1033.15
5.9788799 34.500301 -1032.6801
3.2242701 34.797798 -1032.21
2.0031099 34.819 -1031.99
0.48068199 34.910301 -1031.67
-0.40704301 34.896099 -1031.63
-1.49371 34.563801 -1031.16
-1.97571 34.852699 -1030.83
-2.70367 34.723099 -1030.48
-3.96439 34.908501 -1029.88
-4.9760098 34.789101 -1029.73
-7.7776799 34.6409 -1028.74
-13.7253 33.619701 -1024.72
48.6371 17.212601 -1010.63
44.7775 20.268299 -1016.01
43.934399 20.921499 -1017.35
43.210098 21.641899 -1017.74
41.973301 22.3109 -1019.19
41.369099 22.7707 -1020.12
40.627102 23.4988 -1020.55
39.966301 24.055901 -1021.62
38.6171 24.936701 -1022.96
37.891102 24.869301 -1023.53
37.106701 25.6373 -1023.9
35.594002 26.460899 -1025.03
34.877399 26.9704 -1025.59
34.214401 27.296801 -1026.1899
33.2281 27.4505 -1026.75
32.821499 27.7033 -1026.6801
32.378399 28.248199 -1027.47
29.1707 29.9785 -1029.52
26.666599 30.5061 -1030.0699
24.195499 31.495899 -1031.34
22.396099 32.0942 -1031.91
20.127899 32.650501 -1032.35
17.044001 32.950802 -1032.79
16.6542 33.3563 -1032.6801
15.9827 33.668201 -1033.14
15.5409 33.632801 -1032.83
14.5871 33.933601 -1032.74
12.0763 34.645802 -1033.5
8.8937998 34.7467 -1032.66
8.3017597 34.8783 -1032.92
5.80936 35.062401 -1032.4
5.00488 34.997002 -1032.4
3.9668601 35.273998 -1031.88
3.0434899 35.115398 -1031.79
2.0074501 35.140999 -1031.55
1.17072 35.3106 -1031.15
0.48422199 35.237 -1031.22
-0.73873901 35.441299 -1030.55
-1.61063 35.487 -1030.76
-3.96048 35.437698 -1029.85
-5.0213599 35.057701 -1029.15
-6.3998699 35.011398 -1028.64
-7.9152198 35.056301 -1028.4301
-10.2685 34.6567 -1026.7
-11.6841 34.427502 -1025.79
-14.1203 33.997101 -1024.15
47.030102 18.806999 -1011.77
45.151798 20.621 -1015.16
44.135101 21.632799 -1016.44
43.2127 22.1654 -1017.61
42.6045 22.513901 -1018.39
41.321098 23.7269 -1019.74
40.681099 24.101101 -1020.51
39.948299 24.389999 -1021.21
39.660999 24.644199 -1021.68
38.687698 25.384399 -1022.51
37.9697 25.966 -1023.34
37.122799 26.249001 -1023.8
36.345798 26.336901 -1024.21
35.672699 27.0488 -1024.92
34.896099 27.490101 -1025.4301
34.506699 27.6371 -1025.73
33.626801 27.978901 -1026.12
33.020302 28.4277 -1026.67
31.562799 28.835899 -1027.15
30.271799 29.4841 -1028.17
29.3752 29.6964 -1028.98
28.616699 30.798201 -1030.17
27.0646 30.739 -1029.76
26.0714 31.493799 -1030.62
20.7206 33.014 -1031.99
19.490999 33.332298 -1032.08
19.1688 33.550598 -1032.51
17.697201 33.942402 -1032.41
16.4779 33.973 -1032.58
15.2284 34.2523 -1032.6899
13.7345 34.783001 -1033.0699
12.4428 34.9002 -1032.67
9.0288095 35.455502 -1032.9399
8.0150805 35.609299 -1032.03
7.42981 35.563 -1032.7
5.8856502 35.772202 -1032.59
4.91083 35.460201 -1032.13
3.9633801 35.7621 -1031.73
1.14227 35.793201 -1031
0.160309 35.603802 -1030.71
-1.81082 35.804901 -1030.3101
-2.8655701 35.723 -1029.85
-4.4492502 35.5536 -1029.1
-4.8801599 35.6395 -1029.03
-6.7494502 35.719299 -1028.37
-8.8193998 35.232201 -1027.04
-9.9240999 35.309601 -1026.87
-15.3427 34.248402 -1022.96
45.243401 20.8214 -1014.78
44.034901 22.0315 -1016.06
43.590099 22.7033 -1017.4
42.7313 23.347 -1018.5
41.530499 23.9424 -1018.94
41.374001 24.3948 -1019.75
39.914902 24.8533 -1020.89
39.3983 25.3039 -1021.37
38.762199 25.9792 -1022.39
38.063 26.5103 -1023.25
37.268902 26.812799 -1023.67
36.522301 27.146 -1024.12
35.580399 27.6766 -1024.4301
35.183201 28.0161 -1025.29
34.2612 28.2407 -1025.42
33.513 29.138901 -1026.46
32.904099 28.942801 -1026.62
32.2267 29.443001 -1027.23
31.7733 29.8528 -1027.95
31.1199 30.131901 -1028.29
30.6604 30.494801 -1028.34
29.7192 30.5634 -1028.71
29.3174 30.8193 -1029.15
27.6329 30.839199 -1029.49
21.8901 33.3722 -1031.84
21.392 33.423599 -1031.72
20.890301 33.633598 -1031.9399
18.9683 33.972401 -1032.23
16.480801 34.638699 -1032.52
15.7981 34.434399 -1032.39
15.1325 34.944199 -1032.21
14.5565 35.055302 -1032.5
6.2146902 35.856899 -1031.77
5.87781 36.120201 -1032.08
4.8757901 36.4753 -1031.83
3.9537399 36.321701 -1031.63
3.0387001 36.197102 -1031.52
2.2894599 36.2262 -1031.25
1.11282 36.2514 -1030.85
-1.70953 36.292801 -1030.0699
-2.97153 36.0247 -1029.75
-3.15448 36.389198 -1029.3101
-5.4911799 35.894402 -1028.61
-6.92343 36.1026 -1028.0699
-8.7135296 35.753899 -1026.83
-12.9635 35.154499 -1024.28
46.749001 20.0107 -1011.87
42.840801 23.5928 -1017.69
41.932598 24.252001 -1018.72
41.1861 25.067699 -1020.07
40.310299 25.4615 -1020.64
39.580502 25.997601 -1021.5
38.607399 26.512501 -1021.85
37.937302 26.915701 -1022.66
37.568501 27.0534 -1023.03
36.395802 27.819901 -1023.54
35.766399 28.233101 -1024.41
35.056198 28.623699 -1025.29
34.2966 28.9505 -1025.79
33.498299 29.0903 -1025.89
32.7131 29.7803 -1026.74
31.548901 30.2861 -1027.87
31.0123 30.400499 -1027.62
29.7393 30.9986 -1028.38
28.581499 31.668301 -1029.3101
22.997601 33.842899 -1031.4301
16.382 34.947201 -1032.0699
8.1085796 36.4282 -1032.14
7.4967299 36.3731 -1031.92
5.2330298 36.360901 -1031.24
4.7883 36.432701 -1031.25
3.0502 36.683498 -1031.4
2.8305399 36.901199 -1030.76
1.88379 36.702599 -1030.52
1.04169 36.678299 -1030.5699
0.069427498 36.499001 -1030.33
-0.99487299 36.7439 -1029.84
-1.6709 36.696701 -1029.6801
-3.2713301 36.8032 -1028.97
-7.1531701 36.359798 -1027.47
-10.5194 35.9655 -1025.47
-12.3812 36.096199 -1024.9
-13.4226 35.4706 -1023.54
44.961102 22.5268 -1015.01
44.031502 23.2623 -1016.14
42.870602 24.024 -1017.37
41.979198 24.739799 -1018.54
40.311001 25.704901 -1020.06
39.6348 26.258699 -1020.89
38.9282 26.8248 -1021.25
38.173901 27.0249 -1021.75
37.203499 27.625799 -1023.01
36.452801 28.2771 -1023.95
35.7425 28.740101 -1024.64
34.7994 29.162901 -1025.33
33.9119 29.309401 -1025.73
33.6595 29.6901 -1026.41
32.821499 30.3276 -1026.75
32.4552 30.511 -1027.14
31.550501 30.673599 -1027.61
30.601999 31.432501 -1028.25
29.2563 31.881001 -1028.72
23.9688 33.754902 -1030.76
18.3416 35.219501 -1031.85
15.4691 35.595699 -1031.6899
6.2937298 36.810001 -1031.29
4.5487099 37.0606 -1030.86
3.72873 37.0247 -1030.88
0.94454998 37.283901 -1030.4301
-0.144226 37.133801 -1029.86
-2.1886001 36.966 -1029.1899
-4.1010399 37.100899 -1028.54
-5.7141399 36.894402 -1028.21
-6.0398598 36.943699 -1027.62
-7.5318599 36.795101 -1026.86
-8.5542898 36.653702 -1026.3101
-10.6171 36.534801 -1025.52
47.592701 20.2097 -1010.06
44.906799 22.5924 -1013.41
43.762798 22.7304 -1015.16
41.259201 25.6786 -1018.96
40.171299 26.990499 -1020.37
39.8727 27.178801 -1020.85
38.808102 27.5474 -1021.98
37.8008 28.020201 -1022.73
37.260201 28.4772 -1023.45
36.535999 29.3524 -1024.36
35.7052 29.489 -1024.76
33.9188 29.7472 -1025.49
33.808201 30.7036 -1026.26
32.818199 30.7194 -1026.48
18.414801 35.616501 -1031.54
16.894501 35.9091 -1031.48
15.6232 36.063599 -1031.62
7.68188 37.287601 -1031.47
6.4654799 37.2085 -1031.01
3.5322001 37.493 -1030.65
2.66449 37.218899 -1030.27
1.70428 37.621101 -1030
-0.074920699 37.5564 -1029.6
-1.06934 37.227299 -1029.5601
-2.1560099 37.6078 -1029.22
-7.4564199 37.292099 -1026.77
46.6525 21.9408 -1011.9
43.9837 23.9984 -1015.18
43.191101 25.191 -1017.35
42.237301 25.649401 -1017.95
41.226501 26.772499 -1018.99
40.042702 26.371599 -1019.19
39.602798 27.625799 -1021.26
38.640701 28.2868 -1022.07
38.093399 28.616501 -1022.73
37.330399 28.9613 -1023.26
36.8484 29.525999 -1023.61
35.760502 29.9753 -1024.64
34.899101 30.1432 -1025.08
34.514599 30.309099 -1025.4301
33.254299 31.241501 -1026.4399
24.4758 34.551701 -1030.28
22.7556 34.5746 -1030.5699
21.2111 35.251598 -1030.67
18.5221 36.059898 -1031.3199
8.5087004 37.365601 -1031.02
6.2073102 37.757099 -1030.86
5.35184 37.599602 -1030.6801
4.5114698 38.115101 -1030.5699
3.6654401 37.9935 -1030.51
2.54266 37.920399 -1030.09
1.6260999 38.043598 -1029.6899
0.83337402 38.096298 -1029.8
-0.21548501 37.908798 -1029.53
-3.4534299 37.990299 -1028.29
-4.0041499 37.898602 -1027.95
-4.7781701 37.984798 -1027.6899
-6.1298499 37.663799 -1027.25
-7.86484 37.625301 -1026.16
-8.9931898 37.606098 -1026.22
-13.7144 36.997601 -1023.26
43.160999 25.202999 -1016.37
40.901901 26.195 -1018.64
40.383099 27.6054 -1020.35
39.384899 28.056 -1021.52
38.684799 28.7439 -1021.91
37.812199 28.8316 -1022.2
37.4342 29.5191 -1023.25
36.526501 30.189899 -1023.82
35.8018 30.504499 -1024.51
34.906101 30.597401 -1024.8
34.600399 30.888 -1025.39
33.891102 31.1642 -1025.4301
27.704399 33.7584 -1028.61
22.740601 35.6688 -1030.25
21.2946 35.679798 -1030.42
20.1717 35.908401 -1030.5601
18.555201 36.377399 -1030.9399
16.9079 36.8311 -1031.26
15.5016 36.710602 -1031
7.8371601 38.106098 -1031
6.9205298 38.234501 -1030.5601
5.2258601 38.3069 -1030.5699
4.2002902 38.324001 -1030.3101
3.6778901 38.315701 -1030.15
2.68259 38.446999 -1030.0601
0.50189197 38.301601 -1029.15
-0.46935999 38.290298 -1028.8199
-1.16782 38.259201 -1029.1801
-1.4839799 38.4561 -1028.37
-2.4214499 38.348099 -1028.28
-3.8375199 38.5084 -1027.42
-6.1238399 38.372398 -1027.33
-7.7009902 38.259899 -1026.2
-11.6124 37.498699 -1023.64
-14.8757 36.875301 -1021.38
41.895599 26.588499 -1017.8
41.087502 27.2321 -1018.83
40.358002 27.992901 -1019.97
38.9207 29.039101 -1021.59
38.1418 29.4632 -1022.22
37.5476 30.0215 -1023.04
36.896 30.5336 -1023.85
35.7285 30.903799 -1024.17
34.6595 31.2817 -1024.73
30.9639 33.0797 -1027.1
22.6033 35.9715 -1029.78
19.893801 36.737701 -1030.54
18.6619 36.833801 -1030.75
17.351299 36.872299 -1030.46
16.9387 37.160999 -1030.84
15.394 37.014702 -1030.6
8.4497995 38.383202 -1030.66
5.31113 38.7728 -1030.36
2.71594 38.809101 -1029.66
0.65664703 39.051899 -1029.24
-1.83856 38.770599 -1028.21
-2.2920201 38.857201 -1028.16
-5.0802002 38.795799 -1027
-6.5674701 38.217999 -1026.08
-7.9327102 38.625198 -1025.8101
-10.0208 38.275501 -1024.52
-11.4459 38.291401 -1024.3
-12.5601 37.6721 -1022.63
45.5849 23.6411 -1011.12
44.004101 25.7201 -1015.43
43.069698 26.2225 -1016.48
42.2551 27.617001 -1018.52
41.182899 27.826599 -1018.7
40.379799 28.431601 -1019.89
39.710701 29.2132 -1020.4
39.077702 29.7283 -1021.69
38.4025 29.933001 -1021.97
37.7784 30.401899 -1022.89
36.875702 30.7118 -1023.08
35.139599 31.302799 -1023.81
34.745499 31.6385 -1024.3199
34.135799 32.009701 -1024.8
33.557098 32.348598 -1025.3199
25.746 35.080002 -1028.77
23.831301 35.986801 -1029.4399
21.536501 36.5854 -1030.02
19.8386 36.945599 -1030.2
18.808701 37.365898 -1030.64
17.237101 37.478001 -1030.1801
16.035999 37.544201 -1030.42
8.9891701 38.6866 -1030.0699
7.9135399 38.861 -1030.29
6.8759499 39.040901 -1030.3101
4.76193 39.0508 -1029.71
3.32394 39.268902 -1029.36
2.48102 39.3004 -1029.53
1.5457799 39.1432 -1029.35
1.18723 39.240501 -1028.92
-0.743469 39.263599 -1028.33
-1.61035 39.535099 -1028.0601
-5.1097698 39.306099 -1026.88
-6.5006399 38.9515 -1026.41
-7.9456501 39.106899 -1025.72
-10.991 38.427502 -1023.45
-12.3154 38.3853 -1022.51
43.8508 25.908199 -1014.59
43.2141 26.8883 -1016.55
42.029301 27.609699 -1017.42
41.2673 28.219601 -1018.39
40.479301 29.038799 -1019.94
38.426102 30.493299 -1021.83
35.8615 31.4897 -1022.96
35.683399 31.9231 -1023.76
34.931499 32.150501 -1024.16
34.278999 32.465698 -1024.5699
33.5508 32.859402 -1024.6801
20.792999 36.830799 -1029.5601
19.9037 37.361599 -1029.88
18.896799 37.819099 -1030.38
17.0786 37.980301 -1030.23
16.513599 37.866199 -1029.86
15.9537 38.018002 -1030
15.4052 38.279202 -1030.3199
7.5296302 39.142101 -1029.89
5.1647301 39.6437 -1029.87
4.4030199 39.620201 -1029.52
3.3180201 39.871799 -1029.29
2.3982501 39.786201 -1029.21
1.30515 39.930199 -1028.5601
0.27038601 39.673302 -1028.1801
-1.81268 39.772099 -1027.53
-2.68872 39.6432 -1027.35
-3.7706001 39.520401 -1026.79
-5.56387 39.5546 -1026.23
-6.6192598 39.3447 -1026.09
-8.1855202 39.291698 -1025.0699
45.349602 25.989201 -1013.71
43.971199 26.468599 -1014.44
43.200401 27.609699 -1016.36
42.209202 28.1873 -1017.26
41.546101 28.882 -1018.42
40.7075 29.3241 -1019.04
40.1506 29.698799 -1020.09
39.349499 30.404699 -1020.7
38.510899 30.693899 -1021.06
37.590801 31.2059 -1022.18
36.6903 31.3183 -1022.52
36.2565 31.9149 -1022.55
35.6586 32.4408 -1023.57
34.916901 32.388199 -1023.42
34.435001 33.298698 -1024.1899
33.761799 33.188999 -1024.5601
33.163502 33.526699 -1025.03
25.268101 36.651199 -1028.58
22.518999 37.311798 -1029.1899
20.0312 37.858299 -1029.63
18.942499 38.206501 -1029.96
17.617001 38.2118 -1029.64
17.146099 38.433399 -1029.87
15.9649 38.483299 -1030.03
14.5796 39.040699 -1030.15
5.4868798 40.027302 -1029.36
4.9359698 39.862499 -1029.1
3.9783299 40.120201 -1029.08
3.23526 40.2649 -1028.95
0.41244501 40.370701 -1028.4
-0.77789301 39.958199 -1027.73
-2.0809 40.180401 -1027.3101
-2.95468 40.042702 -1027.04
-4.2231398 40.203701 -1026.38
-5.36835 40.111099 -1026.3
-7.5038099 39.780701 -1024.87
-8.45432 39.751301 -1024.73
-10.4301 39.714802 -1023.68
45.363998 26.146999 -1012.53
44.308399 26.928699 -1014.15
43.219501 27.867201 -1015.61
42.640202 28.7141 -1016.72
40.597401 29.615801 -1018.68
39.326698 30.931499 -1020.15
38.576698 31.1264 -1020.7
38.023701 31.594299 -1021.38
37.296799 31.9902 -1021.95
36.551399 32.2169 -1021.85
35.574699 32.8582 -1023.2
35.044998 32.820801 -1023.04
33.793201 33.509499 -1023.97
33.194401 33.789902 -1024.35
31.4673 34.787498 -1026.34
25.2939 37.167599 -1028.5601
22.8559 37.580399 -1028.7
21.716999 37.838699 -1028.86
20.6612 38.167999 -1029.23
19.0529 38.684299 -1029.64
17.746901 38.854099 -1029.38
17.3431 39.063999 -1029.9
14.6613 39.528198 -1029.8
8.8709698 40.4505 -1029.97
7.3701501 40.119801 -1029.3101
5.5741901 40.486698 -1029.1
3.04001 40.653301 -1028.64
1.96933 40.6273 -1028.27
1.45575 40.6647 -1028.15
1.09705 40.734501 -1027.91
0.19418301 40.636902 -1027.84
-1.073 40.5397 -1027.17
-4.42273 40.509499 -1025.88
-5.4239202 40.468399 -1025.61
-8.5771799 40.246899 -1024.48
-10.7783 39.809799 -1022.8
-13.6307 39.2812 -1020.61
44.671001 27.9564 -1014.77
43.417 28.579599 -1015.12
42.559101 29.1661 -1016.37
41.810699 29.569099 -1017.28
41.006302 30.105801 -1018.36
40.309601 30.568701 -1018.84
38.494801 31.5735 -1020.37
38.257599 31.896 -1020.99
37.518002 32.217098 -1021.7
36.569599 32.7649 -1021.81
34.9897 33.199299 -1022.84
34.568401 33.634399 -1023.22
33.950199 33.982201 -1023.69
33.4352 34.287701 -1024.09
20.201799 38.782001 -1029
19.038799 38.9991 -1029.08
17.404301 39.488602 -1029.51
16.447001 39.3857 -1029.29
7.2133198 40.863602 -1029.14
6.6591802 40.908001 -1029.0699
5.71176 41.0509 -1028.97
4.7897601 40.7299 -1028.6
4.15063 41.0597 -1028.5601
2.0594201 41.345299 -1028
1.04572 41.141998 -1027.74
0.087066703 41.158001 -1027.45
-0.92633098 41.390499 -1027.16
-1.97723 41.2593 -1026.95
-2.9408 41.091599 -1026.36
-6.3144498 40.870098 -1024.89
-7.2989502 40.786201 -1024.4
-8.7906199 40.569199 -1024.02
-10.8764 40.453701 -1022.72
46.9608 25.0128 -1008.96
45.7798 27.0567 -1012.19
44.652599 27.8571 -1013.41
43.624802 28.4499 -1014.48
42.687199 29.1159 -1015.47
41.877499 29.999701 -1016.85
40.9482 30.5569 -1018.06
40.265301 30.6455 -1017.91
39.7855 31.478201 -1019.21
38.9967 31.928499 -1019.91
38.3339 32.466499 -1020.72
37.3806 33.0089 -1021.11
36.806999 33.1213 -1021.58
36.209202 33.437 -1022.09
35.403198 33.585602 -1022.5
34.5737 33.868099 -1022.55
34.058102 34.4286 -1023.37
33.5359 34.803501 -1023.97
27.816999 37.013401 -1026.66
24.8983 38.0541 -1027.77
24.1012 38.6082 -1028.1
22.3528 38.6399 -1028.37
19.175301 39.5131 -1028.9301
17.6938 39.8829 -1028.92
16.396 40.050598 -1029.1801
14.7092 40.280998 -1029.09
8.4313002 41.2701 -1029.08
7.1441698 40.809299 -1028.51
7.2216201 41.445202 -1028.64
6.44666 41.360001 -1028.63
4.6893601 41.419701 -1028.29
4.23489 41.497299 -1028.3101
2.9616101 41.431801 -1028.0699
1.89996 41.751999 -1027.54
0.94393897 41.604698 -1027.38
0.0406189 41.521198 -1027.29
-2.3290701 41.562099 -1026.36
-4.6198401 41.5308 -1025.41
-7.2515898 41.205299 -1024.0601
-9.1980896 40.960701 -1022.96
45.8829 27.233299 -1011.38
44.758598 28.053699 -1012.74
43.014702 29.7554 -1015.51
42.141201 30.162399 -1016.17
41.0979 30.6612 -1017.15
40.390202 30.915199 -1017.74
39.8209 31.9105 -1018.65
39.181702 32.344299 -1019.58
38.362099 32.645699 -1020.03
37.562302 32.997002 -1020.46
36.962299 33.536098 -1021.35
36.183498 33.828999 -1021.76
35.439499 34.105202 -1022.48
34.563499 34.741901 -1022.73
34.227699 34.894402 -1023.23
33.399399 35.189999 -1023.74
23.9979 39.030499 -1027.71
20.387899 39.642101 -1028.48
19.2722 39.928299 -1028.7
16.339199 40.3344 -1028.74
8.4392099 41.635899 -1028.75
7.3303499 41.695702 -1028.55
5.83359 41.8326 -1028.39
3.3048699 42.022202 -1027.89
0.751495 42.059799 -1027.16
-0.27755699 41.9412 -1026.71
-1.21811 42.1805 -1026.42
-2.0848999 42.172001 -1026.48
-6.1571999 41.7659 -1024.4
-8.1655598 41.540199 -1023.33
45.209301 28.056999 -1011.56
42.314999 30.496799 -1015.74
41.753799 30.82 -1016.27
40.089001 32.147999 -1018.04
39.1423 32.418999 -1018.71
38.388599 32.912498 -1019.78
37.3451 33.940498 -1020.78
36.179401 34.0284 -1020.98
35.543499 34.4907 -1021.75
34.832199 34.6586 -1021.97
34.318298 35.232201 -1022.81
33.738899 35.576302 -1023.34
33.039299 35.7859 -1023.55
23.929199 39.489399 -1027.41
20.960501 39.809898 -1027.89
20.492399 40.0788 -1028.27
19.351 40.345901 -1028.4399
18.193199 40.275902 -1028.4
17.599899 40.672798 -1028.53
16.359301 40.888 -1028.6899
15.6601 40.740299 -1028.55
14.955 41.090199 -1028.61
9.24265 42.310902 -1029.1
6.9464698 42.2467 -1028.38
6.2253098 42.1008 -1027.8199
4.8691401 42.296398 -1027.87
2.8366101 42.437199 -1027.49
1.8193099 42.2533 -1027.33
0.83273298 42.4758 -1026.9399
-0.050994899 42.556599 -1027.03
-1.6889 42.4179 -1026.04
-3.4664299 42.2715 -1025.5699
-4.7619901 42.619801 -1025.05
-7.8901701 42.137798 -1023.25
-10.4207 41.610199 -1021.63
-13.3351 41.0233 -1019.55
46.1166 27.5718 -1009.45
45.2729 28.488701 -1011.41
44.307999 29.501101 -1013.09
43.327801 30.2022 -1014.32
42.347698 30.626301 -1014.96
41.537601 31.208099 -1015.88
41.116699 32.386002 -1017.83
40.068802 32.384102 -1017.65
39.0956 33.139599 -1019.03
38.591702 33.323502 -1019.15
37.906101 33.866798 -1019.98
37.191502 34.241402 -1020.57
36.395401 34.4729 -1020.82
35.700298 34.898499 -1021.47
35.3232 35.462299 -1021.81
34.397202 35.550499 -1022.35
26.986 38.733601 -1026.4
25.743401 39.013699 -1026.63
19.4224 40.732101 -1028.14
18.185801 40.758202 -1028.24
16.646 41.3228 -1028.48
8.5243797 42.427799 -1028.1801
7.8364601 42.331402 -1028.1
5.9618502 42.6567 -1027.87
5.4475698 42.652401 -1027.8199
4.5329599 42.866901 -1027.77
3.69333 42.977699 -1027.46
-0.22466999 42.933601 -1026.5601
-2.38431 43.069599 -1025.78
-3.5097699 42.871201 -1025.5
-5.0581398 42.829601 -1024.28
-6.2466698 42.708 -1024.16
-9.9099398 42.722401 -1022.14
46.850498 27.4223 -1008.43
44.451401 29.708 -1012.39
43.413399 30.4412 -1013.66
42.473499 30.787201 -1014.19
41.6297 31.624599 -1015.77
39.978901 33.007702 -1017.53
39.210499 33.1385 -1017.94
38.7747 33.793999 -1018.98
38.0564 34.306499 -1019.71
37.1982 34.737999 -1020.13
36.390202 34.698399 -1020.16
36.154099 35.304699 -1021.34
34.516998 35.998199 -1022.12
34.143299 36.366199 -1022.55
33.3036 36.554401 -1023.03
23.9203 40.048302 -1027.27
22.660299 40.377998 -1027
22.180599 40.531799 -1027.3199
21.6845 40.513901 -1027.27
19.5329 41.2201 -1027.96
18.2726 41.319401 -1027.89
16.741501 41.765598 -1028.23
16.150999 41.541801 -1027.9
15.1487 42.023102 -1028.3199
12.4213 42.591801 -1028.5601
7.51651 42.941101 -1027.76
6.41254 42.920101 -1027.42
5.0405302 43.158199 -1027.4301
4.5571899 43.2192 -1027.36
3.51651 43.271702 -1027.11
2.7189 43.368801 -1027.0699
1.9525501 43.316898 -1026.73
0.42025799 43.209099 -1026.11
-0.53613299 43.2784 -1025.88
-1.3837301 43.189098 -1025.87
-3.10132 43.181198 -1024.87
-3.8030701 43.211102 -1024.89
-6.5436401 42.9706 -1023.6
-8.1057701 43.2668 -1023.12
-10.6772 42.304501 -1020.45
-13.1148 41.999298 -1019.26
46.043201 28.4846 -1009.09
44.763302 29.468 -1011.18
43.678001 30.737801 -1013.02
42.912899 31.639601 -1014.55
41.5793 32.054401 -1015.48
40.8666 32.306301 -1016.06
39.648102 33.643101 -1017.73
39.0285 34.052898 -1018.59
37.9967 34.327499 -1018.71
37.1852 35.2589 -1019.97
36.358501 35.4618 -1020.46
36.006599 35.628899 -1020.81
35.312901 35.978401 -1021.61
34.602001 36.3587 -1021.66
34.057598 36.804901 -1022.22
33.210602 36.974098 -1022.65
32.722099 37.2868 -1022.96
25.318899 40.062 -1026.28
24.742901 40.270199 -1026.49
19.6255 41.642899 -1027.67
18.8708 41.529202 -1027.37
16.8957 42.271 -1028.11
13.5101 42.736801 -1028.05
12.2134 42.987701 -1027.78
8.4275503 43.248501 -1027.48
7.8225698 43.391399 -1027.8199
6.16711 43.7369 -1027.42
5.07758 43.556301 -1027.08
4.5966802 43.603401 -1027.03
3.63745 43.769199 -1026.98
2.6417799 43.882 -1026.85
1.54193 43.7715 -1026.36
0.55517602 43.7607 -1026.02
-1.44995 43.692001 -1025.62
-2.76718 43.7775 -1024.79
-3.85623 43.713501 -1024.55
-5.31528 43.684799 -1023.79
-6.2740798 43.554798 -1023.38
-8.35571 43.458698 -1022.49
-10.5521 43.090302 -1020.91
45.861801 28.7512 -1008.48
42.727699 31.8358 -1013.76
42.049301 32.260201 -1014.45
41.249298 33.252201 -1015.58
40.367802 33.2047 -1015.98
39.661098 33.8866 -1017.1
38.851501 34.251301 -1017.59
38.2644 35.028099 -1018.81
37.371201 35.120701 -1018.91
36.815899 35.847801 -1020.1
35.979801 35.9925 -1020.23
34.610401 36.548401 -1020.97
34.0019 37.278 -1021.89
33.396301 37.278099 -1021.96
32.5755 37.472599 -1022.42
24.118299 40.7024 -1026.08
22.964899 41.026199 -1026.36
22.0296 41.284698 -1026.71
20.809299 41.7314 -1027.11
17.9779 42.443802 -1027.62
16.818199 42.525002 -1027.47
15.5582 42.607399 -1027.77
15.4695 43.0084 -1027.42
14.292 43.152802 -1027.8199
8.8774996 43.863701 -1027.66
7.8085599 43.9636 -1027.54
6.2135601 44.014999 -1027.14
5.1444702 43.975601 -1026.79
2.10043 44.192299 -1026.22
0.62976098 44.192101 -1025.75
-0.355591 44.204498 -1025.45
-1.31522 44.231499 -1025.23
-2.84863 44.210201 -1024.5699
-4.24652 44.122398 -1024.05
-11.5336 43.153599 -1019.78
46.753799 28.3412 -1006.44
45.031799 30.2297 -1009.85
44.2859 30.968201 -1010.73
43.207699 31.810699 -1012.51
42.150002 32.7201 -1014.41
41.401901 33.395 -1014.66
40.852001 34.1614 -1016.43
40.000999 34.5797 -1017.12
38.9548 35.038799 -1018.1
38.2565 35.166901 -1017.91
37.556 35.628601 -1018.66
36.7645 35.949001 -1019.1
36.318501 36.802502 -1020.48
35.174702 37.432598 -1020.84
34.2537 37.5509 -1021.44
33.6124 37.8741 -1021.87
32.986099 38.227402 -1022.41
24.7974 40.920898 -1025.47
22.549999 41.7393 -1026.36
20.2663 42.258701 -1026.76
19.8384 42.6091 -1027.2
19.1591 42.3876 -1026.9399
18.5375 42.659401 -1027.01
17.9993 43.044701 -1027.22
17.2903 42.8867 -1027.01
7.77841 44.2943 -1027.01
6.2954102 44.500301 -1026.88
4.7452698 44.520802 -1026.51
3.34674 44.835098 -1026.3
2.2147501 44.7146 -1026.02
1.4581 44.556198 -1025.92
0.212433 44.675201 -1025.33
-0.51321399 44.796398 -1025.49
-1.74054 44.388901 -1024.86
-4.2374601 44.4921 -1023.6
-5.5237398 44.493 -1023.14
-6.9546199 44.181099 -1022.67
-7.1622901 44.3162 -1022.26
-9.0022602 44.114201 -1021.25
44.2295 31.4314 -1010.45
42.878399 32.482201 -1012.66
42.244499 32.796001 -1013.36
41.4813 33.387501 -1014.03
40.750599 34.069901 -1015.21
39.794201 34.880699 -1016.49
39.149502 35.0382 -1016.62
37.830399 36.494202 -1018.65
37.0541 36.6973 -1019.2
36.316101 36.906399 -1019.52
35.9338 37.166801 -1020.25
34.493801 37.639198 -1020.28
34.250599 37.9785 -1020.97
33.610298 38.097801 -1021.16
33.067501 38.394798 -1021.88
32.3629 38.808498 -1022.18
26.215799 41.166801 -1025.0601
23.6476 42.081699 -1025.88
21.0063 42.678398 -1026.53
19.8426 42.931 -1026.67
18.6082 43.097401 -1026.66
16.652 43.436001 -1026.96
9.8573599 45.202999 -1027.8199
7.82095 44.6931 -1026.61
6.5991802 44.940399 -1026.17
4.8348098 45.007301 -1026.21
4.3305702 45.056099 -1026.13
2.3266599 45.069599 -1025.78
1.35086 44.934299 -1025.5601
-0.210968 45.1506 -1024.85
-0.700409 45.145199 -1024.73
-2.7494199 45.046001 -1023.91
-4.6308899 44.984299 -1023.15
-5.6237202 45.049301 -1022.99
-9.0170298 44.458698 -1021.11
44.330601 31.6019 -1009.89
43.434101 32.645 -1011.7
42.563202 33.202801 -1012.92
40.2477 35.2477 -1015.97
39.4161 35.536701 -1016.61
38.225601 36.220299 -1017.03
37.666199 36.733799 -1018.07
36.968201 36.647301 -1018.03
36.312599 37.194199 -1018.84
35.002899 38.169998 -1020.11
34.457401 38.387199 -1020.64
33.907001 38.674198 -1021.24
33.172501 39.0373 -1021.51
32.550499 39.348999 -1021.98
24.781601 42.594601 -1025.55
23.6126 42.554699 -1025.67
22.7792 42.694599 -1025.84
18.4865 43.885201 -1026.42
17.130301 43.996399 -1026.73
16.0261 44.123199 -1026.73
14.5882 44.689098 -1027.29
7.9275799 45.219398 -1026.39
7.65167 45.578602 -1026.87
6.6831698 45.552601 -1026.28
5.7660198 45.332401 -1025.92
4.1106601 45.7794 -1025.88
3.37503 45.5686 -1025.59
2.27881 45.540501 -1025.5699
1.28757 45.514999 -1024.9301
0.37002599 45.609798 -1024.76
-1.00388 45.8092 -1024.16
-2.6598799 45.522598 -1023.66
-3.14148 45.4538 -1023.71
-4.3703599 45.8708 -1023.29
-5.5712299 45.307899 -1022.26
-7.9435101 45.1805 -1021.16
-9.3572702 44.952 -1020.29
45.543201 30.042101 -1005.95
43.332001 33.044399 -1011.3
42.936501 33.9002 -1012.75
41.8559 34.452599 -1013.1
41.069099 35.195999 -1014.65
40.428501 35.6866 -1015.62
39.610001 36.052399 -1016.16
38.616901 36.643299 -1016.73
38.002998 36.8685 -1017.46
36.541 37.704601 -1018.68
36.078098 37.6996 -1019.06
34.962299 38.5742 -1019.89
33.870098 39.1096 -1021.04
32.9324 39.605999 -1021.12
32.011101 40.069901 -1022.08
22.7945 43.0513 -1025.37
20.011299 43.8312 -1026.05
19.405899 43.933998 -1026.0601
18.265699 44.174301 -1026.26
17.2579 44.5322 -1026.5601
16.6026 44.428398 -1026.29
11.3886 45.558998 -1026.8
8.57306 45.639599 -1026.22
8.2033701 45.6824 -1026.35
6.5956402 45.933998 -1026.15
5.5485501 45.940601 -1025.88
5.1643701 46.1385 -1026.0699
2.90939 46.025501 -1025.1801
2.1157801 45.8745 -1025.11
2.03983 46.287201 -1024.86
0.99911499 46.119801 -1024.8
0.0270386 46.017601 -1024.46
-2.02896 46.0784 -1023.71
-3.15994 46.013302 -1023.54
-3.59393 45.865002 -1022.85
-4.88873 45.974899 -1022.57
-9.4486704 45.493301 -1020.54
45.004398 32.167599 -1008.77
43.784801 32.899799 -1009.94
43.180099 34.2029 -1012.19
42.062801 34.455101 -1012.63
41.306099 35.257599 -1013.92
40.332298 35.889198 -1015.02
39.697399 36.382301 -1015.75
38.634499 37.130501 -1016.63
37.8792 37.354401 -1017.17
37.445099 37.7985 -1017.93
36.680599 38.114498 -1018.35
35.352798 38.8358 -1019.44
34.477402 39.059299 -1019.85
33.960602 39.338799 -1020.13
32.697601 40.0215 -1021.1
31.6903 40.4744 -1021.92
24.621599 43.448299 -1024.91
23.5098 42.945801 -1025.25
17.7679 44.6479 -1025.95
17.2974 44.8666 -1026.17
15.8578 44.879501 -1026.23
15.0842 45.288799 -1026.34
12.5486 45.791698 -1026.16
9.6730299 46.195599 -1026.14
8.8774405 46.09 -1026.0601
6.7385898 46.461899 -1026.04
5.5994301 46.330799 -1025.52
4.5641799 46.373798 -1025.3199
4.0623202 46.434502 -1025.25
2.9802599 46.4436 -1025.01
0.57360798 46.5536 -1024.36
-0.94049102 47.040798 -1024.1801
-4.7523799 46.708302 -1022.44
-6.3378301 46.263199 -1021.33
-7.9836702 46.144798 -1020.51
-9.7347698 45.6679 -1019.26
-10.9264 46.276299 -1018.51
44.327999 33.687302 -1010.3
43.2724 34.505001 -1011.72
41.4496 35.504501 -1013.34
40.483299 35.917 -1013.99
39.847698 36.3214 -1014.88
38.973202 37.0868 -1015.86
38.302299 37.6422 -1016.69
37.548302 38.0513 -1017.46
36.871601 38.437401 -1018.28
36.191399 38.926102 -1018.69
34.8507 39.408798 -1019.34
34.049 39.670898 -1019.93
33.3936 40.031399 -1020.24
32.898102 40.6465 -1020.84
23.499901 44.0322 -1024.95
22.4946 44.104198 -1025.08
21.8932 44.209202 -1025.17
20.718 44.470901 -1025.34
19.5749 44.746101 -1025.5699
18.475599 45.0923 -1025.88
17.6485 45.206402 -1025.6
14.5094 45.770401 -1025.88
13.1544 46.3671 -1026.42
8.1450796 46.5149 -1025.58
7.7846398 46.723202 -1025.84
6.68994 46.730598 -1025.52
5.17694 46.801601 -1025.23
2.8908999 46.902699 -1024.76
2.0307901 46.8755 -1024.34
0.76919597 47.033199 -1023.95
-0.354004 46.9086 -1023.63
-1.32239 47.460098 -1023.72
-2.42538 47.114498 -1023.21
-2.4601099 46.7537 -1022.69
-3.41995 47.002102 -1022.99
-9.0654001 46.261501 -1019.48
44.412399 33.656601 -1009.25
43.441299 34.117599 -1010.13
42.541401 35.263401 -1011.93
41.722599 35.757401 -1012.47
40.846802 36.347198 -1013.72
38.439098 37.991699 -1016.32
37.469002 38.438702 -1017.13
36.8568 38.7458 -1017.48
36.275299 39.2976 -1018.3
35.028801 39.5009 -1018.36
34.8633 39.9669 -1019.26
34.074299 40.219601 -1019.86
33.7258 40.4137 -1020.28
32.833401 41.0746 -1020.51
23.625999 44.088699 -1024.36
23.4352 44.505402 -1024.6801
21.6731 44.462002 -1024.83
17.4625 45.670502 -1025.66
16.903999 45.771198 -1025.6801
16.444 45.977501 -1025.9
15.741 45.819698 -1025.48
15.1207 46.201401 -1025.63
13.8337 46.205399 -1025.74
13.2152 46.716 -1026.1899
12.4728 46.223598 -1025.87
9.4435396 46.972698 -1025.36
9.0625 47.3032 -1026.04
7.9395099 46.851101 -1025.3
7.1394701 46.736099 -1025.21
7.1048598 47.383301 -1025.26
6.2849102 47.2687 -1025.09
5.7536898 47.139599 -1024.92
4.67349 47.0938 -1024.98
2.1579001 47.196701 -1023.85
0.120361 47.4417 -1023.46
-7.0922198 46.458698 -1019.51
-12.804 45.7402 -1015.98
44.411098 33.7155 -1008.13
43.604301 34.736698 -1009.92
42.4758 35.111401 -1010.52
41.8498 36.259998 -1012.55
40.785 36.763901 -1013.42
40.191299 37.212799 -1014.33
39.362202 37.978802 -1015.33
38.460701 38.419601 -1015.82
37.4328 38.899399 -1016.89
37.033699 39.182098 -1017.19
35.5518 40.157902 -1018.39
34.817699 40.4188 -1018.99
34.387199 40.664799 -1019.4
32.239799 41.362301 -1020.28
25.980801 44.1702 -1023.72
24.5739 44.465199 -1024.47
20.3421 45.502998 -1024.98
18.876101 45.672199 -1025.26
18.0166 45.9016 -1025.1801
