# .PCD v0.7 - Point Cloud Data file format
VERSION 0.7
FIELDS x y z
SIZE 4 4 4
TYPE F F F
COUNT 1 1 1
WIDTH 1760
HEIGHT 1
VIEWPOINT 0 0 0 1 0 0 0
POINTS 1760
DATA ascii
47.455299 5.1993399 -1021.99
46.540501 5.5200801 -1022.78
45.831799 6.1693101 -1024.0699
44.818699 6.71033 -1025.24
42.747601 8.0045204 -1027.98
41.6506 8.6817904 -1028.4301
41.331699 8.6332397 -1029.41
39.868999 9.4503202 -1030.16
39.3316 9.6114502 -1031.51
38.682098 9.9924603 -1032.34
37.586201 10.9227 -1033.2
36.375198 11.0175 -1033.75
34.7384 12.0084 -1035.66
33.116501 11.7893 -1036.7
32.052799 12.4055 -1036.9399
31.1703 12.5807 -1037.41
29.299101 12.9609 -1038.4399
25.416901 13.2261 -1039.62
24.275801 13.3022 -1039.99
22.602301 12.9507 -1040.74
20.4146 13.6285 -1041.24
17.359699 13.9845 -1042.4301
10.5338 13.7696 -1043.3
3.6874399 12.7376 -1043.6801
2.7432899 13.0735 -1043.39
53.488499 -2.81686 -1004.91
53.377499 -2.5044301 -1005.49
53.2379 -1.82419 -1006.81
53.2061 -1.44751 -1007.58
53.019501 -1.10294 -1008.28
53.275299 -0.63214099 -1009.01
52.980598 -0.38052401 -1009.59
52.653801 0.212402 -1010.72
52.391102 0.712524 -1011.7
52.123402 0.983154 -1012.22
51.764801 1.19891 -1012.75
52.1791 1.7085 -1013.51
51.6637 1.89273 -1014
51.291599 2.0842299 -1014.5
51.303001 2.41733 -1015
51.121498 2.6405001 -1015.45
50.8647 2.92221 -1016.02
50.5079 3.1259799 -1016.54
50.299599 3.3699 -1017
50.082298 3.6006801 -1017.45
49.135799 3.9335899 -1018.24
49.123798 4.5086999 -1019.28
48.859901 4.7308998 -1019.72
47.707401 4.91113 -1020.39
47.612701 5.4679899 -1021.31
46.658699 6.0304298 -1022.6
45.955399 6.4121699 -1023.42
44.265301 7.3037701 -1025.4
42.983501 8.2074604 -1026.27
42.7686 8.1934795 -1027.33
39.382702 9.8344698 -1030.9301
39.482201 10.1775 -1031.4
38.743801 11.01 -1032.0601
36.438 11.5201 -1033.5
34.507 12.2072 -1035.0601
33.924 12.0229 -1035.91
28.8358 13.5188 -1038.37
23.162701 13.3945 -1040.36
19.532499 14.3026 -1041.48
18.8043 14.3093 -1041.67
17.178301 14.4281 -1042.17
1.77728 13.4105 -1043.09
53.472801 -3.8987401 -1001.69
53.4622 -3.1310699 -1003.12
53.371799 -2.3845501 -1004.57
52.900299 -2.1821899 -1005.09
53.238602 -1.71674 -1005.83
52.991001 -1.06335 -1007.18
53.1049 -0.53897101 -1008.03
52.907398 -0.229553 -1008.67
52.8736 0.088378899 -1009.32
52.824799 0.42285201 -1009.91
52.021099 1.09796 -1011.31
51.858101 1.3528399 -1011.86
51.688202 1.65176 -1012.4
51.674801 2.3327601 -1013.7
51.468102 2.5935099 -1014.19
50.761501 3.3214099 -1015.65
49.759899 4.2711501 -1017.58
49.445999 4.4679899 -1018.04
49.200901 5.0258799 -1019.08
48.758499 5.19034 -1019.49
48.3339 5.63412 -1020.35
48.013401 5.79562 -1020.65
47.414001 5.88696 -1021.04
47.269402 6.4446402 -1021.96
46.1367 6.3540301 -1022.25
45.655998 6.8129001 -1023.12
45.876598 7.1431899 -1023.62
42.690399 8.6747999 -1027.1
41.347198 9.1036701 -1028.13
40.987099 9.4837599 -1028.91
39.412399 10.3705 -1030.76
39.411701 10.6691 -1031.27
38.308701 11.1479 -1032.37
37.208599 11.5098 -1033.23
35.7729 11.8282 -1034.14
35.3027 12.6465 -1034.52
34.497299 12.6865 -1034.8
34.3307 12.4168 -1035.36
33.2509 13.2881 -1036.0601
32.543499 12.8165 -1036.5
30.975 13.0122 -1037.15
29.5889 13.7413 -1037.55
29.127399 13.8013 -1037.78
28.280399 13.793 -1037.99
26.481701 14.106 -1038.83
25.509501 14.2445 -1039.1899
24.793699 14.2367 -1039.34
22.7416 13.9763 -1040.33
21.4671 14.4717 -1040.4301
20.935101 14.0752 -1040.83
20.478399 14.6201 -1040.8
18.817101 14.7584 -1041.39
17.0555 14.8849 -1041.92
14.5294 14.8603 -1042.36
9.7185097 14.7008 -1042.9
9.1353798 14.2231 -1043.1899
0.470642 13.8309 -1042.9
53.344799 -3.1150801 -1002.1
53.533401 -2.6486199 -1002.86
53.411999 -2.2864399 -1003.57
53.383598 -1.91638 -1004.28
53.026299 -1.69537 -1004.86
53.268902 -1.22122 -1005.57
52.901402 -0.62890601 -1006.84
53.292599 -0.045959499 -1007.74
52.897598 0.23629799 -1008.4
52.947701 0.59930402 -1009.07
52.824501 0.88937402 -1009.66
52.2061 1.01755 -1010.05
52.154598 1.6236 -1011.1
51.8699 1.84937 -1011.6
51.497299 2.07623 -1012.12
51.6367 2.44858 -1012.74
51.390099 2.70978 -1013.29
51.375702 3.0223401 -1013.86
50.9678 3.2360499 -1014.33
50.963799 3.5695801 -1014.88
50.6465 3.7783799 -1015.39
50.485699 4.0335698 -1015.89
50.269299 4.29214 -1016.39
50.076099 4.5268202 -1016.87
49.564098 4.9863601 -1017.83
49.2896 5.2104201 -1018.33
49.151901 5.4639001 -1018.83
47.153999 6.2941298 -1020.8
46.586601 6.9917302 -1022.11
46.1008 7.9299302 -1022.81
45.209202 7.4274302 -1023.25
44.711899 7.8572102 -1024.15
44.320801 8.2789602 -1024.96
43.2523 8.7397804 -1026.12
41.598598 9.6243896 -1027.97
40.745499 10.4229 -1029.46
39.9282 10.4315 -1029.73
39.683498 10.9865 -1030.6899
37.5117 12.3584 -1032.4399
36.342201 12.0001 -1033.24
35.570599 12.489 -1034.17
34.507 12.9382 -1035.15
32.373798 13.7054 -1035.9301
30.0292 14.1559 -1037.16
27.8244 14.3398 -1037.95
25.8447 14.6205 -1038.71
22.675301 14.9248 -1039.87
20.3403 15.0797 -1040.54
18.805901 15.2551 -1041.08
18.2838 15.2792 -1041.28
15.1751 15.344 -1041.96
14.4759 15.3296 -1042.05
13.0013 15.238 -1042.17
53.0588 -5.4716802 -996.68103
53.1343 -5.0706201 -997.41101
53.0793 -2.7083099 -1001.77
53.031399 -2.31949 -1002.49
53.007 -1.94183 -1003.21
52.871498 -1.58899 -1003.92
53.0112 -1.18497 -1004.6
53.0979 -0.78552198 -1005.29
52.806499 -0.51983601 -1005.91
52.804699 0.17636099 -1007.25
52.719101 0.97723401 -1008.72
52.3965 1.22192 -1009.28
52.299599 1.49911 -1009.78
52.227798 1.81213 -1010.29
51.986698 2.0699799 -1010.81
51.860802 2.3345001 -1011.35
51.781898 2.6387899 -1011.91
51.648201 2.90485 -1012.49
51.324299 3.1751399 -1013.01
50.977798 3.3933699 -1013.51
50.612701 3.9282501 -1014.57
50.6409 4.2370901 -1015.14
50.519299 4.5348501 -1015.67
50.2826 4.79355 -1016.14
49.953602 5.3018198 -1017.15
49.370499 5.4039898 -1017.56
48.994598 5.9019799 -1018.53
48.251499 6.17874 -1019.26
47.981899 6.4628901 -1019.76
47.772301 6.60883 -1020.13
46.203999 7.3556199 -1021.81
45.804401 8.1212196 -1023.17
45.233898 8.6655302 -1023.28
44.855801 8.6504803 -1024.3101
44.267502 9.0375996 -1025.17
42.682098 10.1134 -1026.42
40.987999 10.4838 -1028.47
40.985699 10.7552 -1028.9
39.863602 11.2552 -1030.0601
39.425999 11.3977 -1030.48
38.261299 12.2617 -1031.2
34.3713 13.1319 -1034.49
33.256302 13.9629 -1035.11
32.2061 14.1131 -1035.63
30.6905 14.6053 -1036.76
27.272499 14.812 -1037.8199
26.3657 14.5347 -1038.51
23.784201 15.3149 -1039.3
22.654301 15.425 -1039.64
21.028799 15.5514 -1040.1801
15.7386 15.7874 -1041.54
15.0905 15.7985 -1041.65
13.7463 15.7644 -1041.83
13.0632 15.7434 -1041.91
11.8607 15.7585 -1042.16
52.871799 -4.7267799 -996.98999
52.8176 -2.3557401 -1001.43
53.0793 -1.83496 -1002.27
53.182701 -1.42072 -1003.04
53.1437 -1.01993 -1003.73
52.827599 -0.76739502 -1004.31
52.705002 -0.094421402 -1005.64
52.789902 0.29690599 -1006.31
52.8372 0.66415399 -1006.98
52.8353 1.01974 -1007.66
52.953899 1.46436 -1008.42
52.1399 1.8917201 -1009.44
52.254601 2.28369 -1010.07
52.089802 2.56165 -1010.59
51.894501 2.8255301 -1011.13
51.4725 3.0209701 -1011.63
51.498199 3.3610499 -1012.2
51.279499 3.6066599 -1012.74
50.996101 3.8478999 -1013.27
50.680099 4.0767798 -1013.78
50.659199 4.4249301 -1014.36
50.428799 4.6503601 -1014.87
50.3978 4.9895902 -1015.42
50.313599 5.26898 -1015.93
49.8256 5.7185998 -1016.91
49.115398 5.8166199 -1017.29
48.7626 6.3278799 -1018.19
48.012001 6.5926499 -1018.93
47.715302 7.3478699 -1019.21
47.4076 7.3235502 -1020.36
47.3521 7.5799899 -1020.84
46.330399 8.4748802 -1022.59
45.987099 8.5915499 -1022.98
44.825802 8.8502502 -1023.71
43.387299 9.7595501 -1025.6801
42.5811 10.3754 -1026.83
41.695202 10.6297 -1027.54
41.0896 11.2178 -1028.6801
40.124001 11.8117 -1029.98
38.449799 12.8342 -1031.01
37.267101 13.0056 -1032.61
35.677601 13.7089 -1033.1899
34.131699 14.0071 -1034.02
32.4002 14.6486 -1035.4399
31.2899 14.8035 -1035.89
27.823099 15.2677 -1037.36
27.1287 15.263 -1037.55
24.6696 15.6574 -1038.64
23.7026 15.7921 -1039.0601
23.1973 15.3683 -1039.46
21.9576 15.879 -1039.5699
21.6073 15.5143 -1040.01
18.5054 16.096201 -1040.55
17.447001 16.1859 -1040.86
52.769199 -4.3506799 -996.58801
52.745998 -3.91153 -997.33899
52.936001 -3.0376599 -998.94202
53.294601 -2.4925201 -999.82202
52.8843 -2.2402599 -1000.49
53.0793 -1.78491 -1001.24
52.808201 -1.47745 -1001.98
52.9911 -1.017 -1002.76
52.868698 -0.66342199 -1003.45
52.9067 -0.281158 -1004.1
53.056599 0.16568001 -1004.79
52.897598 0.44262701 -1005.45
52.686199 0.73580903 -1006.05
52.7407 1.1231101 -1006.69
52.915298 1.53824 -1007.39
52.655102 1.83603 -1008.01
52.296902 2.06317 -1008.6
52.366501 2.47192 -1009.22
51.8395 2.9513199 -1010.32
51.8834 3.30161 -1010.92
51.702702 3.5657301 -1011.47
51.363602 3.7988901 -1011.96
51.483299 4.17874 -1012.57
51.100201 4.3643799 -1013.05
51.072899 4.6870399 -1013.62
50.371799 5.0879202 -1014.61
50.275398 5.4005399 -1015.16
50.070499 5.6528902 -1015.66
49.678299 6.1431899 -1016.65
49.215599 6.3055701 -1017.06
48.7075 7.0243502 -1018.41
47.9594 7.6904898 -1019.76
47.438599 7.8274798 -1020.15
46.535301 8.5768995 -1020.64
46.184502 8.5371399 -1021.74
46.312901 8.9392099 -1022.38
45.25 9.47754 -1023.58
43.129501 10.6552 -1025.17
42.5756 10.5769 -1026.1801
41.5103 11.541 -1027.0601
41.045502 11.4318 -1028.04
40.9603 12.1569 -1028.25
40.742599 11.9417 -1028.9301
39.746399 12.3651 -1029.01
37.402 13.4615 -1031.34
34.9617 14.4698 -1033.51
33.796501 14.365 -1034.63
31.3088 15.2461 -1035.66
30.537001 15.4905 -1036.1899
29.7344 15.7233 -1036.72
28.0905 15.8552 -1037.23
27.203699 15.7899 -1037.36
25.918301 16.069201 -1038.05
24.282801 16.217899 -1038.65
20.3419 16.507601 -1039.88
19.159599 16.578199 -1040.1899
17.539301 16.709 -1040.64
16.871099 16.6831 -1040.76
16.191 16.672899 -1040.87
14.9739 16.700199 -1041.13
13.626 16.689199 -1041.35
12.1931 16.6085 -1041.48
10.4844 16.771 -1041.96
52.828701 -2.17963 -999.466
52.8274 -1.76929 -1000.22
53.1385 -1.27066 -1001.02
53.211201 -0.81732202 -1001.84
52.861301 -0.575562 -1002.47
53.091499 -0.046722401 -1003.24
52.9748 0.221954 -1003.86
53.126499 0.64144897 -1004.59
52.911999 0.947083 -1005.23
53.0084 1.3592499 -1005.9
52.764599 1.6155699 -1006.5
52.606602 1.9249901 -1007.07
52.387199 2.2255599 -1007.69
52.2967 2.5396099 -1008.32
52.349701 2.9291101 -1008.99
51.798302 3.0722699 -1009.47
51.7356 3.7453301 -1010.66
51.3983 3.9630699 -1011.16
51.419498 4.2953801 -1011.75
51.028801 5.1792898 -1013.42
50.6147 5.3749399 -1013.89
50.3326 5.5884099 -1014.38
50.293301 5.90591 -1014.95
50.164902 6.1637301 -1015.46
49.7943 6.3617902 -1015.92
49.481899 7.1458702 -1017.38
49.037201 7.3033099 -1017.81
47.721199 7.80164 -1019
47.289001 8.2449999 -1019.87
46.969398 8.4056702 -1020.29
46.232601 8.7866201 -1021.16
46.212799 9.4600496 -1021.31
46.304901 9.36374 -1022.16
45.630402 9.7311096 -1022.91
44.558201 10.295 -1024.11
42.583401 11.5052 -1025.74
41.279202 11.9248 -1026.8
41.036201 12.3769 -1027.61
40.109901 13.1749 -1029.21
37.487999 14.2405 -1031.58
36.6441 14.2283 -1032.77
33.287201 15.3692 -1034.42
32.805698 15.4523 -1034.6899
31.4925 15.7479 -1035.5
29.915701 16.0063 -1036.1899
29.617701 16.1472 -1036.48
28.4042 16.232 -1036.91
27.2948 16.2638 -1037.1899
26.2812 16.409901 -1037.6
25.753799 16.4723 -1037.8101
24.1714 16.6304 -1038.4399
23.1 16.310301 -1038.99
22.5438 16.7925 -1038.96
22.0679 16.860001 -1039.16
19.160299 17.059 -1039.97
18.003201 17.115299 -1040.26
16.0912 17.099701 -1040.64
14.9937 17.17 -1040.9
11.7437 17.1668 -1041.39
9.1129198 17.1448 -1041.88
52.9664 -0.85971099 -1000.72
53.301998 -0.34124801 -1001.65
52.958099 -0.064025901 -1002.26
53.094299 0.368927 -1003.02
53.027199 0.70468098 -1003.63
52.947601 1.06625 -1004.33
52.769699 1.37097 -1004.96
52.7686 1.7353801 -1005.61
52.841801 2.1138301 -1006.31
52.390301 2.30478 -1006.82
52.361301 2.65799 -1007.44
52.244202 2.98102 -1008.07
52.106201 3.66254 -1009.34
51.732201 3.85776 -1009.83
51.799801 4.2209802 -1010.44
51.801102 4.5393701 -1011.04
51.548199 4.7883301 -1011.56
50.976101 4.9509602 -1012.03
50.712502 5.1978798 -1012.53
50.785801 5.56287 -1013.15
50.7742 5.9022498 -1013.73
50.245701 6.3719501 -1014.74
50.219101 6.6647902 -1015.27
49.8284 7.0996099 -1016.24
48.553001 7.9060702 -1017.92
48.525002 8.1747999 -1018.36
45.714001 10.3975 -1022.04
45.396599 10.5189 -1022.44
45.311298 10.4565 -1023.17
44.546398 10.8637 -1023.18
44.355301 10.9189 -1024.3
43.554298 11.3918 -1024.36
41.318699 12.3936 -1026.59
40.57 12.4998 -1027.92
40.478298 13.1976 -1028.09
40.004902 12.8745 -1028.75
39.463902 13.2545 -1029.58
39.3419 13.9707 -1029.72
38.484299 14.2252 -1030.38
38.0275 14.3382 -1030.65
36.159599 14.7435 -1031.8101
35.984402 14.4585 -1032.4301
34.7328 14.8467 -1033.27
33.580299 15.2151 -1033.25
32.703999 15.902 -1034.47
31.3365 16.1691 -1035.23
30.405199 16.3866 -1035.75
29.843399 16.4401 -1035.97
25.764 16.945 -1037.58
23.4305 17.323299 -1038.63
21.611099 17.399799 -1039.15
20.3647 17.431299 -1039.46
17.426001 17.572001 -1040.2
13.5222 17.577499 -1040.86
10.9254 17.5513 -1041.25
9.0741596 17.5926 -1041.67
5.9717999 17.357599 -1041.66
52.820999 -0.42163101 -1000.5
53.199001 0.080963098 -1001.36
52.803799 0.362701 -1001.97
52.931 0.79400599 -1002.73
52.905602 1.14096 -1003.39
53.0667 1.5762 -1004.13
52.772202 1.83582 -1004.73
52.709301 2.1958301 -1005.36
52.7061 2.53073 -1006.04
52.460602 2.8231499 -1006.61
52.506001 3.19647 -1007.25
52.304199 3.4672501 -1007.85
52.108501 3.7494199 -1008.45
51.9753 4.0775499 -1009.07
51.976299 4.43613 -1009.66
51.707401 4.6599398 -1010.19
51.6688 4.9776001 -1010.79
51.355999 5.2072101 -1011.31
51.162701 5.4952698 -1011.87
51.0648 5.7699299 -1012.41
51.057999 6.0812402 -1012.98
50.741798 6.34161 -1013.49
50.152802 6.4932299 -1013.91
50.299301 6.8492699 -1014.52
50.105701 7.0806599 -1015.02
49.748501 7.2756701 -1015.46
49.0303 7.6630201 -1016.32
48.496399 8.0843496 -1017.16
48.448601 8.3642302 -1017.64
47.897999 8.7857399 -1018.59
47.035599 9.1005898 -1019.38
47.330002 9.4790001 -1019.93
46.374699 9.7576904 -1020.74
43.039799 11.567 -1024.75
43.379002 11.9309 -1025.2
42.612701 12.7201 -1025.75
41.141701 12.8031 -1026.33
40.8937 13.2401 -1027.15
40.827 13.4854 -1027.53
39.812099 13.7005 -1028.17
39.087002 14.3493 -1029.47
37.3479 14.3828 -1030.9
35.960499 15.7064 -1032.4
35.024502 15.4012 -1033.1
34.258701 15.892 -1033.14
33.781101 16.2159 -1033.79
32.782501 16.409401 -1034.3
32.085602 16.4121 -1034.52
31.295799 16.630899 -1035.03
29.426901 17.010401 -1036.0699
27.4261 17.257799 -1036.84
24.657499 17.061001 -1038
20.4284 17.905701 -1039.26
19.1845 17.962299 -1039.55
16.6716 18.0063 -1040.0699
15.4013 17.9963 -1040.3199
14.8911 18.053499 -1040.45
52.6129 -0.86917102 -998.69098
52.955399 -0.28289801 -999.52502
52.880199 0.45483401 -1001.01
52.7733 0.81897002 -1001.71
52.896301 1.25937 -1002.48
52.552399 1.49054 -1003.06
52.965099 2.00949 -1003.87
52.835602 2.3255 -1004.51
52.525299 2.57706 -1005.08
52.537399 2.9449501 -1005.76
52.433701 3.2618999 -1006.38
52.373798 3.6256399 -1006.98
52.1287 3.8989899 -1007.6
52.0494 4.2143898 -1008.19
51.924599 4.5009198 -1008.79
51.942299 4.86551 -1009.41
51.7785 5.1249399 -1009.98
51.689098 5.4521799 -1010.56
51.462399 5.6915898 -1011.09
51.278999 5.9623098 -1011.66
51.031601 6.1822801 -1012.15
50.8619 6.45612 -1012.61
50.6478 6.73599 -1013.17
50.483002 7.0324101 -1013.74
50.0056 7.2087402 -1014.18
49.934601 7.7969699 -1015.25
48.779999 7.9864202 -1015.96
48.366501 8.75562 -1017.4
47.571301 9.1353102 -1018.29
47.720299 9.4484901 -1018.79
46.958302 10.0945 -1020.06
46.491402 10.712 -1020.32
45.640598 11.087 -1022.24
44.222698 11.6066 -1023.32
43.907101 11.7685 -1023.71
43.523998 12.3439 -1023.91
42.460899 12.8613 -1025.05
41.481701 13.3896 -1026.1801
40.038101 14.0782 -1028.64
39.187401 14.7621 -1029.1899
38.224899 15.0831 -1029.92
37.866402 15.4447 -1030.61
36.249901 15.6519 -1031.29
30.855301 17.2064 -1035.11
28.948999 17.557699 -1036.1
26.313499 17.3421 -1037.17
24.0368 17.996901 -1037.73
23.6458 18.097099 -1037.96
22.5947 17.7295 -1038.54
21.9156 18.2211 -1038.48
20.3605 18.378 -1039.02
19.6301 18.349501 -1039.15
19.078899 18.3783 -1039.3199
16.746401 18.480101 -1039.88
13.4258 18.0198 -1040.61
10.2578 18.473101 -1040.9399
8.3801899 18.5154 -1041.24
52.958599 0.92544597 -1000.77
52.976101 1.34201 -1001.52
52.733601 1.6662 -1002.18
52.576698 1.9784499 -1002.84
52.863499 2.4251101 -1003.6
52.955601 2.80145 -1004.29
52.243599 2.9602101 -1004.76
52.6488 3.8171101 -1006.22
52.501202 4.1194501 -1006.79
52.062 4.3333702 -1007.35
52.113602 4.7123399 -1008.02
51.953499 5.0032701 -1008.6
52.0485 5.38416 -1009.22
51.803799 5.5992098 -1009.74
51.544399 5.8668499 -1010.28
51.1558 6.06564 -1010.8
50.907101 6.6231399 -1011.84
50.653599 6.8483601 -1012.28
50.327 7.0543199 -1012.79
50.4856 7.4460402 -1013.42
50.137798 7.6768799 -1013.92
49.8381 7.8787799 -1014.37
49.764801 8.1336098 -1014.87
49.465099 8.3410902 -1015.31
48.7635 8.4377403 -1015.68
48.548302 9.0003099 -1016.7
48.1465 9.4863596 -1017.62
47.560699 9.6205397 -1018.05
47.704498 9.9226704 -1018.56
46.917702 10.2569 -1019.37
46.469299 10.3748 -1019.74
45.5513 11.5487 -1022.01
44.450401 12.1225 -1023.15
42.640701 13.0982 -1024.41
42.607201 13.1514 -1025.5
40.921799 13.7176 -1026.9301
39.869099 14.6757 -1027.72
39.478901 14.6152 -1028.83
38.534401 15.2925 -1029.15
37.246601 15.9597 -1030.5699
35.455101 16.4683 -1031.87
34.428101 16.4002 -1032.95
33.7178 17.159201 -1033.35
32.741798 16.849199 -1034.1
32.173599 17.396 -1034.09
31.7512 16.9841 -1034.5699
30.8155 17.6854 -1034.88
30.3372 17.7251 -1035.08
29.549101 17.723499 -1035.24
28.0646 18.268801 -1036.38
25.3596 18.4424 -1037.17
24.6493 18.4545 -1037.3199
12.0104 18.8997 -1040.3199
9.6606398 19.009501 -1040.87
52.610401 2.84442 -1003.27
52.741901 3.21439 -1003.94
52.409599 3.5003099 -1004.56
52.394001 3.8868699 -1005.24
52.582901 4.2817101 -1005.97
52.339401 4.57651 -1006.54
52.272499 4.9026198 -1007.2
52.279999 5.2705102 -1007.82
51.7243 5.4240098 -1008.3
51.803799 5.7843599 -1008.92
51.603901 6.0342698 -1009.47
51.360001 6.3004799 -1010.01
51.2738 6.5850801 -1010.59
50.594501 7.3172598 -1012.02
50.326302 7.5745802 -1012.5
49.940601 7.7643399 -1013
50.0555 8.1016502 -1013.58
49.7258 8.3170795 -1014.03
49.583801 8.58673 -1014.52
48.718399 8.9099398 -1015.4
48.921398 9.2872896 -1015.98
48.234001 9.9971905 -1017.4
47.435902 9.9896898 -1017.8
47.750599 10.4208 -1018.33
47.063801 10.5135 -1018.69
46.9506 10.7448 -1019.15
46.392601 11.2193 -1020.07
45.905701 11.2784 -1020.35
46.079899 11.6029 -1020.94
44.890999 11.8328 -1021.66
44 12.1201 -1022.4
44.439098 12.8481 -1023.4
42.805599 13.0885 -1023.29
42.570202 13.3365 -1024.85
42.494701 14.0914 -1025.03
41.4548 13.8524 -1025.96
40.992001 14.2516 -1026.72
39.626301 15.0778 -1027.45
39.0229 15.1763 -1028.79
37.776001 16.1061 -1029.67
33.523102 17.5338 -1033.03
31.0131 17.942101 -1034.24
27.031401 18.8214 -1036.5
22.544701 18.669701 -1038.09
21.9377 18.7043 -1038.25
20.945601 19.3186 -1038.4
18.988501 19.329399 -1038.84
18.419901 19.3834 -1038.98
17.389799 19.458 -1039.29
11.303 18.872299 -1040.38
51.626099 -2.8204 -991.651
52.34 3.52548 -1003.51
52.159199 3.8870499 -1004.21
52.3755 4.3350201 -1005
52.2687 4.6628098 -1005.64
52.2561 5.02841 -1006.28
52.266998 5.3825402 -1006.95
51.9277 5.6090398 -1007.5
51.852501 5.9583998 -1008.1
51.993 6.3220801 -1008.74
51.6824 6.56113 -1009.26
51.5396 6.8239398 -1009.81
51.2173 7.0775499 -1010.32
50.807999 7.24579 -1010.78
50.111698 7.9481201 -1012.2
50.054699 8.2484999 -1012.76
49.813599 8.8196402 -1013.79
48.937199 9.4453697 -1015.21
48.381199 9.8812599 -1016.17
48.444599 10.2228 -1016.71
47.5186 10.5131 -1017.55
46.920101 11.2079 -1018.92
46.2812 11.9333 -1020.18
46.384102 12.2365 -1020.77
45.2379 13.1472 -1021.78
44.070999 13.0219 -1021.96
42.6264 13.555 -1024.17
41.631302 14.3727 -1025.76
40.808399 14.6561 -1026.4399
40.649399 15.1313 -1027.21
39.021702 15.43 -1028.14
38.363602 16.061701 -1029.4
37.493698 16.244699 -1029.98
36.999401 16.809601 -1029.92
35.726799 16.9179 -1030.45
34.126099 17.7617 -1032.23
33.739601 17.835699 -1032.45
33.245602 17.705999 -1033.36
32.6427 18.2218 -1033.36
28.812099 18.757799 -1036.05
26.9424 19.299 -1036.27
25.0828 19.3309 -1036.65
24.039801 19.442801 -1037.05
23.6768 19.0557 -1037.51
22.556299 19.169399 -1037.85
21.9118 19.649401 -1037.79
19.940001 19.911501 -1038.52
16.089001 19.956301 -1039.29
10.6621 19.8652 -1039.99
52.158798 4.3323102 -1003.88
52.2006 4.7796302 -1004.68
52.3363 5.16605 -1005.4
51.967098 5.4274302 -1005.95
52.078201 5.7477698 -1006.59
51.755299 6.0527601 -1007.16
51.976101 6.4663701 -1007.87
51.706402 7.0591998 -1009
51.229099 7.2066302 -1009.48
51.089298 7.48843 -1010.04
50.687 7.7019 -1010.48
50.294102 7.8731699 -1010.92
50.361198 8.5065002 -1012.01
50.016899 8.73071 -1012.48
49.464802 8.8673697 -1012.94
49.466301 9.4762001 -1013.99
49.110199 9.6796303 -1014.46
48.753201 9.8703003 -1014.91
48.7644 10.187 -1015.47
48.527901 10.4198 -1015.93
48.310902 10.6539 -1016.44
48.217701 10.9521 -1016.93
47.669998 11.0569 -1017.35
47.026901 11.4246 -1018.23
46.6311 11.8428 -1019.08
46.721401 12.2156 -1019.7
45.0116 13.3889 -1020.94
43.0555 13.6239 -1023.09
41.586899 15.3321 -1025.29
40.707001 15.3498 -1026.61
39.079399 15.9348 -1027.91
38.9174 16.1436 -1028.27
37.516399 16.731701 -1029.66
35.624699 17.371201 -1030.2
33.213001 17.877001 -1032.64
32.9063 18.726 -1033.04
32.006401 18.2523 -1033.54
30.7686 18.618799 -1034.34
30.577 18.281401 -1033.9
28.226 19.750601 -1035.83
26.816299 19.7257 -1036.03
25.6024 19.739799 -1036.22
24.621799 19.8776 -1036.64
23.0674 20.059299 -1037.23
21.3451 19.6985 -1037.96
20.9165 19.7756 -1038.17
18.339399 20.342199 -1038.51
15.3914 20.431801 -1039.17
52.134201 1.25018 -996.88501
52.275002 1.68182 -997.703
52.2407 3.62781 -1002.52
52.111099 5.1552401 -1004.35
52.1478 5.5879502 -1005.06
52.0639 5.8773499 -1005.68
51.560501 6.3843999 -1006.77
51.572102 6.7835999 -1007.45
51.6077 7.1166101 -1008.12
51.478001 7.4321899 -1008.7
51.262001 7.6940298 -1009.2
51.07 7.9437599 -1009.76
50.656898 8.1104698 -1010.18
50.324799 8.3230305 -1010.61
50.409401 8.6787996 -1011.22
50.183102 8.9353905 -1011.72
49.915001 9.1949797 -1012.22
49.152 10.1592 -1014.23
48.9785 10.4078 -1014.73
48.412601 10.8506 -1015.68
48.268101 11.1236 -1016.18
47.946701 11.3255 -1016.64
47.4324 11.7683 -1017.55
46.806198 11.8624 -1017.93
46.799099 12.1013 -1018.41
46.547699 12.3142 -1018.78
46.513802 12.6994 -1019.37
46.264999 12.9168 -1019.76
45.897598 13.0125 -1020.18
45.265099 13.1848 -1020.5
43.314602 14.6678 -1022.66
42.210602 14.3754 -1023.62
41.7435 15.5633 -1024.6
41.235401 15.7083 -1025
40.789101 16.0814 -1025.75
39.695702 16.058901 -1026.99
38.977699 16.3745 -1027.6801
37.8419 16.8216 -1028.6899
36.354599 17.8314 -1030.7
35.0284 18.1863 -1030.65
32.941601 18.985701 -1032.41
32.5723 19.115801 -1032.6899
31.517401 19.0338 -1032.87
30.7271 18.818199 -1033.7
29.919701 19.361 -1034.8101
28.2719 20.247601 -1035.61
22.415001 20.555099 -1037.14
21.316299 20.632299 -1037.51
19.7076 20.795 -1038.02
19.079201 20.8356 -1038.16
17.7908 20.833599 -1038.4301
16.559799 20.860701 -1038.6801
15.2773 20.8771 -1038.91
14.7181 20.917801 -1039.03
8.68225 20.797199 -1039.88
52.038101 1.66254 -996.56403
51.964802 2.05811 -997.32202
52.248402 2.5862401 -998.19202
52.162399 2.96472 -998.96503
52.141201 3.33551 -999.69702
52.331799 3.79742 -1000.49
52.341202 4.1414499 -1001.17
52.098499 4.4260302 -1001.81
52.0718 5.1830101 -1003.18
52.0079 5.5246301 -1003.93
51.9011 5.9060702 -1004.68
51.5891 6.50491 -1005.81
51.626598 6.8671598 -1006.43
51.299599 7.0742202 -1007.02
51.109901 8.0510902 -1008.82
50.769299 8.2592497 -1009.3
50.7985 8.6104403 -1009.88
50.732101 8.9295301 -1010.44
50.2864 9.1280499 -1010.9
49.994999 9.3285198 -1011.41
49.788101 9.9144602 -1012.52
49.5336 10.1365 -1012.99
49.508099 10.4387 -1013.53
49.105301 10.6208 -1013.97
48.5317 11.0512 -1014.94
48.4478 11.3315 -1015.45
48.0037 11.7999 -1016.39
47.458302 11.9298 -1016.81
47.157799 12.4471 -1017.79
46.7551 12.6063 -1018.14
46.516899 12.8115 -1018.55
46.366699 13.0622 -1019.12
46.064899 13.6563 -1019.25
45.660198 13.8363 -1019.65
44.854401 13.7487 -1020.72
43.6661 15.2031 -1022.49
41.9604 15.2864 -1023.09
42.313801 15.9273 -1024.08
41.463902 15.9662 -1024.35
39.0602 17.3416 -1027.23
38.506699 17.194099 -1028.17
36.8829 17.736099 -1029.42
35.896 18.412001 -1029.76
35.006802 18.6346 -1030.38
33.682499 18.973499 -1031.26
31.683599 19.556499 -1032.65
30.8002 20.1089 -1033.75
28.577 20.6136 -1035.1
25.584101 20.696301 -1035.75
24.1057 20.902599 -1036.37
22.469101 21.0718 -1036.92
21.1551 21.086 -1037.24
20.7211 21.1731 -1037.4301
20.2808 21.2428 -1037.62
18.4286 20.839399 -1038.29
17.1658 21.344601 -1038.3101
15.8924 21.340099 -1038.5601
9.3253202 21.254 -1039.4301
52.2197 3.45367 -998.67102
52.020302 3.77689 -999.37299
51.961102 4.14188 -1000.12
51.999199 4.5365 -1000.8
52.198898 4.9482999 -1001.57
52.099998 5.3112202 -1002.25
51.845001 5.59833 -1002.85
51.783298 5.9289598 -1003.53
51.450298 6.5499301 -1004.84
51.6791 6.98981 -1005.53
51.2187 7.19174 -1006.04
50.9039 7.4451299 -1006.61
50.9874 8.1471901 -1007.84
50.793201 8.7363901 -1009.01
50.709702 9.0756798 -1009.59
50.303299 9.5904799 -1010.68
49.941502 10.1158 -1011.73
49.7882 10.4127 -1012.26
49.486599 10.5984 -1012.74
49.351101 10.8644 -1013.25
48.241501 12.0717 -1015.69
47.998402 12.2903 -1016.16
47.423302 12.6998 -1017.05
47.185101 12.9104 -1017.57
46.648499 13.0703 -1017.89
46.724998 13.3271 -1018.38
45.134201 13.9056 -1020.05
41.349499 16.654699 -1024.53
39.501598 17.384001 -1026.27
36.973598 18.683901 -1029
33.8806 19.5019 -1031.05
32.408401 19.9804 -1032.1899
31.1436 20.394899 -1033.16
30.8335 19.847 -1033.3
28.5679 21.0627 -1034.87
26.1838 21.108299 -1035.34
24.0839 21.3535 -1036.16
23.5446 21.4118 -1036.33
21.9212 21.582899 -1036.88
20.686399 21.6108 -1037.2
18.4757 21.764601 -1037.86
17.1159 21.7577 -1038.09
13.9956 21.823099 -1038.6801
11.2145 21.7624 -1038.98
9.1164598 21.6481 -1039.15
7.8172598 21.6649 -1039.33
51.954102 3.80811 -998.33698
52.094601 4.2384601 -999.13397
51.994701 4.61514 -999.84497
52.0947 5.0129099 -1000.58
51.8988 5.3177199 -1001.23
52.131001 6.1396799 -1002.65
51.771099 6.3624601 -1003.27
51.5532 6.6620202 -1003.9
51.762199 7.1067801 -1004.62
51.694302 7.4472699 -1005.26
51.4888 7.74857 -1005.84
51.027 7.9444599 -1006.4
51.199299 8.3134499 -1007.04
51.112499 8.6325102 -1007.63
50.901402 8.9123802 -1008.18
50.6959 9.1519499 -1008.72
50.565601 9.45889 -1009.32
50.139599 9.6517296 -1009.79
50.050499 10.2757 -1010.94
49.858101 10.5256 -1011.48
49.815601 10.8676 -1012.06
49.501598 11.0652 -1012.5
49.143799 11.2769 -1012.96
48.4291 11.6676 -1013.88
48.560299 12.0119 -1014.46
48.337002 12.2372 -1014.94
47.6553 12.9331 -1016.38
46.102299 13.9522 -1018.6
46.221699 14.2838 -1018.97
43.848701 14.9289 -1020.96
43.077599 15.547 -1022.16
42.589001 15.9603 -1022.98
41.3797 17.376101 -1024.75
40.5849 17.419201 -1025.02
38.2901 18.535 -1027.4399
37.870998 18.664801 -1027.76
37.360199 19.0135 -1028.47
36.851398 19.0965 -1028.75
36 19.3284 -1029.34
35.2701 19.174801 -1030.1801
34.878799 19.745399 -1030.27
32.652302 20.287399 -1031.64
31.8834 20.499399 -1032.2
30.822599 20.556499 -1033.5601
30.3004 21.1057 -1033.64
29.4496 21.3071 -1034.17
29.090599 21.4219 -1034.4301
27.8391 21.514299 -1034.77
25.573299 21.608 -1035.3
24.0112 21.7999 -1035.91
20.756201 22.083799 -1037
19.652901 22.1926 -1037.3199
18.376499 22.2134 -1037.61
8.4918804 22.1194 -1038.98
51.878101 4.2335501 -998.06299
51.868999 4.6375399 -998.81
52.034901 5.09903 -999.61603
51.437599 5.2405701 -1000.13
51.970299 5.8039899 -1001
51.7761 6.1009498 -1001.64
51.566399 6.4312701 -1002.24
51.7659 6.84763 -1003.03
51.4603 7.0934401 -1003.61
51.233299 8.1315603 -1005.55
51.2556 8.47931 -1006.19
50.914799 8.7032499 -1006.71
51.018902 9.0610399 -1007.35
50.680698 9.6149597 -1008.47
50.198601 10.1245 -1009.58
50.251499 10.4613 -1010.17
49.887798 11.0113 -1011.24
49.3661 11.4742 -1012.23
49.096699 11.688 -1012.71
48.669201 12.1905 -1013.69
48.7257 12.5138 -1014.26
48.099998 12.9453 -1015.2
47.845299 13.1516 -1015.67
47.717201 13.4154 -1016.16
47.182301 13.9875 -1016.32
47.055698 13.8099 -1017.04
46.457001 14.4538 -1018.48
42.844501 16.774401 -1023.27
41.9814 17.0222 -1023.97
39.570599 18.320801 -1025.84
39.514801 18.585199 -1026.23
36.047199 19.8046 -1029.11
35.250999 20.0791 -1029.73
33.755402 19.8993 -1030.8
32.626801 20.7164 -1031.4399
31.8416 20.9492 -1031.98
31.144501 20.8629 -1032.95
30.575199 21.6528 -1033.48
28.2988 21.885201 -1034.3101
27.5783 21.850201 -1034.4399
26.5833 21.9286 -1034.65
25.6346 22.0851 -1035.09
21.7579 22.434 -1036.4
21.316999 22.492201 -1036.62
19.6569 22.6313 -1037.11
15.9636 22.7297 -1037.9
9.9388399 22.650499 -1038.66
6.96527 22.4657 -1038.79
51.559399 4.57162 -997.703
51.894402 5.0885 -998.53302
51.778599 5.46173 -999.28198
51.711201 5.7947102 -999.94598
51.7672 6.1866798 -1000.66
51.5928 6.5111098 -1001.32
51.324501 6.7775002 -1001.93
51.6115 7.21527 -1002.71
51.379002 7.9140902 -1004.01
51.333401 8.2394104 -1004.68
51.229401 8.5779104 -1005.28
51.150902 9.2368803 -1006.54
51.1036 9.5269203 -1007.1
50.972698 9.8289499 -1007.69
50.642899 10.0643 -1008.23
50.354301 10.3098 -1008.78
50.232498 10.6017 -1009.33
50.2607 10.915 -1009.93
49.8256 11.1201 -1010.42
49.7514 11.4325 -1010.98
49.440102 11.6262 -1011.5
49.0112 12.1147 -1012.47
48.8046 12.3597 -1012.95
48.849098 12.699 -1013.5
48.629799 12.9243 -1014.01
48.247898 13.1241 -1014.46
47.9366 13.3436 -1014.93
47.895599 13.6235 -1015.44
47.0275 14.286 -1016.84
46.617901 14.6895 -1017.66
43.735298 16.2957 -1020.28
41.930199 16.6355 -1022.37
41.620701 17.861401 -1023.46
41.451801 17.6014 -1024.1
37.6101 19.740999 -1027.66
36.472801 20.146999 -1028.59
34.794498 20.633301 -1029.8
34.040298 20.892401 -1030.4
32.897099 21.032499 -1030.9
31.6113 21.348101 -1031.73
30.0173 22.177 -1033.49
25.970301 22.4478 -1034.58
25.4783 22.493999 -1034.8199
24.3486 22.587799 -1035.22
23.724199 22.621201 -1035.4
22.922199 22.831301 -1035.83
18.9496 23.083599 -1037.01
15.8356 23.166901 -1037.64
15.2092 23.181 -1037.75
11.2917 23.1495 -1038.3199
9.0579205 23.028601 -1038.4399
8.32477 22.9911 -1038.47
51.651501 5.85742 -998.96002
51.8414 6.30725 -999.72998
51.692902 6.6220398 -1000.39
51.4799 6.9152498 -1001.03
51.751598 7.3453698 -1001.78
51.6343 7.7058101 -1002.47
51.628502 8.4390001 -1003.82
51.192902 8.63727 -1004.39
51.150501 9.3523598 -1005.67
51.025501 9.6336403 -1006.25
51.028702 9.9989595 -1006.85
50.8372 10.2452 -1007.41
50.686901 10.5331 -1007.97
50.460602 10.8051 -1008.54
50.3904 11.1162 -1009.12
50.205299 11.384 -1009.68
49.817902 11.5672 -1010.19
49.324799 11.7495 -1010.63
49.483601 12.1114 -1011.25
48.688 13.124 -1013.22
48.512501 13.36 -1013.74
48.248402 13.5864 -1014.21
47.9328 13.7744 -1014.69
47.766201 14.0388 -1015.17
47.216 14.1795 -1015.57
46.686199 14.6207 -1016.5
46.554401 14.8058 -1016.93
45.970001 15.2657 -1017.84
45.289299 15.6368 -1018.63
43.2733 16.9886 -1021.52
41.416901 18.039499 -1023.86
40.2915 18.496599 -1024.9
39.4683 18.767799 -1025.58
38.975601 19.1541 -1026.3101
38.430599 19.5028 -1027.03
37.286098 20.136999 -1027.35
35.594799 20.8866 -1028.96
32.212101 21.305201 -1031.47
31.5508 21.8298 -1031.48
26.978901 22.767099 -1033.95
25.472799 22.990801 -1034.58
17.639299 23.098801 -1037.27
14.5813 23.693501 -1037.62
11.8776 23.6187 -1037.99
6.8275099 23.375601 -1038.27
51.6446 5.5539198 -997.15002
51.696899 5.95502 -997.961
51.727798 6.3499098 -998.70398
51.582901 7.09442 -1000.08
51.641201 7.4734802 -1000.8
51.5756 7.8342299 -1001.47
51.296299 8.0700998 -1002.11
51.2043 8.4242601 -1002.76
51.443802 8.8622103 -1003.51
51.351101 9.1760597 -1004.14
51.267899 9.52917 -1004.76
50.843102 9.7361498 -1005.33
50.569199 10.6699 -1007.08
50.479301 10.9432 -1007.67
50.2686 11.232 -1008.25
50.2118 11.5452 -1008.82
50.076199 11.8413 -1009.37
49.9063 12.1104 -1009.93
49.5877 12.3311 -1010.44
49.581402 12.6136 -1011.01
49.241798 12.8306 -1011.47
49.049198 13.1035 -1011.96
48.693699 13.2892 -1012.43
48.577801 13.5488 -1012.95
48.429001 13.8128 -1013.45
48.2332 14.0392 -1013.95
47.8176 14.1967 -1014.42
47.100498 14.6119 -1015.3
46.718102 15.3748 -1016.72
45.880901 15.6502 -1017.61
46.039398 16.001801 -1018.04
45.279999 16.0807 -1018.36
44.613499 17.1766 -1019.41
41.834999 18.1353 -1022.83
41.5467 18.586399 -1023.63
40.466301 18.7908 -1024.27
40.2458 19.229099 -1025.05
39.370701 19.2083 -1025.33
38.5914 19.9799 -1025.76
37.7034 20.002001 -1027.04
37.078701 20.319799 -1027.6899
35.3181 21.239201 -1028.65
33.562401 21.4788 -1030.4399
31.434601 22.2932 -1031.23
28.5488 23.0861 -1033.17
27.538799 23.162701 -1033.51
25.421101 23.4582 -1034.34
23.4272 23.2328 -1035.4
19.5007 24.0243 -1036.37
18.0266 24.198099 -1036.87
16.3286 23.611 -1037.26
12.418 24.083599 -1037.63
11.8455 24.098101 -1037.74
10.5154 24.074699 -1037.86
9.0788603 24.0186 -1037.95
51.5812 6.7796001 -998.37799
51.429298 7.1041598 -999.04102
51.499401 7.8764 -1000.5
51.521 8.25562 -1001.17
51.120602 8.4844103 -1001.78
51.325199 8.9440603 -1002.54
51.125801 9.2276897 -1003.17
51.268799 9.6310701 -1003.87
51.198898 9.9580097 -1004.51
50.867001 10.218 -1005.07
50.753899 10.4926 -1005.64
50.5285 10.7646 -1006.19
50.556702 11.1013 -1006.83
50.416599 11.4067 -1007.4
50.2645 11.6967 -1007.96
50.276299 12.0209 -1008.6
49.895901 12.2662 -1009.09
49.5984 12.4741 -1009.61
49.6175 12.7951 -1010.19
49.4002 13.0514 -1010.73
49.2244 13.2971 -1011.23
48.450401 13.9661 -1012.67
48.391998 14.2753 -1013.21
47.938499 14.4153 -1013.64
47.744701 14.6926 -1014.14
46.901501 15.0334 -1015.02
46.535999 15.5112 -1015.97
46.493698 15.7826 -1016.42
46.578701 16.089701 -1016.87
46.018902 16.516399 -1017.75
44.7794 16.9846 -1018.96
43.4048 17.966 -1021.07
42.716702 18.588301 -1022.3
40.8979 18.868299 -1023.25
38.606602 20.2516 -1026.16
37.6437 20.703899 -1027.21
35.112202 21.457701 -1029
31.597401 22.6015 -1031.75
30.3361 23.4718 -1032.48
26.8944 23.6819 -1033.45
25.8829 23.347 -1034.12
23.858299 23.629601 -1034.96
22.226601 23.7896 -1035.5
21.015301 24.353399 -1035.6
18.2064 24.5578 -1036.41
16.969 24.554001 -1036.66
15.911 24.6187 -1036.95
7.64325 24.4146 -1037.78
5.0627398 24.1721 -1037.72
51.478401 6.8291602 -997.30298
51.674999 7.2764001 -998.12201
51.146198 7.4583998 -998.70502
51.381699 7.9529099 -999.47498
51.558998 8.3689604 -1000.22
51.387798 8.6840801 -1000.85
51.313999 9.0561504 -1001.54
51.2141 9.39258 -1002.22
51.101898 9.7036695 -1002.85
51.093102 10.0619 -1003.55
51.060299 10.4236 -1004.21
50.839199 10.6801 -1004.8
50.855701 11.0165 -1005.4
50.437901 11.207 -1005.9
50.6096 11.6245 -1006.57
50.040199 11.7266 -1007.04
50.3046 12.187 -1007.75
50.340801 12.5218 -1008.35
49.964901 12.7284 -1008.85
49.509602 12.9268 -1009.34
49.417999 13.2167 -1009.88
49.282799 13.4926 -1010.44
49.148102 13.775 -1010.95
48.8535 13.9726 -1011.42
48.728401 14.2627 -1011.93
48.258099 14.7266 -1012.93
48.1143 14.9967 -1013.43
47.802101 15.1878 -1013.89
47.582901 15.4169 -1014.38
47.025101 15.5239 -1014.78
46.712502 16.0618 -1015.73
45.899502 17.1721 -1016.82
44.984501 16.934099 -1017.8
44.208099 17.8911 -1019.71
42.695 18.507799 -1021.15
42.245201 19.177799 -1022.42
40.303001 19.6898 -1023.76
39.336102 20.1835 -1024.8101
38.162701 20.8419 -1026.23
36.326302 21.526699 -1027.84
35.7738 21.620501 -1028.11
33.404499 22.395399 -1029.92
32.422699 22.806499 -1030.78
31.2453 23.1625 -1030.78
30.3736 23.9608 -1032.22
29.6091 23.9356 -1032.35
27.930401 24.0229 -1032.79
25.898399 23.8473 -1033.88
24.344101 24.056299 -1034.5
23.5762 24.4867 -1034.42
22.726 24.6754 -1034.84
21.565701 24.77 -1035.1801
19.4203 24.9561 -1035.88
13.8879 25.111799 -1037
12.4393 25.0502 -1037.17
10.3704 24.9937 -1037.34
51.474701 7.2870202 -996.995
51.332901 7.6444101 -997.74902
51.445301 8.0452604 -998.46997
51.521702 8.4679899 -999.216
51.279301 8.7649803 -999.867
51.3867 9.1359596 -1000.58
51.204201 9.4758596 -1001.27
51.194401 9.8442097 -1001.95
50.882801 10.1136 -1002.54
50.8223 10.8055 -1003.88
50.826199 11.1586 -1004.51
50.590698 11.3939 -1005.07
50.7057 11.7703 -1005.73
50.527 12.0453 -1006.29
50.2099 12.2769 -1006.82
49.915798 12.5261 -1007.37
50.248299 12.9574 -1008.07
49.851002 13.1706 -1008.56
49.7295 13.4667 -1009.13
49.297001 13.6555 -1009.58
48.992298 13.8711 -1010.09
49.0256 14.1832 -1010.65
48.619801 14.6794 -1011.66
48.4123 14.9323 -1012.16
48.064899 15.1257 -1012.62
48.139099 15.4658 -1013.18
47.578999 15.5829 -1013.59
47.648602 15.9278 -1014.13
47.031898 16.0359 -1014.54
46.7719 16.5522 -1015.52
46.4118 16.998301 -1016.36
45.248001 17.51 -1017.59
44.573898 17.945999 -1018.45
44.715 18.335199 -1018.91
43.799301 19.2061 -1019.96
43.3979 18.8881 -1020.54
42.7286 19.198601 -1020.21
41.9655 20.057899 -1021.86
40.9702 19.8251 -1022.8
38.7001 20.9513 -1025.3
38.206001 21.313801 -1026
36.5485 22.2966 -1027.02
35.876099 22.1036 -1027.89
34.690601 23.0019 -1028.58
32.1101 23.632299 -1030.26
31.6779 24.055599 -1031.08
29.950701 24.2745 -1031.88
26.8223 24.615999 -1032.96
25.3437 24.8463 -1033.62
24.885401 24.9382 -1033.83
23.239599 25.092899 -1034.4
19.892 25.377701 -1035.46
18.722 24.9484 -1036.01
17.514 25.4688 -1036.05
16.9377 25.4967 -1036.1801
51.1922 7.6412001 -996.64899
51.5616 8.5419598 -998.25201
51.3246 8.8523302 -998.90302
51.288799 9.2035198 -999.573
51.030602 9.5030499 -1000.24
51.2925 9.9591703 -1001
50.834999 10.1609 -1001.58
51.118698 10.6331 -1002.35
50.9669 10.959 -1002.97
50.473701 11.5084 -1004.17
50.424999 11.8053 -1004.77
50.634602 12.2245 -1005.43
50.4067 12.472 -1006.02
49.966499 12.6719 -1006.5
50.0033 13.0128 -1007.14
50.1464 13.3796 -1007.78
49.879799 13.6204 -1008.32
49.7868 13.9569 -1008.88
49.371498 14.1284 -1009.36
49.318901 14.4249 -1009.92
48.789299 14.8875 -1010.91
48.552898 15.1329 -1011.37
48.325699 15.3642 -1011.88
48.071201 15.5759 -1012.37
47.731899 15.7933 -1012.82
47.8092 16.1208 -1013.39
47.601002 16.3568 -1013.89
47.3764 16.601299 -1014.36
46.8181 16.697399 -1014.77
46.292801 17.1423 -1015.63
45.6693 17.8484 -1017
44.815601 18.794701 -1018.81
42.839199 19.9627 -1020.48
42.290298 19.586201 -1021
40.215698 21.3204 -1023.42
39.1819 21.055901 -1024.29
37.592999 21.8811 -1026.03
37.1394 21.989 -1026.36
35.255402 22.657801 -1027.92
34.204102 23.5529 -1028.62
32.844101 23.869801 -1029.46
32.028099 24.0825 -1030.01
31.347 24.181 -1030.33
29.933201 24.7199 -1031.55
28.857401 24.781099 -1031.84
26.709801 25.078501 -1032.6801
20.9366 25.731001 -1034.88
19.868099 25.855 -1035.21
18.1532 25.9561 -1035.67
11.7695 26.004801 -1036.75
51.1992 8.5460501 -997.11499
51.114399 8.8829002 -997.83801
51.147701 9.2776203 -998.56
51.273201 9.6855497 -999.29303
51.012199 9.9524803 -999.953
51.128101 10.3897 -1000.69
51.0308 10.7174 -1001.36
50.885899 11.0256 -1002.01
50.879101 11.3848 -1002.68
50.4818 11.6056 -1003.27
50.713402 12.0403 -1003.98
50.650501 12.3594 -1004.54
50.304298 12.902 -1005.71
50.1847 13.2265 -1006.3
49.988701 13.4849 -1006.87
49.9646 13.8056 -1007.47
49.567402 14.0355 -1007.97
49.4949 14.3393 -1008.56
49.3298 14.5824 -1009.1
49.134602 14.846 -1009.63
48.945099 15.1054 -1010.11
48.418301 15.533 -1011.09
48.296299 15.8228 -1011.64
48.046299 16.054701 -1012.11
47.724998 16.2938 -1012.57
47.874401 16.6068 -1013.18
46.957001 17.2229 -1014.53
46.242599 17.868299 -1015.84
45.517799 17.9632 -1016.24
45.295898 18.496201 -1017.22
44.691502 18.5956 -1017.54
44.7327 19.1612 -1018.56
43.127399 19.9722 -1019.35
43.253799 19.7934 -1020.02
41.913601 20.244699 -1021.16
40.8699 20.7237 -1022.29
40.2076 21.0548 -1023.02
38.964401 22.1609 -1024.1899
38.487801 22.520201 -1024.9301
37.7313 22.8146 -1025.6
34.9286 23.7323 -1027.77
34.1572 24.0002 -1028.4
31.3685 24.650101 -1030.08
29.0762 25.065701 -1031.34
26.8853 25.5562 -1032.49
25.8519 25.694099 -1032.9399
24.671101 25.792 -1033.33
24.1544 25.8466 -1033.54
23.5676 25.9214 -1033.72
22.092699 26.1096 -1034.3
20.514299 26.2775 -1034.85
18.5786 26.3379 -1035.25
16.2892 26.461599 -1035.8199
11.5412 26.391399 -1036.47
10.8443 26.3633 -1036.53
8.0694599 26.2605 -1036.71
50.795502 8.4477797 -995.96802
50.945999 9.2752399 -997.48602
50.993801 9.6701403 -998.23401
51.016899 10.0341 -998.961
51.146702 10.4573 -999.698
50.840302 10.7266 -1000.35
50.836399 11.4605 -1001.73
51.0303 11.9034 -1002.45
50.579102 12.451 -1003.65
50.625099 12.786 -1004.29
50.334 13.0311 -1004.84
50.074699 13.6289 -1005.99
49.739101 13.8559 -1006.57
49.495399 14.7803 -1008.3
49.281399 15.038 -1008.83
49.247898 15.3405 -1009.41
48.907101 15.5371 -1009.86
48.835701 15.8201 -1010.39
48.565601 16.059799 -1010.88
48.0495 16.216801 -1011.32
48.065899 16.5152 -1011.86
46.444698 17.8326 -1014.68
46.119099 18.018999 -1015.11
45.7216 18.535601 -1016.04
45.192699 18.9762 -1016.1
44.868198 19.5166 -1017.12
44.321701 19.601 -1017.45
43.554699 19.908899 -1018.23
42.297699 20.6945 -1019.88
41.933601 21.1343 -1020.69
41.486 21.5275 -1021.48
40.5107 22.050501 -1022.6
39.412399 22.0422 -1023.86
38.669102 22.7931 -1024.3101
35.4958 23.854099 -1026.88
35.2999 24.038601 -1027.22
34.474998 24.2903 -1027.85
33.6329 24.0807 -1028.66
32.785599 24.758801 -1028.98
31.5098 25.094299 -1029.83
30.558001 25.2799 -1030.46
25.2859 26.2267 -1032.91
24.7292 26.278099 -1033.11
23.5774 26.386499 -1033.49
23.009701 26.404699 -1033.6801
21.498301 26.6033 -1034.24
19.240801 26.7736 -1034.9
15.6052 26.901899 -1035.6801
50.681198 9.6478596 -997.15601
50.6478 10.366 -998.57599
50.968899 10.8672 -999.39502
50.824001 11.1844 -1000.08
50.719799 11.5159 -1000.72
50.8731 11.9315 -1001.49
50.8577 12.3166 -1002.16
50.753201 12.6126 -1002.78
50.3815 12.8463 -1003.34
50.461601 13.1899 -1003.99
50.481899 13.5565 -1004.6
50.009201 13.7311 -1005.11
49.754501 13.9532 -1005.68
49.875599 14.3722 -1006.34
49.728298 14.6323 -1006.91
49.256401 15.1514 -1007.99
48.6297 15.9141 -1009.55
48.805801 16.2847 -1010.16
48.515598 16.499599 -1010.63
48.210499 16.7171 -1011.09
47.873699 16.8993 -1011.59
47.594398 17.122801 -1012.06
47.539398 17.421101 -1012.59
47.2752 17.6133 -1013.08
46.863201 17.8081 -1013.52
46.6689 18.3505 -1014.49
45.868301 18.6936 -1015.28
45.7169 18.974199 -1015.81
44.692101 19.2241 -1016.57
44.276299 19.9214 -1018
43.8983 20.5625 -1018.01
42.637501 20.9053 -1019.2
39.690498 22.7705 -1023.03
37.315399 23.405899 -1025.6899
36.351898 23.612801 -1026.28
35.4846 24.3228 -1026.63
34.891701 24.154499 -1027.52
33.228401 25.1085 -1028.48
31.924999 25.4112 -1029.29
31.0791 25.6492 -1029.86
30.4879 25.703899 -1030.11
30.214899 25.888901 -1030.4
27.3402 26.381001 -1031.8101
21.546 27.0548 -1034.02
20.8538 27.069201 -1034.17
19.9252 27.2209 -1034.55
19.365999 27.261299 -1034.71
18.0345 27.269699 -1034.96
10.3017 27.2878 -1036.15
8.6751099 27.174601 -1036.1801
50.907799 10.1911 -996.92603
51.045601 10.6029 -997.67798
50.687901 10.8358 -998.32703
50.576698 11.1806 -998.99902
50.797501 11.6166 -999.76801
50.401699 12.2209 -1001.08
50.477402 12.6203 -1001.77
50.451401 12.9547 -1002.45
50.456699 13.3399 -1003.09
49.947201 14.1408 -1004.86
50.001801 14.5227 -1005.48
49.798599 14.8116 -1006.05
49.578999 15.0466 -1006.61
49.499298 15.3504 -1007.19
49.161301 15.5739 -1007.69
49.084499 15.8789 -1008.26
48.810101 16.1336 -1008.8
48.863201 16.415701 -1009.36
48.690399 16.6812 -1009.88
48.0485 17.0994 -1010.81
47.4585 17.236 -1011.22
47.775002 17.6166 -1011.84
47.149899 18.064199 -1012.8
46.9291 18.5902 -1013.8
46.6161 18.767 -1014.25
46.242199 18.9582 -1014.67
45.378899 19.522499 -1015.87
42.942902 20.824699 -1018.83
41.8619 21.767 -1019.71
41.491299 21.9842 -1021.25
41.084 22.862301 -1021.8
40.125099 23.101101 -1022.44
38.1511 23.804899 -1024.16
37.7794 23.947001 -1024.49
36.3279 24.5179 -1025.8
33.4147 25.382799 -1027.9
32.6171 25.624201 -1028.48
30.1663 26.3092 -1030.15
27.6957 26.742599 -1031.3101
27.113001 26.777599 -1031.53
26.1609 26.9431 -1031.98
24.9251 27.228001 -1032.7
24.118299 26.775 -1033.0601
23.018299 26.877899 -1033.4399
21.7787 26.934799 -1033.77
18.7076 27.7139 -1034.6
16.839899 27.7824 -1034.99
12.3359 27.809299 -1035.71
50.802399 10.2149 -995.87598
50.757801 10.5458 -996.60999
51.0536 11.0347 -997.41699
50.7421 11.3419 -998.04901
50.845699 11.7114 -998.79401
50.682899 12.048 -999.48199
50.937698 12.5078 -1000.25
50.352501 12.6601 -1000.8
50.478802 13.0798 -1001.51
50.335999 13.3772 -1002.13
50.293499 13.7275 -1002.78
50.347401 14.0781 -1003.41
50.3591 14.4239 -1004.07
50.264099 14.7258 -1004.67
50.048302 14.9814 -1005.22
49.9011 15.3033 -1005.81
49.5326 15.4863 -1006.33
49.5844 15.8618 -1006.97
49.180901 16.040899 -1007.45
49.066002 16.3437 -1008
48.988602 16.614901 -1008.57
48.654999 16.838699 -1009.06
48.526001 17.083 -1009.58
48.1008 17.2728 -1010
47.830002 17.502399 -1010.5
47.559898 18.0242 -1011.55
47.337399 18.280001 -1012.06
46.950401 18.760799 -1013.04
46.797501 18.989 -1013.51
46.495998 19.205799 -1013.96
45.793598 19.5924 -1014.78
45.235298 19.714899 -1015.23
45.256199 20.3162 -1016.21
44.800999 20.419201 -1016.59
43.765301 21.2169 -1018.27
40.110401 22.8221 -1022.03
38.670799 23.6481 -1022.77
36.744099 24.4048 -1025.49
36.023899 24.679899 -1026.12
35.4828 24.757799 -1026.39
34.508999 25.6924 -1027.14
32.3424 25.7635 -1028.79
28.3682 27.1691 -1030.9
26.066299 27.3799 -1031.73
25.712099 27.035801 -1032.22
23.062401 27.8393 -1032.98
21.4608 27.9893 -1033.53
20.8983 27.5411 -1033.9399
15.5655 28.271 -1034.97
9.4091797 28.1525 -1035.66
50.588699 11.0009 -996.24799
50.877899 11.4549 -997.04797
50.527599 11.7074 -997.69397
50.627602 12.1203 -998.43402
50.394001 12.4262 -999.10101
50.567101 12.8566 -999.86401
50.398602 13.1697 -1000.5
50.3535 13.5052 -1001.2
50.204201 13.818 -1001.81
50.109402 14.1353 -1002.46
50.415501 14.5704 -1003.17
50.074799 14.793 -1003.7
50.1115 15.168 -1004.36
49.635201 15.3314 -1004.84
49.464199 15.9417 -1006.03
49.331902 16.2708 -1006.6
49.2822 16.547899 -1007.2
48.991001 16.7875 -1007.72
48.82 17.062 -1008.25
48.666302 17.3188 -1008.78
48.634399 17.6108 -1009.33
48.137798 17.7817 -1009.76
47.9608 18.030199 -1010.25
47.696499 18.5529 -1011.31
47.182499 18.985701 -1012.31
46.6073 19.129999 -1012.7
46.564201 19.4039 -1013.2
45.9631 19.8008 -1014.08
45.779701 20.046301 -1014.52
45.0476 20.1161 -1014.89
44.792801 20.628901 -1015.88
44.563301 20.833099 -1016.27
44.5942 21.055599 -1016.75
41.5854 22.1667 -1019.4
40.561298 22.938101 -1021.02
40.095299 23.34 -1021.78
38.340801 24.0748 -1023.52
37.322201 24.996599 -1024.3199
36.686298 25.315001 -1024.98
35.463001 25.935101 -1026.29
34.358299 25.8559 -1026.49
33.046902 26.223101 -1027.37
32.581501 26.0998 -1028.22
30.9683 26.810101 -1028.77
30.545401 26.6632 -1029.61
27.2442 27.288 -1031.3199
25.669901 27.990801 -1031.75
24.706499 28.179899 -1032.1801
23.624201 27.7813 -1032.8101
17.8734 28.634199 -1034.24
16.128401 28.704 -1034.61
12.186 28.711599 -1035.1899
6.3985 28.4452 -1035.47
50.7658 11.8771 -996.72699
50.391499 12.1534 -997.35498
50.498798 12.5561 -998.10602
50.553902 12.944 -998.86902
50.2047 13.2174 -999.466
50.5825 13.6999 -1000.27
50.048401 14.2333 -1001.48
50.3167 14.648 -1002.26
50.246601 14.9603 -1002.85
50.193501 15.2983 -1003.45
49.938 15.9036 -1004.64
49.3741 16.3873 -1005.75
49.241798 16.710699 -1006.32
48.931801 16.9177 -1006.85
49.056999 17.267099 -1007.46
48.860802 17.5203 -1007.99
48.5313 17.7332 -1008.49
48.473701 18.032301 -1009.04
48.213699 18.2523 -1009.51
47.866001 18.442801 -1009.98
47.197601 19.197201 -1011.49
47.012501 19.4277 -1012
46.6567 19.6078 -1012.44
46.104099 20.035101 -1013.35
45.747299 20.1859 -1013.78
45.115799 20.8277 -1015.06
43.981098 22.0284 -1017.26
42.411701 22.371599 -1018.39
41.3661 23.332199 -1020.45
40.0839 23.503 -1021.11
39.924999 23.9704 -1021.92
37.1106 25.444901 -1024.0601
36.265999 25.429899 -1025.29
35.409199 25.675301 -1025.91
32.361401 26.7197 -1028.33
28.9279 27.392099 -1030.13
28.0502 27.5798 -1030.63
27.316799 27.819201 -1031.12
23.6826 28.290501 -1032.61
21.007601 28.5592 -1033.51
10.8826 29.194901 -1035.09
5.5255699 28.8395 -1035.1801
50.1534 11.7728 -995.53699
50.587601 12.2625 -996.401
50.4744 12.98 -997.80402
50.339901 13.3334 -998.51001
50.1973 14.0348 -999.89203
50.1772 14.4323 -1000.57
50.307999 14.7925 -1001.27
49.769199 14.9646 -1001.81
50.114799 15.4207 -1002.53
