# .PCD v0.7 - Point Cloud Data file format
VERSION 0.7
FIELDS x y z
SIZE 4 4 4
TYPE F F F
COUNT 1 1 1
WIDTH 1031
HEIGHT 1
VIEWPOINT 0 0 0 1 0 0 0
POINTS 1031
DATA ascii
-25.197599 -72.504997 -997.78302
-29.806101 -70.3423 -1012.02
-28.1134 -71.062302 -1004.24
-23.5814 -72.757103 -995.25201
-29.5341 -69.786102 -1006.57
-22.720501 -72.484299 -994.81403
-26.1826 -70.647499 -998.862
-30.4891 -68.154503 -1020.29
-30.409901 -68.343597 -1011.77
-30.318501 -68.410004 -1009.98
-31.0723 -67.281998 -1013.57
-30.1635 -67.461601 -1007.28
-25.09 -69.985001 -995.64203
-23.910999 -69.862503 -993.742
-28.303499 -66.131798 -998.995
-31.607599 -63.737099 -1007.19
-31.4974 -63.6703 -1005.14
-28.465099 -62.257999 -1032.9
-32.586899 -62.423698 -1011.5
-30.495199 -61.844799 -1027.8
-27.8454 -63.470501 -995.60602
-26.253 -63.823101 -991.93701
-30.0641 -60.726398 -1029.79
-26.2094 -63.430099 -992.92102
-28.829 -60.828701 -1032.21
-23.4023 -64.051102 -988.86102
-27.327499 -62.0816 -993.72302
-23.8216 -60.415699 -1039.85
-30.954201 -58.555599 -1028.34
-32.414398 -59.000801 -1003.98
-27.415001 -60.836102 -992.08698
-33.293499 -58.202301 -1006.87
-33.303299 -57.9939 -1005.55
-23.2834 -61.467701 -987.88501
-31.3596 -56.7155 -1029.33
-30.417999 -58.141602 -996.23199
-29.2698 -58.559601 -993.88898
-28.142099 -58.9977 -992.59302
-27.562099 -57.0406 -1036.74
-33.2416 -56.4151 -1003.08
-22.814899 -60.333599 -985.87598
-32.295799 -56.294399 -1000.32
-24.436199 -59.001598 -988.06403
-30.834499 -56.391899 -996.16602
-26.725201 -55.444698 -1037.78
-28.4158 -57.180599 -992.15198
-29.188 -56.23 -992.16498
-26.9513 -57.104599 -988.83899
-30.6471 -54.799599 -992.94702
-27.701 -55.259701 -989.92297
-26.6982 -55.807999 -987.71399
-26.1455 -55.933399 -986.29199
-24.296499 -56.258999 -985.479
-26.699301 -53.176998 -1037.72
-34.4832 -52.319801 -1004.6
-34.034401 -52.4254 -1001.05
-29.562599 -53.7631 -992.16199
-28.686501 -54.6227 -990.64001
-27.989599 -52.4734 -1036.74
-30.514799 -53.219799 -993.12097
-29.163799 -53.7439 -990.89899
-20.8771 -57.212101 -980.94702
-25.1831 -52.259602 -1040.83
-34.115898 -51.071499 -1001.21
-26.669901 -54.137001 -986.87
-25.194799 -54.5592 -985.78302
-31.686701 -49.358898 -1030.5
-34.140301 -50.088699 -1002.35
-34.189301 -49.483299 -1002.24
-32.804699 -50.141102 -997.91498
-32.405899 -49.793598 -995.70099
-30.316299 -50.666801 -990.90399
-24.122601 -52.8606 -983.56897
-20.693399 -54.023399 -980.68799
-33.533798 -47.066299 -1026.1899
-35.930698 -47.721001 -1014.39
-35.369999 -48.041302 -1008.41
-34.2243 -48.482101 -1001.18
-35.8638 -46.483799 -1012.35
-33.765701 -48.1581 -998.91302
-30.903601 -49.335602 -992.07098
-28.500999 -50.123001 -987.63898
-35.737499 -46.3936 -1009.39
-34.254501 -47.398602 -999.75201
-33.032501 -47.938999 -996.71503
-30.260599 -48.461201 -990.367
-28.0728 -48.7369 -986.784
-29.7791 -45.673199 -1034.87
-32.4977 -47.076099 -995.21899
-27.051701 -49.090801 -985.474
-24.4582 -49.033298 -982.44098
-31.628099 -44.459301 -1031.17
-34.280499 -43.887299 -1023.62
-36.207001 -44.2155 -1006.24
-34.548901 -44.9119 -999.11102
-31.944099 -46.091099 -993.71198
-31.202801 -46.155899 -990.84998
-29.4856 -46.6008 -987.33698
-27.886499 -47.1413 -985.776
-30.358601 -43.098999 -1034.59
-35.281898 -43.767502 -1001.61
-25.5804 -47.420898 -982.84802
-35.663898 -42.776299 -1004.09
-33.397202 -44.223202 -995.61499
-29.691401 -45.4991 -987.04901
-20.543301 -48.6525 -977.81299
-30.811001 -42.621498 -1033.53
-36.075298 -42.216499 -1005.21
-33.1404 -43.732601 -995.617
-32.5583 -43.997601 -993.58099
-31.239 -44.476898 -989.90399
-28.873199 -42.302898 -1036.83
-32.7551 -43.262402 -992.05103
-31.909901 -43.560902 -990.79797
-31.298599 -43.803001 -989.388
-34.311699 -40.251499 -1024.08
-35.988499 -41.019798 -1003.83
-34.897598 -41.323898 -998.70203
-31.1038 -43.3629 -988.80902
-27.4139 -44.725498 -984.94897
-30.1628 -40.7402 -1033.47
-33.906799 -39.994499 -1026.27
-26.348301 -44.455101 -983.14697
-32.589802 -39.2873 -1028.9399
-35.623299 -40.279701 -999.94897
-34.969799 -40.301998 -997.901
-33.168201 -41.430801 -992.02197
-33.797199 -38.929699 -1025.86
-35.2589 -38.781502 -1021.76
-32.708302 -40.8423 -990.242
-31.777 -41.087898 -988.76703
-27.301901 -42.565102 -983.91901
-23.947201 -43.804001 -980.216
-36.056599 -37.714401 -1020.17
-36.844799 -38.273998 -1014.19
-35.561298 -38.642502 -1000.31
-34.8829 -39.173698 -997.77002
-33.452599 -39.987202 -991.87701
-27.712999 -39.012001 -1037.42
-36.152599 -37.971699 -1003.41
-32.222401 -39.839199 -990.15302
-32.486 -37.337101 -1030.08
-33.198601 -37.603901 -1027.67
-34.236 -38.6493 -993.22198
-31.250401 -40.053501 -988.74701
-20.639299 -43.307899 -975.03302
-27.149799 -37.989899 -1037.3199
-34.366001 -36.678902 -1023.54
-34.588699 -36.698799 -1022.63
-36.614101 -36.4156 -1007.46
-35.145599 -38.149101 -997.14203
-29.1278 -40.2635 -984.89099
-33.646801 -36.152599 -1025.98
-36.456299 -36.6679 -1005.06
-36.281601 -36.428001 -1002.59
-34.2477 -37.4856 -992.98297
-32.118198 -39.1087 -988.66101
-36.347401 -34.857498 -1018.1
-29.6019 -38.7953 -985.15002
-36.7747 -34.877399 -1013.62
-32.1049 -37.562 -988.23798
-31.4037 -37.8116 -987.46198
-30.422199 -38.164398 -986.21399
-20.1136 -41.698799 -975.35602
-29.437 -35.553799 -1034.5601
-34.831402 -34.4049 -1024.78
-35.033001 -35.690399 -995.44897
-31.3363 -37.108501 -988.32703
-27.459499 -38.690399 -982.26801
-21.684299 -40.292702 -976.875
-32.8405 -36.1567 -989.37799
-29.921801 -37.312801 -985.87
-28.9217 -37.606899 -983.823
-37.162701 -33.781601 -1007.77
-35.045399 -34.708401 -994.047
-33.629601 -35.3139 -990.96002
-30.516399 -36.442699 -985.79498
-27.7075 -37.448002 -982.45099
-20.696699 -39.708099 -974.27197
-34.5541 -34.652 -991.93597
-33.226002 -34.890301 -990.495
-31.8557 -35.375301 -988.38
-28.412399 -36.6646 -982.67297
-25.978399 -37.744099 -979.77002
-24.4951 -38.001701 -978.33801
-36.197498 -32.945301 -1001.28
-35.955601 -33.1082 -999.61298
-34.9128 -33.488499 -995.052
-29.1579 -32.632 -1034.9301
-36.904301 -31.9662 -1004.51
-33.508099 -33.6133 -991.03003
-32.128201 -34.1077 -989.35797
-18.23 -39.070599 -972.69098
-31.563499 -31.4422 -1030.08
-36.820702 -31.365 -1002.54
-36.7733 -31.602301 -1001.94
-35.779999 -32.003502 -996.84003
-34.988998 -32.953999 -993.112
-33.805401 -33.118099 -991.55499
-29.110901 -34.872501 -983.61603
-27.431101 -35.4674 -981.10199
-24.214399 -37.233299 -977.70001
-35.270302 -31.834999 -996.18298
-30.944 -33.688099 -986.18597
-27.7932 -34.9146 -982.30603
-28.953199 -30.946501 -1034.66
-34.3475 -29.705099 -1024.96
-36.755699 -30.245899 -1011.68
-36.709301 -30.254999 -1005.84
-36.8755 -30.479601 -1001.74
-30.171301 -33.617599 -985.40198
-26.993601 -34.446899 -979.367
-33.904202 -29.384501 -1026.39
-36.841702 -30.048901 -1004.71
-36.287701 -30.444799 -999.19098
-35.9632 -30.529301 -996.80798
-24.1716 -35.325001 -976.38
-34.514999 -30.630501 -992.50299
-32.679298 -31.338499 -989.44598
-26.732401 -33.538898 -979.789
-36.577599 -29.150801 -1000.91
-35.082001 -29.8591 -992.82898
-33.6446 -30.1877 -991.75897
-33.293201 -30.5443 -989.70697
-31.644199 -31.5243 -986.59601
-35.3908 -29.0532 -995.086
-34.095501 -29.6441 -992.42102
-23.368099 -33.5378 -976.11298
-33.1292 -27.1754 -1026.96
-35.840599 -27.1616 -1018.16
-35.779099 -28.4699 -996.33398
-30.882999 -30.3897 -984.37799
-34.040401 -26.4802 -1024.27
-34.3353 -28.470301 -993.20398
-31.5483 -26.550501 -1030.72
-35.8335 -27.219801 -998.32397
-35.584202 -27.4886 -996.09302
-29.5639 -29.851101 -983.79102
-29.905899 -30.389099 -981.26501
-32.547699 -28.489 -987.68903
-22.9321 -31.6113 -975.28302
-33.328201 -25.0861 -1024.85
-35.749298 -24.909901 -1019.9
-37.0989 -25.2647 -1008.47
-34.808102 -26.819599 -993.82397
-29.0853 -29.109699 -980.521
-18.508301 -32.569199 -971.21002
-29.180901 -25.2833 -1033.5601
-31.807301 -24.0795 -1028.6801
-34.698898 -25.9578 -992.95001
-34.261501 -24.006701 -1022.73
-34.643101 -23.797701 -1021.18
-35.769699 -25.0755 -996.16699
-35.750999 -23.2209 -1017.01
-36.9869 -23.783501 -1002.27
-35.361801 -24.302601 -995.39801
-35.279099 -24.5186 -994.758
-34.118801 -25.337099 -991.12598
-24.207001 -28.9972 -975.91498
-20.587999 -29.882099 -972.45801
-34.666401 -24.182699 -992.64398
-33.283901 -24.6245 -989.224
-31.2059 -25.6588 -984.93103
-34.306 -22.3309 -1022.39
-35.506302 -22.337799 -1017.25
-36.356899 -22.7619 -1000.86
-31.5368 -24.758801 -985.54602
-31.6889 -22.003799 -1028.21
-37.056198 -21.552401 -1010.77
-35.008099 -22.9736 -995.86298
-35.310902 -23.128599 -995.185
-34.6199 -23.0812 -992.42499
-32.202599 -24.6005 -987.039
-30.503099 -25.1241 -983.78198
-26.6992 -22.096001 -1036.65
-31.435499 -21.5522 -1028.14
-37.254902 -21.096701 -1008.71
-35.277 -22.751499 -994.41901
-33.867199 -23.449499 -990.46002
-33.194199 -23.572001 -989.06201
-27.5784 -26.042601 -978.56897
-29.940599 -20.8811 -1032.38
-35.437 -22.488501 -995.03198
-33.801601 -22.798 -989.07397
-32.566799 -23.171801 -987.51099
-30.0007 -24.3001 -983.16302
-28.4583 -24.8503 -980.11401
-35.9263 -21.337099 -998.05103
-34.5839 -22.0548 -992.25201
-33.587002 -22.311001 -991.06897
-22.712 -26.288 -973.77197
-36.285198 -19.659 -1008.5
-35.638901 -20.267599 -996.55701
-35.369598 -20.9387 -994.755
-33.1166 -21.9597 -988.75299
-32.250801 -21.718399 -986.487
-30.0166 -23.1077 -982.90698
-25.0413 -24.7715 -976.12
-27.667999 -19.5333 -1034.75
-36.444199 -19.8419 -1002.09
-34.881302 -20.4172 -993.30499
-34.652802 -20.734501 -992.68701
-26.7173 -23.882099 -978.23401
-29.0219 -18.615299 -1032.24
-34.190399 -18.512699 -1021.6
-35.9851 -19.226999 -997.63202
-35.112701 -19.930099 -994.60498
-29.134001 -22.2558 -981.06799
-36.343102 -17.903099 -1008.11
-35.877399 -18.694599 -997.53198
-35.7183 -19.139601 -996.34497
-35.133499 -19.5746 -993.84399
-34.5933 -19.811399 -991.81702
-33.0172 -20.223301 -988.41199
-32.270599 -17.564301 -1024.92
-35.851501 -18.156601 -997.41998
-35.037201 -19.0109 -991.89801
-35.799 -17.7565 -996.73401
-35.2038 -18.372101 -992.61499
-32.624699 -19.386101 -987.97101
-30.4144 -20.3248 -982.84998
-29.144899 -21.1859 -980.85303
-33.155602 -16.473301 -1023.63
-36.880699 -16.3575 -1006.53
-33.3969 -18.567801 -989.50598
-33.550499 -18.533199 -988.26398
-30.2374 -19.830099 -982.79199
-26.695999 -21.1141 -977.70502
-23.1192 -22.3209 -973.81299
-18.119301 -23.570801 -970.33099
-36.0742 -17.041 -992.672
-34.882301 -17.577499 -990.92297
-31.9914 -18.628201 -986.36499
-26.606701 -20.6371 -977.15601
-23.9342 -21.549 -974.46503
-21.101101 -22.191799 -971.27698
-35.810699 -14.8518 -1014.68
-35.890701 -16.3291 -993.66302
-35.0956 -16.874901 -992.211
-32.155899 -17.703501 -986.45203
-17.987101 -22.9807 -968.90698
-35.400501 -14.7997 -1018.63
-34.970501 -16.270599 -991.46802
-33.351398 -16.9695 -989.22101
-33.0807 -16.756901 -988.40997
-27.3736 -19.6429 -977.979
-25.8953 -19.6017 -976.05499
-36.1954 -14.8362 -1001.65
-29.629999 -17.6427 -981.85901
-29.349199 -18.1392 -981.09998
-28.701799 -17.8242 -980.22302
-26.410801 -19.142 -977.35303
-22.208 -20.615499 -973.40302
-20.407 -21.159401 -970.88501
-26.3395 -14.6601 -1035.04
-35.410099 -13.4428 -1014.33
-35.5928 -15.2833 -991.99902
-27.889099 -18.636999 -978.63898
-17.498501 -21.509001 -968.26599
-30.760799 -13.0251 -1027.71
-30.9025 -12.8589 -1026.3
-34.5415 -15.0043 -990.46698
-30.6124 -16.49 -982.33698
-28.1644 -17.2195 -979.27502
-33.228802 -11.8724 -1023.42
-34.996498 -12.3738 -1017.98
-35.336498 -14.191 -991.17499
-35.979698 -12.7829 -1001.2
-35.771999 -12.9949 -995.36102
-33.419998 -14.2729 -989.44
-33.455601 -14.112 -988.58698
-31.6978 -14.6933 -985.10101
-27.9004 -16.424999 -978.57001
-26.4699 -17.5305 -976.60602
-25.227699 -17.345501 -975.33002
-34.408901 -13.5643 -989.24402
-30.8057 -14.9181 -983.60199
-26.6115 -16.067699 -977.23602
-26.3071 -11.5802 -1033.8
-35.575802 -11.8293 -999.19702
-32.060501 -13.8048 -985.604
-23.3139 -11.5976 -1036.16
-28.6693 -10.9274 -1029.5699
-36.148701 -10.4764 -1007.56
-34.816502 -12.203 -991.138
-32.865398 -12.6914 -988.28998
-35.235802 -10.1277 -1010.29
-30.262699 -13.1513 -982.427
-27.702499 -14.368 -978.242
-24.5298 -15.843 -974.30402
-22.416 -16.0177 -972.284
-34.1465 -11.317 -989.51501
-32.881699 -11.6749 -987.99597
-30.7731 -12.7237 -982.44202
-25.370001 -14.6628 -975.73999
-20.6791 -16.204399 -970.79303
-17.836201 -17.0807 -968.37799
-33.778198 -8.9135399 -1020.79
-29.6241 -12.6064 -981.53601
-27.652901 -13.3694 -978.07098
-22.7152 -15.0057 -972.53198
-35.540901 -9.2398996 -1001.57
-31.3946 -10.9515 -984.21997
-30.4888 -11.754 -982.30499
-28.287399 -12.1968 -979.789
-25.628401 -13.3058 -975.64099
-35.1716 -9.0192003 -997.30701
-33.287399 -9.8261099 -989.64801
-26.1159 -12.7876 -975.836
-15.9897 -16.061501 -966.672
-34.551102 -8.5548401 -996.81097
-34.628799 -8.1789598 -995.21503
-33.062199 -9.5427904 -988.88501
-32.5336 -9.5346403 -987.51099
-28.0228 -11.9932 -978.87701
-24.945601 -12.4449 -975.49902
-21.7166 -13.68 -971.547
-17.508699 -15.0206 -968.04999
-32.7677 -6.7808499 -1021.68
-35.141399 -7.8197899 -997.63397
-34.461498 -7.8846698 -994.51599
-31.561899 -9.3403902 -985.29901
-30.8566 -9.8918505 -983.43597
-30.199301 -10.1614 -982.086
-25.666901 -11.8128 -975.70099
-24.5422 -12.5771 -973.53003
-30.754299 -6.0296602 -1026.22
-35.131199 -6.7415199 -1002.77
-34.822701 -7.39569 -995.64203
-29.219101 -9.9680204 -981.14099
-28.8235 -10.1303 -979.797
-35.020199 -6.6058302 -997.95502
-33.187 -7.3681302 -989.75598
-27.857201 -10.5096 -978.49402
-28.8375 -4.7188101 -1028.83
-32.363701 -7.2146301 -987.62097
-29.806 -8.1652498 -981.98102
-26.925699 -10.2243 -976.70502
-34.8241 -5.34027 -998.25299
-32.521999 -7.0921302 -986.40302
-30.496599 -4.3201599 -1024.36
-34.419102 -3.90714 -1013
-34.942501 -5.2694702 -995.13599
-32.778 -6.1408401 -988.74902
-32.318802 -6.73068 -987.508
-30.756201 -7.1714501 -984.02899
-26.7876 -8.7915297 -976.84399
-24.5187 -9.6584196 -972.92999
-33.580101 -3.4754 -1013.03
-34.0453 -5.2721601 -991.289
-30.989 -6.37466 -984.55499
-28.937599 -7.4309101 -980.76703
-27.9433 -7.7251301 -979.52698
-28.0602 -2.8836999 -1027.74
-29.5079 -3.1059599 -1025.47
-30.949499 -5.8129601 -984.42603
-24.3577 -8.3364601 -973.823
-34.6656 -3.55444 -1000.21
-32.932499 -4.63553 -989.74597
-29.7383 -6.2831402 -982.29999
-23.7192 -8.2790499 -973.31097
-27.3018 -2.2408099 -1028.91
-33.893398 -3.3703899 -994.64899
-31.631201 -4.39502 -986.23297
-28.810801 -5.80832 -981.01501
-26.7285 -6.6560402 -977.36902
-24.106899 -7.5697899 -972.78003
-33.927299 -1.29843 -1008.15
-33.98 -2.7786901 -996.42499
-33.977798 -2.4293201 -995.70203
-33.3792 -3.2148099 -992.05701
-32.708099 -3.6192601 -989.49597
-32.4874 -3.3169301 -988.69897
-30.874001 -4.4830298 -983.63098
-29.5846 -4.9986 -981.32397
-25.404301 -6.5617399 -974.74701
-31.310801 -3.34918 -985.96997
-28.3237 -5.2033401 -979.61902
-26.0109 -6.0164499 -975.96301
-34.380299 -1.08798 -999.58002
-33.273701 -2.09723 -991.75098
-32.869301 -2.0592699 -990.44397
-31.5438 -2.8701799 -987.255
-30.673901 -3.4639299 -984.55402
-30.2808 -3.28824 -983.78302
-29.1259 -4.0318899 -980.88397
-28.3197 -3.9556601 -980.12201
-25.2094 -5.5278001 -974.61401
-18.374001 -7.34021 -967.82703
-17.608 -7.96768 -967.53198
-29.8113 -0.090301499 -1022.16
-32.8214 -1.92188 -989.32202
-31.245899 -2.3578501 -985.69397
-29.812901 -3.2381899 -982.52301
-25.540701 -5.0978699 -975.66998
-19.1957 -7.33673 -969.18298
-28.901199 0.866638 -1024.34
-29.254801 1.13354 -1022.76
-31.2085 1.00986 -1018.44
-32.207901 -1.38141 -989.61298
-31.429899 -1.875 -987.83197
-30.3647 -2.54984 -984.30902
-30.1684 -2.2979701 -983.49902
-28.491899 -3.22171 -980.19098
-33.716702 0.036804199 -996.28003
-29.2208 -2.49142 -982.034
-25.6313 -3.95016 -975.32501
-21.017 -5.3400898 -970.18402
-26.4084 1.49289 -1027.86
-33.370499 1.5968 -1007.4
-29.9522 -1.28799 -983.20697
-27.273399 -2.95767 -976.742
-25.8664 -3.2262599 -975.56403
-19.471901 -5.1489301 -968.32501
-28.2346 2.4138501 -1024.3199
-28.5247 2.09464 -1022.99
-33.519798 1.9044501 -1006.21
-33.381302 0.98806798 -994.15198
-28.333099 -1.65439 -980.47601
-25.7906 -2.7425499 -974.94598
-32.9664 1.18704 -993.49298
-31.9713 0.59085101 -989.07397
-26.042999 -1.66742 -976.40601
-23.1367 -3.3350799 -972.203
-31.2195 3.13431 -1016.41
-33.403301 3.0362201 -1004.23
-33.139599 2.1126399 -994.48798
-29.617901 0.28408799 -982.76801
-29.0963 -0.27734399 -981.39301
-28.4856 -0.690552 -980.74902
-26.8382 -1.16553 -977.534
-25.6731 -1.60803 -975.82599
-22.2703 -2.7731299 -971.41199
-27.5308 -0.37466401 -979.07397
-15.3732 -4.0832801 -966.49799
-28.015301 4.1543899 -1022.04
-29.676901 4.3219299 -1019.1
-32.3634 2.5550201 -991.21997
-30.2239 1.65771 -984.58502
-29.6642 1.29535 -983.98297
-28.941299 0.821899 -982.05701
-22.173401 -1.6622601 -971.703
-27.3859 0.73651099 -978.33002
-26.429501 0.31918299 -975.96802
-28.292999 5.5504198 -1021.59
-33.4109 4.4507799 -998.71198
-33.079102 4.26511 -995.85602
-32.8116 3.6380601 -994.08301
-32.529202 3.7319601 -992.79797
-26.4944 0.924133 -977.40002
-23.2414 -0.26947001 -972.73798
-31.8169 5.4121699 -1011.73
-33.221802 4.5274 -994.59497
-32.961498 4.17767 -990.98199
-21.822201 -0.24472 -970.12903
-29.3901 6.33533 -1018.13
-29.9387 3.29614 -984.79797
-25.5748 1.59738 -976.31702
-22.048599 0.37179601 -971.448
-23.618601 6.8035302 -1028.58
-25.4422 6.5976601 -1025.98
-25.9091 6.7955298 -1025.13
-31.6551 6.6790199 -1012.44
-33.2565 6.2571998 -998.15997
-31.533501 4.6338201 -989.32599
-31.1919 4.6680598 -987.89697
-29.0672 3.4632001 -982.57397
-27.1847 2.80176 -979.51398
-26.3881 2.22137 -977.54999
-27.212799 7.2598 -1022.54
-32.512299 7.2094102 -1006.04
-30.4757 5.2600698 -987.05402
-22.4709 1.59027 -972.09998
-20.6213 1.00955 -970.19897
-17.184 0.33657801 -967.55298
-25.0839 7.65378 -1025.28
-30.641199 8.2804604 -1015.22
-32.867599 7.15131 -1001.47
-31.8561 6.0134902 -990.48499
-23.943399 2.63852 -974.05902
-20.4965 1.50104 -970.15198
-19.555099 0.83099401 -968.521
-32.7178 7.5676599 -1003.17
-28.377001 4.89432 -981.13599
-25.5208 3.4305999 -976.42603
-20.2136 1.9631701 -969.70801
-27.5026 5.3583999 -980.50403
-25.2094 4.5892601 -976.758
-30.586901 9.4763803 -1015.28
-32.232101 7.8275499 -995.30701
-31.597 8.5271902 -992.646
-26.784901 5.99893 -979.15503
-26.249901 6.0707698 -978.711
-21.233299 4.01401 -971.67297
-20.9095 3.8736899 -970.66803
-20.777901 3.9481499 -969.70599
-29.568701 10.453 -1015.53
-32.074501 10.0823 -1006.34
-30.5158 8.0269804 -988.25
-22.5035 4.9077101 -972.62097
-25.6905 11.2847 -1022.34
-30.450399 10.911 -1012.5
-31.021999 8.9442101 -990.59998
-27.703899 7.6266499 -980.53003
-26.268801 6.8132601 -977.69202
-23.4902 6.2244301 -974.41302
-20.506901 4.823 -970.66302
-19.280399 10.7465 -1031.3
-27.517401 11.442 -1018.16
-29.6758 11.7734 -1014.15
-31.559 11.5887 -1008.21
-26.403601 7.6262798 -978.14899
-23.9286 6.55759 -975.17499
-17.5735 4.3713999 -967.56
-26.6782 12.0885 -1020.21
-31.3752 10.7178 -998.06
-26.8207 8.41751 -980.33301
-24.910999 8.0938101 -977.203
-24.867201 7.0741901 -975.83301
-23.2925 6.7089801 -974.242
-19.236799 5.4032001 -969.414
-14.2946 3.9329801 -965.13599
-31.0961 10.7137 -992.59497
-23.4163 7.2902198 -974.013
-28.947599 12.9539 -1015.33
-31.240801 12.2769 -999.30701
-30.7176 11.6304 -996
-30.327 10.9556 -990.62799
-21.838699 7.4208398 -972.97101
-20.378099 6.7239699 -971.414
-19.842899 6.7401099 -970.18103
-25.3435 13.4042 -1020.25
-26.8367 13.3531 -1018.89
-31.030399 13.0993 -1004.33
-26.6674 9.4894695 -979.95502
-30.173599 12.6482 -990.76001
-26.742901 10.2792 -980.45203
-22.2549 8.6835899 -973.23798
-18.835899 7.2122502 -969.00299
-21.008101 14.1134 -1027.33
-26.875601 14.691 -1017.54
-27.4711 14.1781 -1017.25
-30.6555 13.9384 -998.26202
-23.625799 9.3967896 -975.05499
-20.769699 8.76266 -971.59497
-18.699699 7.7361498 -968.78003
-16.3902 6.9136 -966.677
-14.0933 6.7165198 -965.41998
-24.023399 14.9372 -1021.47
-29.319799 15.1034 -1010.66
-29.309299 12.8154 -988.98999
-24.799101 10.9055 -977.06897
-23.743 10.3329 -975.18799
-19.712999 8.9842196 -970.81201
-28.8463 15.5455 -1012.42
-28.981199 13.2125 -987.97498
-26.824301 12.0702 -980.95099
-26.448099 11.8641 -979.54401
-25.8864 16.3297 -1018.01
-29.473801 16.2316 -1008.72
-30.7328 15.3287 -999.88501
-30.351601 14.8293 -995.638
-26.0207 12.3235 -980.51599
-25.0317 11.8427 -977.27698
-22.743299 11.042 -974.75
-21.359699 11.0692 -972.62799
-17.773701 9.9160204 -968.76099
-15.8728 9.7618399 -966.44501
-23.938601 17.172899 -1021.04
-28.722601 14.7627 -988.39001
-24.771999 12.8774 -977.98798
-22.065201 12.1043 -974.07397
-26.0833 13.8918 -979.38599
-20.765301 12.3505 -972.099
-18.4814 11.2133 -969.83099
-26.9191 17.873699 -1013.21
-26.15 14.527 -980.80701
-23.8552 13.4868 -976.95502
-22.2533 13.033 -974.15302
-15.2621 10.7981 -966.85699
-21.020599 18.3468 -1023.28
-25.431601 18.515301 -1015.81
-28.888201 18.249701 -1004.81
-29.6749 17.6598 -998.21997
-23.355301 14.2324 -975.81201
-19.3255 12.6103 -970.90997
-12.6345 10.984 -964.24902
-29.206699 17.250099 -995.42902
-21.834 14.0876 -975.03699
-21.954 14.0658 -974.08301
-21.408899 13.4774 -973.51801
-16.0214 11.9214 -968.05298
-25.640699 15.7761 -980.78003
-21.7987 14.5644 -973.59601
-22.939699 19.947701 -1020.18
-28.4564 19.1975 -995.40399
-23.486099 15.7529 -976.97198
-22.015699 15.1673 -974.71503
-23.524401 20.946301 -1018.91
-27.857401 20.495001 -1005.63
-28.786301 19.263201 -998.91199
-28.6654 19.0772 -996.60699
-28.1733 18.868 -990.63898
-27.9835 18.3937 -988.16901
-27.4266 18.553101 -986.22101
-26.242701 17.3995 -981.50897
-24.989901 17.0026 -979.76801
-21.009199 15.3326 -973.00702
-20.3367 14.807 -971.36401
-18.1245 14.1703 -969.66199
-25.057199 21.206699 -1014.56
-28.3799 20.2136 -1002.55
-28.503401 19.443001 -994.13202
-27.1779 18.3668 -983.83002
-24.1115 16.817699 -978.38501
-23.0627 16.6147 -976.36298
-22.4105 16.3514 -975.02301
-22.294901 16.047899 -973.69397
-20.601 15.6326 -972.08801
-19.324499 15.6078 -971.15198
-28.253099 20.305099 -999.06403
-27.0895 19.1388 -984.83099
-26.374901 18.860201 -982.86499
-25.929399 18.336 -981.58099
-24.7607 17.753599 -978.85199
-19.1632 15.7472 -970.37903
-22.8766 22.2792 -1018.48
-25.716999 22.2145 -1011.8
-28.159201 21.319 -998.75403
-20.913099 16.8223 -972.72198
-17.7885 15.7698 -968.70001
-28.1838 21.3785 -993.099
-27.503099 20.279699 -986.76001
-25.6418 19.3067 -981.68103
-24.883699 18.537201 -979.39899
-20.4361 17.1903 -971.74597
-14.6818 15.4301 -965.01898
-20.5721 23.005899 -1021.44
-22.9655 23.0119 -1016.35
-24.3927 19.3055 -978.67603
-22.030899 18.512501 -974.20398
-21.094101 17.9438 -972.46002
-19.715401 17.4902 -970.83099
-19.463301 17.3962 -970.41699
-15.0618 16.01 -965.89697
-22.9694 23.6171 -1016.34
-28.462 22.4459 -995.15198
-27.787201 21.7964 -991.16602
-27.584801 21.720301 -987.55798
-27.508301 21.2922 -985.961
-20.855499 18.0634 -971.68402
-18.532801 17.723801 -969.07397
-16.0457 16.962299 -967.23401
-26.8554 23.523199 -1005.18
-27.481199 23.5259 -1001.06
-27.9846 22.8445 -994.49298
-26.3016 21.583799 -982.38898
-25.663601 21.2335 -981.79797
-23.0007 19.5667 -974.74902
-19.258499 18.438601 -970.26001
-16.948 17.468201 -968.13202
-25.452499 21.2565 -979.21002
-21.5989 19.735399 -973.01801
-20.8015 19.535999 -972.23401
-20.2325 18.6539 -970.70099
-18.811199 19.006701 -969.58698
-23.0707 25.001801 -1013.82
-26.774401 22.459499 -984.89099
-25.9762 22.0457 -982.29901
-23.7451 20.9025 -976.73602
-21.5609 20.445101 -973.625
-17.056801 18.5553 -967.71698
-25.014299 25.490499 -1009.88
-26.9023 25.4494 -1004.3
-20.0315 20.589199 -971.802
-17.451 19.4958 -968.59198
-16.4202 19.1716 -967.43799
-10.2631 18.0331 -962.237
-21.9657 25.964399 -1016.35
-24.164499 26.072399 -1011.63
-26.3741 25.865801 -1006.25
-23.624901 22.1805 -976.85999
-22.924601 26.523899 -1013.54
-25.3153 26.4098 -1009.13
-26.174 23.8717 -984.42297
-20.3081 21.4814 -972.09302
-19.717199 21.278299 -971.26599
-17.720301 20.615601 -968.86798
-12.5789 18.5424 -963.73401
-21.560801 27.022499 -1016.61
-26.1663 27.113701 -1007.73
-22.503599 23.088301 -975.97198
-21.334999 22.378901 -973.72601
-19.1558 21.609501 -970.388
-23.863199 27.450701 -1012.29
-27.4687 26.7883 -994.72601
-27.205601 25.7444 -989.64301
-22.7847 23.909599 -976.45599
-21.4524 28.3078 -1016.42
-27.802799 27.4354 -997.59302
-27.8002 27.198601 -993.98297
-27.3211 26.5923 -992.42102
-19.9932 22.9937 -971.96899
-18.9639 22.6436 -970.755
-19.595301 28.6336 -1018.5
-25.693501 25.7556 -983.79102
-21.115999 23.960501 -973.58899
-19.801001 23.504601 -971.92603
-23.5497 25.2623 -978.25598
-19.0972 23.830601 -971.05402
-18.004801 23.476299 -969.87402
-15.3676 22.629101 -966.76599
-23.874599 29.939501 -1011.82
-26.5109 27.7654 -988.10901
-21.717199 25.328199 -974.81598
-20.9806 25.163799 -974.41901
-18.7106 24.2589 -970.60303
-17.7838 23.9576 -969.401
-16.222099 23.483801 -967.888
-27.124001 29.407499 -996.28497
-25.082199 27.737499 -983.11902
-23.623501 26.6194 -977.91803
-22.389999 26.644199 -976.24902
-21.5165 26.3097 -974.27502
-19.2628 25.274799 -970.85498
-26.101601 30.1483 -996.51001
-26.606199 29.821501 -994.89502
-22.8962 27.200701 -977.58002
-10.0444 23.254999 -962.82202
-20.6304 32.1311 -1015.79
-21.2922 32.057701 -1014.89
-24.519199 31.4126 -1007.84
-19.287201 26.794001 -972.09601
-25.8242 31.6378 -997.724
-26.250601 30.674 -994.06598
-24.565701 28.940001 -982.026
-23.001801 28.559099 -978.28802
-20.879101 27.7281 -974.664
-18.0096 26.651699 -969.98901
-15.9275 25.7878 -967.66901
-21.4249 32.842899 -1013.23
-24.060101 29.778 -981.758
-15.998 26.3708 -967.42102
-9.7913799 24.794901 -962.70001
-21.670401 33.355499 -1012.31
-24.9196 33.015301 -1003.24
-25.7083 31.9128 -994.81702
-21.7293 29.233101 -976.09302
-21.3076 28.9205 -975.42798
-18.547899 27.9946 -970.68298
-17.4111 27.246599 -969.10498
-21.1528 33.747002 -1013.39
-25.2995 33.0933 -995.565
-25.688801 31.642799 -988.32397
-24.268801 31.233801 -982.62903
-12.546 26.6584 -964.98798
-22.473101 30.948299 -979.26599
-21.556499 30.454901 -976.41302
-18.475 29.109501 -971.49402
-20.475 34.842701 -1012.64
-21.5884 34.9874 -1011.09
-25.105801 34.030201 -1000.76
-25.739201 34.129799 -997.49298
-23.7136 32.167599 -982.315
-20.437 30.3985 -974.43402
-18.916901 29.815399 -972.31
-19.7474 35.421001 -1013.77
-24.414101 33.0746 -984.66302
-17.875999 29.8577 -969.93903
-16.8459 29.357401 -969.20502
-25.1646 34.8241 -995.58899
-24.598101 34.599098 -993.953
-24.8762 34.230598 -992.33899
-23.499399 33.393299 -982.59998
-20.807699 31.790899 -975.96899
-18.6077 31.205799 -972.15002
-21.0443 36.821098 -1010.47
-24.8379 35.594898 -998.20099
-24.6495 34.944302 -990.922
-24.791599 34.651901 -989.78998
-24.1845 34.747898 -986.68402
-22.003799 32.639801 -977.48401
-20.2272 31.9823 -975.15698
-17.8522 31.0562 -970.90698
-16.798 30.399799 -968.79199
-11.1567 28.999599 -964.08099
-21.4135 36.535599 -1009.16
-24.051901 35.9739 -999.09998
-24.313801 35.158798 -992.05499
-20.7029 32.787601 -975.59601
-19.766701 32.260799 -973.85303
-20.6451 33.485298 -976.15802
-15.2706 31.2423 -968.02802
-13.1462 31.063601 -966.39801
-22.078899 34.288898 -979.55402
-21.7034 33.993599 -978.94299
-18.853001 33.0928 -973.37799
-20.6346 38.303001 -1009.24
-24.156401 36.5466 -987.328
-22.288601 35.2192 -980.62799
-18.7861 33.609402 -973.33698
-13.9626 32.774601 -967.547
-9.1930504 30.6145 -962.94397
-23.259501 38.0457 -999.04602
-23.952499 37.324902 -990.14301
-17.030701 33.570702 -970.763
-15.0782 32.983799 -968.323
-20.180901 39.061699 -1009.3
-22.797199 39.0154 -1000.8
-23.643999 37.531502 -991.28497
-21.7812 39.727798 -1004.16
-23.217501 39.054298 -996.53601
-23.255501 37.6273 -985.99298
-23.160299 37.703899 -984.39301
-18.9436 40.228199 -1009.64
-19.592199 40.2397 -1008.62
-23.663099 38.805302 -990.53497
-20.883301 40.883701 -1005.31
-18.363501 41.656502 -1010.33
-18.195499 42.329498 -1009.87
3.3703599 35.679298 -977.18402
3.5202601 36.533199 -976.961
4.1878099 37.5168 -976.87402
21.0385 36.888802 -989.81
21.9007 38.699402 -997.94702
-3.7304699 46.450401 -1017.51
8.0027504 44.360802 -1012.28
15.2012 42.577301 -1004.88
1.10883 41.596001 -973.54401
14.9805 42.983299 -1003.56
2.9897499 42.122799 -976.995
15.1091 44.105801 -1003.36
2.2335801 43.445999 -975.26703
0.72790498 43.882702 -970.58398
15.657 46.8158 -1003.64
15.3896 47.912701 -1002.04
4.46771 46.411701 -978.88098
3.2448101 46.851101 -975.62903
3.47491 46.710701 -974.85199
1.58368 46.203602 -972.03198
15.4783 49.572399 -1004.39
4.3779302 47.291 -978.46301
3.02667 47.909698 -973.47302
2.2161901 48.030201 -973.33099
16.558001 50.3699 -1005.62
14.1481 49.677898 -1001.78
14.8625 50.317001 -1000.37
3.6653399 48.288601 -974.83398
15.6757 51.166302 -1003.98
14.2435 51.0746 -1000.29
3.9263301 49.2948 -977.078
15.0717 52.430901 -1002.61
13.5538 51.645302 -997.57501
6.7534199 50.721298 -981.12598
2.1267099 50.511101 -971.55298
2.0112901 50.6642 -970.854
16.2668 53.467999 -1003.54
15.7338 54.074902 -1002.21
6.8186002 51.917599 -981.60901
1.54877 51.121201 -970.013
14.0488 54.4492 -1000.22
13.6731 53.894901 -998.922
6.5794101 51.8633 -980.362
5.45612 52.5378 -977.48297
4.2974901 52.559799 -976.09399
4.7231398 52.1283 -975.45203
17.5672 54.854401 -1006.69
13.398 54.3461 -997.06799
18.898199 55.601299 -1008.78
6.5521898 53.310699 -979.07898
4.2924199 53.245602 -975.48401
1.9279799 52.679001 -970.89398
17.0734 55.3382 -1003.79
6.7855201 53.894199 -979.69
3.5464499 53.383598 -972.71198
14.2141 55.987099 -997.20001
13.1976 55.4072 -993.04602
13.0584 55.243698 -991.71198
16.9457 56.8549 -1004.1
14.4072 56.662998 -997.58801
10.4702 55.447102 -986.92102
10.3572 55.361099 -986.10699
9.7196703 55.144501 -984.41803
8.7108202 54.848701 -981.85797
16.3188 57.306599 -1002.47
8.97717 55.6917 -982.57001
4.19525 55.3606 -974.53699
17.1826 58.7635 -1003.6
16.928301 58.667999 -1003.19
13.1865 57.9445 -993.60797
11.4177 57.5639 -988.46997
9.2969398 56.892101 -984.49402
8.77917 57.0975 -982.46802
4.8148799 56.3116 -975.65997
15.3515 58.392799 -998.60303
9.62994 57.358398 -984.51703
9.18573 57.335899 -983.03302
5.0504198 57.325802 -975.84198
15.5579 58.5774 -997.50201
13.5798 58.995899 -995.10699
17.038 59.904598 -1001.27
13.0843 58.813301 -990.31598
10.4373 58.797901 -985.86902
9.8762197 58.550201 -984.32599
7.79498 58.1436 -979.36798
13.2706 60.077 -993.63397
13.9689 60.566101 -992.88702
13.2308 60.2733 -991.86902
11.715 60.061401 -988.953
10.2011 59.860298 -985.72803
8.9214497 59.347401 -982.04901
16.9219 60.902401 -1000.58
15.0003 60.7729 -996.41101
12.8105 60.4692 -989.42297
11.6368 60.3522 -987.93701
15.3585 61.9109 -997.97498
10.2473 60.9394 -986.11603
10.0308 60.4156 -983.16101
9.1970196 60.278198 -981.216
15.0015 62.605499 -995.10999
15.3243 61.8881 -994.45502
12.9828 61.4515 -991.065
17.3325 63.041401 -1000.13
15.1046 62.858299 -997.02197
14.8712 63.430599 -996.008
9.8133497 61.549999 -982.36401
13.9772 62.840599 -990.72601
11.4208 62.266899 -984.92401
15.2348 63.2299 -992.086
14.8931 64.019501 -991.55402
0 0 0
