# .PCD v0.7 - Point Cloud Data file format
VERSION 0.7
FIELDS x y z
SIZE 4 4 4
TYPE F F F
COUNT 1 1 1
WIDTH 192
HEIGHT 1
VIEWPOINT 0 0 0 1 0 0 0
POINTS 192
DATA ascii
-3.4993899 -78.732803 -984.77002
1.20288 -79.101196 -983.45599
-13.6193 -75.865601 -988.83502
-18.597601 -76.014999 -993.49902
8.6066303 -76.368896 -981.479
-4.6826801 -72.004997 -980.93701
0.46301299 -71.2584 -979.078
-29.136999 -68.862 -1008.27
-14.8547 -67.839203 -984.07599
-29.8612 -67.869301 -1008.14
-30.4879 -63.4828 -1004.18
11.2667 -61.253502 -972.53802
2.26825 -60.111698 -972.328
4.78583 -60.4799 -972.25299
16.318001 -60.938999 -972.52399
-7.0439501 -59.243698 -975.28802
0.55828899 -59.559399 -973.18201
1.4470201 -59.416599 -972.948
4.8807402 -59.808498 -972.68903
14.392 -60.479301 -973.138
4.87994 -59.257702 -972.64801
-33.882801 -53.757099 -1009.58
-32.0994 -53.452301 -998.25702
-34.5434 -49.667999 -1004.06
-33.453701 -48.798901 -1000.09
-34.280102 -48.173199 -1003.38
-33.349602 -47.673199 -999.76501
9.9282799 -48.638 -967.724
-7 -45.991699 -969.44598
-34.9025 -45.102901 -1003.51
-32.411301 -44.123299 -993.37903
-20.9272 -44.497799 -977.17297
8.3052998 -45.825199 -966.98499
-2.5812399 -42.777401 -967.14099
-33.0382 -41.517502 -995.83698
-2.8429 -41.472698 -967.255
-34.148899 -40.067299 -997.01501
-34.226898 -39.8214 -998.87402
17.3603 -39.940498 -965.07202
-35.4977 -37.854599 -1003.62
-35.027 -38.0406 -1000.63
16.496 -39.0243 -964.92401
17.339701 -38.670502 -964.53101
-35.852402 -36.131001 -1004.64
17.358801 -37.819199 -964.60199
-34.8162 -35.331699 -996.05902
-36.511398 -34.534199 -1009.01
-36.1404 -34.423302 -1000.31
-34.5527 -34.249901 -996.21997
8.4252901 -35.561798 -963.61298
-5.5769701 -33.878899 -966.01801
-36.168301 -32.328701 -1004.05
-36.279598 -32.676498 -1000.99
-34.588299 -32.449299 -994.505
-35.534 -31.9403 -998.83398
9.27911 -32.580898 -962.60101
-36.2729 -28.287901 -1003.11
-36.107201 -27.868 -999.26801
-35.7267 -27.727699 -998.073
-4.0420499 -28.192699 -964.40802
1.32477 -26.308701 -962.17798
-36.112499 -23.400801 -1001.46
-26.108801 -22.906799 -977.375
-36.262901 -21.5487 -1004.19
-35.698101 -21.374399 -1003.7
-35.586201 -20.757999 -999.79498
16.931499 -22.9893 -960.99103
-35.142899 -18.5215 -995.15802
-33.839298 -17.0077 -991.328
-10.3058 -16.929001 -965.32202
-35.915501 -15.0703 -1004.76
5.7338901 -16.5674 -959.26398
-35.273602 -14.3566 -993.44598
2.77759 -15.909 -959.86499
21.169901 -17.234699 -960.789
21.7939 -15.7812 -960.92297
-35.408401 -12.7081 -1000.71
-35.500099 -12.0922 -1001.08
-33.241001 -11.9729 -990.14203
-11.9331 -12.452 -964.20001
5.8921499 -13.4401 -959.13397
-35.166801 -10.8181 -1004.72
-10.9305 -11.0681 -963.901
8.2216797 -12.2427 -958.43201
-35.008701 -7.8439999 -1001.72
6.9823599 -9.1247597 -958.51202
10.7709 -9.4382601 -958.49799
-18.3787 -7.4876399 -969.005
-34.031601 -5.9786801 -998.10101
-2.7749 -7.82723 -960.36298
-6.6680298 -6.8469701 -961.64203
6.0560298 -7.25524 -958.63898
-33.769001 -4.2375498 -995.92999
7.7026401 -6.5973701 -958.58899
-18.686199 -3.95664 -969.71997
-3.89252 -3.5183301 -960.86499
7.7530499 -4.06955 -958.45801
4.7872901 -3.4417 -959.03601
8.8201904 -3.43571 -958.24597
-3.5185499 -2.59641 -961.375
-32.777599 0.232658 -994.26599
10.1448 -2.71665 -958.16803
11.6227 -1.98983 -958.302
-32.3936 0.869919 -993.72198
4.2571402 -1.42996 -958.91901
9.0910597 -1.47559 -957.71301
-8.6644297 -0.29923201 -962.776
-33.010899 2.28807 -998.75702
12.2186 -0.72172499 -958.32599
-33.132702 2.7430401 -1004.23
-1.6539299 2.19857 -960.08502
-32.843399 4.9268699 -1002.22
-17.973301 3.46436 -969
12.6791 2.2216301 -957.72803
-17.560801 4.3857002 -969.23901
8.7500601 5.2091999 -958.28101
-31.1299 9.1518297 -995.09198
-29.424 9.1379604 -987.245
-30.3104 9.7072401 -991.74701
9.9288902 7.68401 -958.27399
-30.072201 10.7047 -991.62903
8.1665602 9.6831303 -957.33899
-22.803101 12.9977 -975.43298
7.6733999 10.987 -957.77197
-29.780199 14.2801 -995.40601
-7.8445401 12.3167 -963.32397
-28.314501 16.031601 -989.487
9.2717896 13.3911 -956.88898
10.4318 13.8525 -957.03497
0.91894501 14.5901 -958.26202
9.7606802 15.3049 -956.73401
5.31494 16.277599 -957.63
-27.437 20.3001 -991.091
-26.997101 20.099701 -990.72101
-26.434999 19.5793 -985.52301
-7.9186401 18.0513 -962.44397
10.5519 17.4067 -956.68201
-27.650299 20.6238 -993.995
-26.7236 20.313299 -987.11902
-26.4916 20.7876 -986.51599
-25.977699 20.4158 -984.46198
-0.83654797 18.1992 -959.00702
5.4561801 17.776699 -957.724
-27.119101 21.757299 -989.672
-2.6716299 19.214899 -958.80902
9.27283 18.750999 -957.14502
-26.065201 21.5114 -984.08002
12.6036 19.1336 -956.93903
-27.3384 22.045 -992.01099
8.1702299 19.6677 -957.39697
10.8012 20.024401 -957.06598
-26.994499 23.932199 -992.35901
-12.9778 21.8473 -966.086
10.9297 20.566 -956.97699
12.3161 20.619499 -957.005
-26.7852 24.183001 -988.06799
10.19 21.814501 -956.815
-0.53973401 22.8269 -959.90601
3.48438 22.6264 -958.03998
8.1138296 22.3978 -957.15503
10.7289 23.379499 -956.71002
-27.0109 27.357 -997.91101
-25.861 27.5783 -991.52399
10.9774 24.751801 -957.16101
11.965 24.741199 -957.01001
-25.4025 28.7306 -987.88599
6.7617798 26.061199 -957.48499
-24.849899 32.8354 -992.35901
-24.629299 32.4473 -991.74597
1.61035 30.503 -960.96002
11.5119 31.393999 -966.89099
-24.1126 34.721001 -991.159
-23.444799 35.057301 -989.02197
38.614101 33.041599 -978.48602
38.929001 33.448799 -980.79797
-22.774799 36.6208 -986.52698
-23.0875 37.483002 -988.48102
-22.514999 38.366901 -987.43103
-18.4951 37.6661 -983.03198
5.4872999 36.830502 -976.59698
-11.2474 39.496799 -992.70801
5.38727 40.1227 -971.89301
2.7185099 44.186699 -1013.28
-0.310974 45.6189 -1018.74
3.7256501 45.575401 -965.19501
3.5905199 48.904301 -971.91498
6.8781099 48.532299 -969.40002
3.3227501 50.5191 -971.03003
4.2343102 54.173302 -971.888
10.9972 57.756001 -975.93799
10.9977 60.258202 -978.508
0 0 0
