# .PCD v0.7 - Point Cloud Data file format
VERSION 0.7
FIELDS x y z
SIZE 4 4 4
TYPE F F F
COUNT 1 1 1
WIDTH 1584
HEIGHT 1
VIEWPOINT 0 0 0 1 0 0 0
POINTS 1584
DATA ascii
89.822197 -163.026 -1023.51
102.245 -166.806 -1007.76
101.069 -165.689 -1008.61
98.798103 -164.10201 -1009.72
17.208 -132.298 -1133.84
100.148 -162.61099 -1010.42
100.648 -162.75999 -1010.09
101.429 -163.075 -1008.96
101.908 -163.257 -1008.39
16.785801 -131.396 -1134.9
17.4783 -131.744 -1133.97
99.116302 -161.54601 -1012.66
103.004 -162.976 -1008.19
17.6056 -130.519 -1134.5601
100.13 -160.49001 -1011.78
101.965 -161.17599 -1011.15
103.494 -161.78101 -1009.98
100.566 -159.99001 -1013.79
101.77 -160.43201 -1012.09
102.532 -160.69901 -1011.17
105.338 -161.714 -1009.13
107.893 -162.13 -1008.98
18.6565 -128.681 -1132.5699
16.027399 -126.985 -1136.4301
16.440599 -127.237 -1135.99
18.1507 -127.349 -1132.54
16.514299 -125.807 -1135.8199
18.879999 -126.99 -1132.41
113.67 -161.592 -1010.6
16.143999 -125.035 -1134.97
18.6168 -126.217 -1132.8
15.6793 -124.14 -1137.2
17.131701 -124.774 -1134.34
18.372801 -125.416 -1132.2
26.1577 -128.55099 -1120.61
113.492 -159.42101 -1015.22
115.516 -160.222 -1013.44
17.6765 -123.735 -1132.79
18.48 -123.342 -1131.79
26.246799 -126.607 -1121.08
16.183399 -121.676 -1135.15
18.233601 -121.909 -1132.14
19.062901 -122.274 -1132.41
118.732 -158.548 -1020.15
17.0366 -120.723 -1134.86
26.213301 -124.352 -1120.89
16.2377 -119.744 -1136.54
17.720501 -120.625 -1133.67
17.893101 -120.7 -1132.95
18.3552 -120.867 -1132.76
19.3894 -120.472 -1132.88
26.819901 -123.219 -1120.96
128.07401 -159.96001 -1020.1
18.0453 -119.216 -1134.54
18.8643 -119.507 -1133.71
19.1448 -119.681 -1133.1
18.406401 -118.682 -1134.72
19.0357 -118.962 -1133.55
20.108601 -119.332 -1133.1
17.4597 -117.546 -1136.85
17.7115 -117.695 -1136.3101
18.550501 -116.659 -1137.47
20.2957 -117.303 -1134.9
18.944201 -116.034 -1139.49
21.4632 -116.369 -1136.3
26.788799 -113.647 -1146.47
2.97614 -101.571 -1091.77
3.8015101 -101.853 -1091.01
4.5039101 -100.75 -1091.79
3.0798299 -97.639503 -1091.45
4.48206 -96.898003 -1091.3199
4.30725 -96.293098 -1090.75
4.6831102 -95.656303 -1091.09
4.71558 -95.111397 -1092
4.6151099 -94.500702 -1092.52
4.6364102 -93.834602 -1091.3
5.5907001 -92.881798 -1091.22
5.08606 -91.283501 -1091.92
4.76794 -90.481003 -1091.95
5.4484901 -90.164597 -1091.88
6.1984301 -89.218002 -1091.63
5.2411499 -88.238297 -1091.61
7.7481098 -83.866699 -1093
7.8597398 -83.377403 -1090.79
-24.137501 -74.402496 -998.42499
-23.340099 -73.430901 -996.60797
-20.92 -74.326202 -993.75702
-19.2885 -74.887497 -992.24902
-17.0418 -75.668602 -990.49701
-20.9044 -73.712196 -993.08197
-16.278 -75.364799 -989.56201
-15.4219 -75.625198 -988.88
-21.0942 -73.062599 -992.79602
-20.253099 -73.358299 -992.04901
-15.9093 -74.869202 -988.55499
-20.458 -72.731003 -992.23999
-19.855301 -72.9478 -991.44397
-17.3834 -73.791901 -989.28302
-15.4458 -74.441299 -987.99103
-6.8920298 -77.372704 -984.42102
-29.5651 -69.336899 -1006.85
-25.870701 -70.202499 -997.672
-24.4897 -70.699898 -995.96698
-20.5742 -72.117104 -991.53101
-14.9476 -74.033096 -987.05603
-25.809 -69.697701 -996.97198
-23.2066 -70.663399 -993.61401
-18.9252 -72.165901 -989.43201
-12.634 -74.306503 -985.70001
-31.247 -66.999702 -1009.97
-22.2463 -70.480598 -992.19202
-21.419201 -70.728798 -991.40302
-20.6206 -71.031998 -990.66901
-17.6129 -72.0728 -988.17798
-13.5933 -73.443901 -985.69202
-31.6199 -66.312897 -1011.51
-26.3501 -68.480499 -996.979
-24.477699 -69.164703 -994.41498
-22.044901 -70.0242 -991.56299
-17.365601 -71.656097 -987.59497
-14.6413 -72.595901 -986.06201
-26.323 -67.9599 -996.297
-23.3223 -69.047798 -992.49902
-17.5958 -71.016701 -987.34302
-22.4571 -68.761299 -991.06598
-19.6462 -69.761002 -988.46198
-18.6005 -70.126297 -987.79303
-17.757799 -70.409599 -987.099
-21.790199 -68.485603 -990.07397
-20.720501 -68.853401 -988.94202
-26.734699 -66.112099 -995.60901
-11.1835 -71.493301 -982.758
-32.902599 -62.874298 -1014.54
-28.105301 -65.000198 -997.15302
-24.156799 -66.470596 -991.53497
-23.2626 -66.780602 -990.763
-20.0077 -67.922401 -987.76202
-21.225901 -66.941803 -988.21002
-20.325399 -67.268501 -987.49402
-19.2008 -67.616898 -986.409
-24.837 -65.0961 -991.45502
-24.052099 -65.369698 -990.66901
-22.622801 -65.872498 -989.08502
-18.709 -67.227097 -985.862
-22.782801 -65.291199 -988.875
-16.613001 -67.444199 -983.98798
-14.3656 -68.185402 -982.81097
-11.6154 -69.092697 -981.41498
-27.8113 -62.9646 -994.91199
-25.4708 -63.830898 -991.44397
-24.778299 -64.086998 -990.62903
-23.2535 -64.606903 -989.07001
-22.027201 -65.0495 -987.93103
-20.4568 -65.564102 -986.45898
-19.5156 -65.924599 -985.771
-11.2704 -68.682503 -980.92401
-30.4473 -61.431999 -999.41199
-29.2437 -61.921501 -997.03802
-26.585501 -62.9175 -992.51801
-24.8116 -63.547699 -990.42999
-23.0068 -64.186096 -988.47498
-20.879801 -64.921501 -986.633
-19.202801 -65.516998 -985.22198
-15.7421 -66.699898 -982.96198
-14.337 -67.1493 -982.03101
-13.3109 -67.474503 -981.45697
-25.974199 -62.604599 -991.47699
-23.6287 -63.447498 -988.64502
-17.9909 -65.394897 -983.99103
-13.8948 -66.758904 -981.53601
-33.762199 -58.836899 -1011.02
-30.3834 -60.390598 -998.53101
-27.9065 -61.328602 -993.86798
-24.072399 -62.716499 -988.81799
-22.943399 -63.133202 -987.67499
-20.0273 -64.135002 -985.10797
-18.972799 -64.506302 -984.47302
-11.8215 -66.8909 -980.20697
-33.021599 -58.702801 -1007.36
-29.6367 -59.586899 -996.74799
-26.891199 -61.151798 -991.901
-22.334801 -62.760899 -986.68701
-11.3711 -66.464996 -979.72803
-28.2094 -60.1068 -993.45599
-27.6418 -60.3125 -992.578
-25.785801 -60.9776 -989.995
-21.126499 -62.630798 -985.38098
-15.5208 -64.492203 -981.40997
-11.1234 -65.951897 -979.216
-33.413502 -57.434399 -1005.15
-22.9034 -61.441399 -986.633
-21.3437 -61.967999 -985.15698
-20.2279 -62.3438 -984.07898
-17.710501 -63.192101 -982.42102
-16.360001 -63.6595 -981.47498
-13.636 -64.542099 -980.01703
-11.1326 -65.384499 -978.992
-30.752899 -57.451302 -997.02399
-26.900299 -59.451199 -990.88
-25.338699 -60.008099 -988.75897
-23.982901 -60.4599 -987.16803
-21.0219 -61.501598 -984.59302
-17.4258 -62.728001 -981.875
-12.0124 -64.516602 -978.995
-29.229601 -58.020199 -994.224
-17.7227 -62.047699 -981.62598
-14.9832 -62.9771 -980.15601
-12.7226 -63.728001 -979.03998
-12.1524 -63.9133 -978.78198
-33.0662 -56.495602 -1003.69
-29.470501 -57.415798 -994.01001
-27.6092 -58.095798 -991.37402
-22.884199 -59.805801 -985.698
-20.882799 -60.450001 -983.84302
-20.073999 -60.7701 -983.14398
-19.662201 -60.858601 -982.78998
-18.2626 -61.347599 -981.78601
-14.6238 -62.5765 -979.67603
0 0 0
-6.3584599 -65.259697 -976.55103
-32.369202 -55.728001 -1000.68
-28.9687 -57.0825 -992.935
-25.4562 -58.359699 -987.76099
-23.415001 -59.092499 -985.86603
-21.8337 -59.641602 -984.37201
-17.326 -61.148102 -980.95599
-14.2205 -62.169701 -979.172
-13.7148 -62.344501 -978.89099
-34.8587 -54.001499 -1010.56
-33.655602 -54.690102 -1003.07
-33.2397 -54.891899 -1001.46
-31.360901 -55.648602 -996.92999
-30.080099 -56.157501 -994.59802
-29.9736 -56.175201 -994.09198
-29.4037 -56.4188 -993.19
-27.388 -57.151699 -990.09399
-27.1856 -57.221199 -989.63098
-25.021999 -57.997299 -987.19
-20.772301 -59.466599 -983.08099
-17.463301 -60.588299 -980.75702
-15.5273 -61.2281 -979.51801
-34.3843 -53.830898 -1006.23
-33.825401 -54.599701 -1004.76
-31.131701 -55.206299 -995.74597
-29.421 -55.887798 -992.96503
-20.9263 -58.9081 -982.82898
-20.135099 -59.156502 -982.125
-16.6779 -60.327 -979.87903
-15.6812 -60.6418 -979.27698
-30.669701 -54.870098 -994.03003
-29.882799 -55.157101 -992.63599
-22.525801 -57.8148 -983.62598
-19.7966 -58.763901 -981.54303
-16.080601 -59.953201 -978.96301
-30.4095 -53.8358 -993.22998
-22.928101 -57.111099 -983.83502
-22.076099 -57.424301 -983.10602
-19.621599 -58.259899 -980.97302
-18.0812 -58.777 -980.008
-15.8088 -59.530998 -978.42102
-10.1508 -61.336399 -976.14801
-35.345402 -51.621101 -1010.34
-31.1248 -53.589699 -994.633
-28.4776 -54.576599 -990.13702
-26.156099 -55.410702 -987.20898
-24.9363 -55.8591 -986.03699
-22.6474 -56.633301 -983.31598
-21.847401 -56.3195 -982.51501
-20.3867 -57.396 -981.54901
-19.068399 -57.850498 -980.51801
-17.7003 -58.293301 -979.52698
-16.729799 -58.058701 -978.78497
-33.2957 -52.1577 -999.36499
-33.042702 -51.696602 -998.23798
-31.593901 -52.2411 -996.88898
-29.288 -53.096699 -992.22803
-25.8608 -54.899101 -986.71198
-24.0091 -55.582199 -984.76898
-19.599199 -56.475601 -980.664
-15.1683 -57.978199 -977.77301
-14.7728 -58.102699 -977.44897
-14.1649 -58.3162 -977.172
-10.6722 -60.050999 -975.63501
-33.4454 -51.454498 -1000.83
-31.7703 -52.181198 -994.88
-30.5063 -52.6553 -994.51703
-27.961201 -53.5714 -990.01599
-25.7458 -53.844002 -986.008
-21.754801 -55.206299 -982.25098
-35.891499 -49.2365 -1009.4
-34.342899 -50.4879 -1004.48
-33.975101 -50.671398 -1003.41
-33.402 -50.373501 -998.52899
-31.7311 -51.582199 -996.78198
-29.1812 -52.584499 -990.633
-28.358999 -52.895802 -989.81201
-26.8859 -52.918098 -987.50098
-25.309299 -53.996101 -985.617
-24.5525 -54.266602 -984.84601
-23.355 -54.6716 -983.71698
-21.292101 -55.366699 -981.896
-17.822001 -56.487801 -979.18103
-13.5629 -57.378101 -976.66699
-12.3691 -58.309799 -976.25299
-11.8712 -58.481899 -975.96301
-8.8743896 -58.9146 -974.60303
-34.078602 -49.587399 -1000.96
-32.515301 -50.789902 -996.51398
-30.279301 -51.6646 -992.26898
-29.074301 -51.6217 -990.34802
-27.695999 -52.643501 -988.34198
-26.344801 -53.092999 -986.65503
-25.3923 -53.448898 -985.45898
-24.644199 -53.696602 -984.68103
-22.6742 -54.4161 -982.82501
-19.748301 -55.3522 -980.31598
-13.0865 -57.025501 -976.21802
-9.3319101 -58.202 -974.73499
-34.909901 -48.546398 -1008.78
-32.5009 -50.284599 -996.35999
-28.8493 -51.674099 -989.90698
-26.9781 -52.370899 -987.34302
-20.6306 -54.577999 -980.86102
-19.785299 -54.839199 -980.15399
-19.3908 -54.963501 -979.81799
-18.2973 -55.328899 -979.177
-16.215401 -56.031601 -977.95001
-3.1705301 -59.605499 -972.79498
-35.856899 -48.666901 -1010.52
-32.856098 -49.643299 -997.20599
-17.0275 -55.243301 -978.05402
-36.0919 -47.249199 -1016.02
-33.055199 -49.024899 -997.039
-32.1861 -49.3647 -995.04901
-29.9286 -50.2523 -991.39001
-28.6605 -50.699501 -989.151
-26.299601 -51.572701 -985.76801
-23.7141 -52.4557 -983.03497
-22.299999 -52.9445 -981.54498
-20.8936 -53.4062 -980.49597
-17.7048 -54.488602 -978.18799
-16.066299 -55.046001 -977.27899
-12.7186 -56.1063 -975.59802
-35.117401 -46.951401 -1004.15
-29.3953 -49.342701 -989.67999
-26.2651 -51.030499 -985.59399
-25.271099 -50.843399 -984.21899
-23.3274 -52.040298 -982.5
-21.4653 -52.687199 -980.672
-19.1639 -53.4702 -978.97601
-17.221901 -54.077 -977.69098
-8.03967 -56.9795 -973.453
-36.042099 -45.985802 -1018.47
-36.0187 -46.063702 -1016.49
-32.442501 -47.588501 -995.56897
-30.0884 -48.514 -990.88098
-27.180401 -50.1698 -986.68903
-26.383101 -50.427601 -985.41699
-25.1105 -50.874298 -983.784
-22.777201 -51.664501 -981.56799
-17.8799 -53.321899 -977.82397
-15.714 -54.042599 -976.62
-11.78 -55.299702 -974.69598
-10.503 -55.6866 -974.20502
-34.819698 -46.002201 -1001.58
-34.3293 -47.347801 -1000.29
-34.125099 -46.8923 -998.52002
-33.7197 -47.079201 -997.51099
-32.143799 -47.733299 -994.08698
-22.375401 -50.6875 -980.86102
-11.311 -54.8913 -974.25
-30.658501 -47.1828 -990.94397
-24.9111 -49.832401 -983.00201
-16.323299 -52.153999 -975.90302
-15.7132 -52.348598 -975.60199
-35.397301 -45.107601 -1005.36
-31.097099 -47.035198 -991.40698
-28.682501 -47.916 -987.328
-26.4417 -48.719101 -984.51001
-24.118999 -49.563801 -982.112
-21.878201 -50.314999 -979.841
-19.523399 -50.521801 -977.56097
-18.707701 -51.396198 -977.45398
-36.347099 -43.982498 -1009.9
-32.852798 -45.257999 -994.91302
-32.468899 -45.931301 -993.05603
-30.534401 -46.721298 -989.74298
-29.212601 -46.7094 -987.84399
-24.868 -48.724701 -982.76398
-22.3188 -49.619598 -980.03998
-21.510401 -49.883499 -979.31403
-20.701 -50.154301 -978.61499
-17.4723 -50.6884 -976.16199
-33.350498 -45.060299 -995.36298
-26.3542 -47.681499 -984.22601
-19.5618 -49.485699 -977.297
-17.0373 -50.825401 -975.85901
-16.041599 -50.630402 -975.12598
-15.0003 -51.4673 -974.67297
-14.4974 -51.1231 -974.24799
-13.3348 -51.9944 -973.83502
-5.06494 -54.5877 -971.34802
-36.385201 -42.893501 -1010.86
-34.921101 -43.859901 -999.22302
-34.4608 -44.053101 -998.76898
-32.350498 -44.992298 -992.62701
-30.266399 -45.8032 -988.50702
-28.5107 -46.4244 -986.38702
-27.716101 -46.718498 -985.672
-27.163 -46.884499 -984.86298
-23.8804 -48.006802 -980.79797
-18.679001 -49.258999 -976.49902
-17.621799 -50.097 -976.01099
-16.551201 -50.4865 -975.39899
-36.341599 -42.764 -1013.49
-35.692902 -42.886002 -1005.3
-33.042198 -44.154301 -994.612
-32.420101 -44.450901 -991.94598
-30.6572 -45.115398 -989.78497
-29.4578 -45.015598 -987.41602
-28.4631 -45.929798 -986.27301
-26.2922 -46.6576 -983.505
-25.959 -46.780201 -983.09698
-23.1357 -47.798 -979.888
-21.785801 -48.245499 -978.85602
-14.9434 -49.9636 -974.26898
-13.5061 -50.9147 -973.53699
-9.9646597 -51.505299 -971.78699
-35.264999 -42.622601 -1001.17
-33.632801 -43.395 -995.435
-26.6861 -46.013699 -983.763
-23.7922 -47.039501 -980.54901
-23.049801 -47.2729 -979.76202
-19.2728 -47.966202 -976.51501
-32.519699 -43.341801 -991.65997
-31.5385 -43.706299 -990.40302
-30.133101 -44.243999 -988.14099
-28.7749 -44.199902 -985.841
-27.8207 -45.060501 -985.245
-22.7686 -46.253101 -979.13202
-21.960199 -47.108398 -978.54901
-20.143 -47.709499 -977.17297
-16.831301 -48.782001 -974.94202
-33.636002 -42.326801 -993.896
-31.665199 -43.100101 -990.23199
-30.9084 -42.817001 -989.17902
-26.5543 -44.945301 -983.49103
-25.230499 -45.4338 -981.90698
-23.4778 -46.042599 -979.87299
-22.5068 -46.378601 -978.75098
-21.594999 -46.697102 -978.06299
-21.0791 -46.8461 -977.70398
-17.725599 -47.9445 -975.40802
-16.4081 -48.358898 -974.47101
-14.7864 -48.876202 -973.57001
-29.5952 -42.748699 -986.80103
-29.045099 -42.9618 -985.98602
-26.1611 -44.541 -982.50403
-22.5464 -45.2286 -978.89801
-20.3463 -46.489101 -976.83301
-15.4684 -48.0826 -973.69202
-13.2032 -48.246399 -972.453
-10.7548 -49.577 -971.55701
-10.4391 -49.077801 -971.11603
-34.516201 -40.824501 -995.76898
-33.288601 -40.831402 -992.37201
-30.3685 -42.457401 -987.64099
-28.633101 -43.083302 -985.16199
-25.5194 -44.162899 -981.98102
-25.0893 -44.304501 -981.15802
-24.357401 -44.588799 -980.414
-23.701099 -44.219799 -979.495
-20.4172 -45.915401 -976.64301
-18.815201 -46.437401 -975.73499
-17.9445 -46.712601 -975.09003
-7.8544302 -49.314098 -970.02399
-36.694199 -38.7365 -1012.94
-36.013901 -39.4958 -1001.98
-35.106201 -39.366798 -999.75598
-34.731602 -39.557899 -997.57397
-33.563801 -40.6959 -993.33801
-26.558001 -43.285099 -982.57703
-25.6049 -43.0378 -981.69202
-22.158199 -44.809601 -977.89099
-21.700001 -44.965099 -977.01501
-19.970301 -45.5196 -976.12299
-18.4569 -46.001202 -975.23401
-17.692101 -46.251099 -974.58698
-12.7446 -47.780899 -972.01398
-11.5845 -48.1703 -971.46899
-35.973598 -37.905899 -1013.42
-33.842201 -39.567699 -993.04102
-33.243801 -39.779999 -992.14697
-15.6717 -46.312099 -973.21899
-13.5828 -46.937698 -972.078
-11.6358 -47.5895 -971.33197
-9.8875704 -48.151901 -970.53497
-6.55194 -49.165001 -969.41302
-5.8007202 -49.403301 -969.21002
-35.41 -38.801998 -997.91101
-33.067699 -39.319599 -991.64001
-31.1215 -40.582199 -988.09497
-29.695101 -40.569698 -986.30298
-29.0235 -41.3377 -985.612
-27.555401 -41.842201 -983.53802
-25.0159 -42.220901 -980.638
-24.009399 -43.0881 -979.617
-16.6271 -44.997101 -973.58801
-11.7836 -47.030701 -971.17297
-8.7180204 -47.4771 -969.76501
-36.456799 -37.701099 -1003.27
-34.440201 -38.7929 -994.388
-32.2444 -39.6441 -989.771
-30.2838 -40.402401 -987.04797
-28.9788 -40.306198 -985.37
-28.081499 -40.647301 -984.13702
-26.6173 -41.136398 -982.03699
-25.5585 -42.018299 -981.00098
-23.749701 -42.654598 -979.099
-21.5987 -42.840599 -977.17102
-13.8983 -45.858398 -972.09998
-7.3850698 -47.8578 -969.32202
-34.7915 -37.5247 -996.79498
-33.191799 -38.757599 -991.99799
-31.900499 -39.2379 -989.16101
-31.507401 -38.911301 -988.008
-25.6166 -41.498699 -980.86499
-24.885 -41.241402 -979.97198
-23.3785 -42.275002 -978.60199
-22.1362 -42.671299 -977.52002
-16.715 -44.450802 -973.42798
-14.9003 -45.0126 -972.20099
-12.4816 -45.2631 -970.97699
-11.9003 -45.986 -970.86401
-36.650799 -36.341499 -1008.29
-34.053501 -37.331799 -992.14899
-28.8365 -39.8405 -984.81598
-27.604 -40.269199 -983.14398
-21.720301 -42.2672 -977.02899
-6.2814298 -46.5868 -968.50201
-2.7495699 -48.201599 -968.18903
-32.150101 -37.564301 -989.12799
-29.4438 -39.059299 -985.99701
-24.216101 -40.889301 -979.06
-23.226601 -41.262299 -978.35498
-19.875299 -42.338699 -975.48401
-14.4564 -44.064301 -971.59601
-11.4743 -45.002701 -970.29602
-8.9663696 -45.785702 -969.27502
-37.283501 -34.7285 -1013
-37.220901 -35.0466 -1007.85
-35.658401 -36.0737 -997.43597
-30.2509 -38.2104 -986.69202
-29.6017 -37.872601 -985.70801
-25.027 -40.075298 -979.67297
-23.540199 -40.586601 -978.159
-23.0411 -40.756802 -977.81403
-22.195999 -41.0317 -977.10498
-18.7372 -42.195202 -973.72998
-15.4111 -42.657501 -971.90399
-13.1431 -43.942501 -970.92499
-3.03003 -46.973099 -967.80798
-36.789902 -35.0121 -1000.49
-36.224098 -34.733101 -998.177
-34.8881 -35.273201 -996.33099
-32.511902 -36.2897 -989.84399
-31.8904 -37.066898 -988.23102
-27.6549 -38.602699 -982.70898
-26.708401 -38.945801 -981.49799
-25.7684 -38.698898 -980.16199
-24.680401 -39.621899 -979.14001
-22.6576 -40.321999 -977.323
-21.1548 -40.800201 -975.87799
-19.667299 -41.277599 -974.875
-14.4844 -42.943199 -971.29498
-12.726 -43.509499 -970.495
-36.7458 -33.897301 -1000.22
-35.855 -34.2477 -998.64697
-27.590099 -38.068901 -982.13202
-25.5396 -38.759899 -979.75897
-22.141399 -39.919601 -976.83099
-21.616899 -40.1059 -976.07001
-19.807301 -40.132702 -974.58398
-18.816999 -40.462502 -973.84802
-17.4879 -40.858601 -972.90302
-16.9618 -41.0228 -972.60797
-13.456 -42.730598 -970.58197
-5.47192 -45.1045 -967.95801
-35.3069 -34.5355 -997.151
-31.6119 -35.444801 -988.90399
-29.2337 -36.9165 -984.56702
-27.4135 -37.546001 -981.59601
-23.0352 -39.069599 -977.39697
-21.2246 -39.1269 -975.45001
-13.9085 -41.489601 -970.60699
-36.8242 -33.303001 -1000.12
-36.2393 -33.530701 -999.633
-30.4653 -35.912498 -986.15302
-29.2656 -35.843102 -984.30402
-23.757 -37.7617 -977.46503
-22.724501 -38.620399 -976.89001
-20.587299 -39.326302 -975.12799
-20.243999 -39.439602 -974.784
-19.441 -39.188702 -973.96301
-17.5051 -40.2887 -972.76099
-15.4023 -40.462601 -971.44702
-7.1286001 -43.4818 -968.00201
-37.222801 -32.551601 -1001.75
-35.490799 -33.331699 -998.51398
-33.892799 -33.586399 -991.62
-31.722401 -34.9114 -988.29401
-30.5184 -35.356899 -986.02197
-29.8652 -35.629299 -985.18103
-27.6926 -36.416 -982.21198
-22.503901 -38.178299 -976.383
-19.116899 -38.7757 -973.44702
-18.999599 -38.8312 -972.98199
-16.4902 -40.114101 -972.06403
-4.2651401 -43.284199 -966.98401
-37.442299 -31.184601 -1014.8
-35.713001 -32.658699 -999.59003
-35.172401 -32.983101 -995.341
-31.5385 -33.944801 -988.09601
-30.6548 -34.304901 -985.77399
-29.182699 -35.347 -984.19397
-22.749599 -37.080101 -976.52502
-22.577101 -37.6404 -976.24902
-21.9683 -37.323799 -975.79797
-21.6234 -37.947201 -975.55402
-21.2917 -37.5564 -975.073
-20.913799 -38.191799 -974.83002
-19.8694 -38.497601 -974.17798
-16.1187 -39.207298 -971.5
-34.460899 -32.858398 -992.95599
-31.2094 -34.081001 -987.151
-28.3937 -34.620098 -982.65302
-27.243401 -35.007801 -980.99402
-26.7589 -35.1945 -980.62903
-23.358101 -36.8801 -976.854
-20.253099 -37.900799 -974.41498
-19.059299 -38.306599 -973.32501
-16.7131 -38.493301 -971.66302
-15.5818 -39.382702 -971.21899
-2.33093 -42.840698 -966.06403
-37.509102 -30.4454 -1009.27
-37.117001 -30.6567 -1008.07
-37.260101 -30.7883 -1004.98
-32.9464 -32.318199 -990.133
-30.6364 -33.798 -985.65399
-25.9419 -35.4911 -979.39801
-25.642099 -35.578999 -979.00403
-24.361799 -35.460999 -977.75403
-23.0522 -36.487099 -976.76898
-21.191401 -36.507198 -974.83398
-14.4053 -39.220001 -970.52002
-10.0376 -39.959 -968.19299
-7.9367099 -40.628201 -967.534
-5.9813199 -41.180401 -966.89099
-37.069199 -29.6409 -1015.3
-28.0375 -34.179798 -981.64801
-27.0959 -33.968498 -980.78003
-24.8515 -34.754601 -977.98401
-23.780001 -35.6418 -976.97198
-21.9575 -35.7062 -975.42499
-19.2141 -37.1381 -973.06799
-15.154 -37.865601 -970.49799
-12.9299 -39.1077 -969.51801
-2.4435401 -42.229698 -965.87
-37.533401 -29.416901 -1007.24
-34.983601 -31.009899 -993.59998
-34.653301 -31.158501 -992.57202
-32.773102 -31.886299 -989.55103
-29.9179 -32.951 -984.08099
-29.067101 -33.268101 -983.25
-26.755699 -34.102001 -979.927
-26.280199 -34.249699 -979.52002
-25.6415 -34.491001 -978.75598
-24.1761 -34.4174 -977.08899
-23.0604 -34.798 -975.98602
-21.354601 -35.335499 -974.55103
-20.004801 -36.3419 -973.66199
-19.617901 -36.457401 -973.315
-17.253099 -37.2281 -971.68402
-15.0071 -37.347198 -970.39398
-6.72296 -40.433601 -966.95599
-36.571602 -29.5868 -999.96899
-33.078701 -30.5564 -991.245
-30.6618 -31.540001 -985.62
-29.925699 -32.419498 -983.909
-25.9998 -33.801399 -979.00897
-25.0772 -33.559601 -978.14398
-16.5319 -36.876499 -971.29303
-14.5239 -37.509899 -970.099
-12.9813 -37.995201 -969.24597
-11.7551 -38.323399 -968.70203
-35.3638 -28.554501 -1022.6
-31.9599 -30.486401 -987.789
-29.889601 -31.8759 -983.17902
-29.323999 -32.083302 -982.82001
-28.524099 -32.329399 -982.11102
-26.920799 -32.9063 -980.10699
-21.557301 -34.717602 -974.81299
-21.1861 -34.2887 -974.33301
-19.1696 -35.480499 -972.71399
-18.534901 -35.702702 -971.901
-14.0983 -36.501499 -969.53003
-35.2939 -29.090099 -995.95697
-26.9993 -32.332298 -979.95801
-22.250401 -33.397701 -974.88397
-15.7656 -35.443501 -970.27002
-9.4121103 -37.9221 -967.40802
-5.4945102 -39.110199 -966.10602
-36.357899 -27.9568 -1000.17
-35.7859 -27.7449 -998.43903
-35.725899 -28.3314 -997.40399
-33.954201 -28.619801 -991.81799
-33.088402 -29.491899 -990.01801
-32.4608 -29.753401 -988.09003
-30.3029 -30.624901 -983.89001
-27.692301 -31.536699 -980.63397
-25.902399 -31.6633 -978.552
-25.708599 -32.217201 -978.23499
-20.538601 -33.4203 -973.37
-14.6627 -35.7808 -969.68402
-8.8947096 -37.0084 -966.90802
-8.1900597 -37.224701 -966.68298
-35.353298 -27.478701 -995.664
-33.118401 -28.9846 -988.87701
-31.9084 -29.4767 -987.55701
-30.6959 -29.919901 -985.27002
-27.639 -31.0427 -980.53003
-27.0944 -31.2274 -979.69598
-25.190399 -31.8839 -977.76898
-23.7145 -31.8736 -976.14099
-23.096901 -32.5937 -975.90802
-21.007601 -32.754799 -973.59399
-19.167299 -33.882401 -972.36298
-12.5319 -35.930698 -968.43701
-12.0203 -36.078499 -968.14899
-6.92487 -37.057098 -966.12299
-5.9878502 -37.8568 -966.073
-1.15002 -38.796299 -964.05603
-37.280899 -26.546499 -1001.56
-34.0103 -28.0452 -993.22803
-34.0103 -28.076 -991.70599
-32.078602 -28.367701 -987.29401
-29.131599 -29.580099 -981.09601
-26.7939 -30.852301 -979.19501
-21.611401 -32.5639 -974.323
-19.208799 -33.319099 -972.23102
-16.821501 -33.591999 -970.52802
-15.8828 -33.855099 -969.90198
-5.2385302 -37.0569 -965.09998
-4.4762602 -37.3041 -964.47498
-31.718399 -28.5077 -986.37402
-31.077 -28.225401 -985.84698
-25.3792 -30.802099 -977.51703
-24.2034 -30.673401 -976.26703
-23.187799 -31.014999 -975.56897
-19.191999 -32.828899 -972.13599
-14.851 -33.645901 -969.18402
-8.3454599 -35.597801 -966.29498
-5.8520498 -36.8438 -965.51599
-36.1035 -24.241501 -1017.2
-36.706799 -25.866899 -997.49701
-33.935501 -26.5158 -991.39801
-33.676601 -27.2068 -989.98999
-32.880001 -27.511 -989.091
-31.8221 -27.3743 -987.09198
-26.3251 -29.933701 -978.59198
-21.289101 -31.0569 -973.61499
-20.9778 -31.724199 -973.37299
-19.193001 -31.763901 -971.88898
-13.6782 -33.451599 -968.50403
-11.9776 -33.9706 -967.67297
-6.3329501 -35.619499 -965.51703
-5.88025 -35.7686 -965.245
-37.446201 -24.3715 -1009.87
-37.013401 -24.566 -1008.69
-37.3293 -24.766899 -1004.2
-32.814602 -26.4254 -989.36798
-28.8326 -28.6542 -979.98401
-24.212299 -30.1194 -976.151
-19.998501 -30.960899 -972.46301
-14.1694 -32.7845 -968.68201
-13.0154 -33.125401 -968.12
-11.4242 -33.621601 -967.28699
-37.225201 -23.298599 -1009.64
-35.707699 -24.396799 -999.60999
-36.2654 -24.860201 -997.89301
-31.8514 -26.8333 -986.49902
-22.072399 -29.730101 -974.10602
-20.6716 -30.746599 -972.77399
-19.186199 -31.2271 -971.76898
-18.0896 -31.5882 -970.61401
-17.400101 -31.7964 -970.41199
-32.878399 -25.8505 -989.23798
-31.8211 -26.27 -986.37598
-30.8783 -26.6614 -984.54498
-24.470301 -28.943399 -976.31799
-23.057699 -29.4095 -974.79401
-14.7049 -31.4561 -968.71899
-10.3569 -32.783401 -966.49799
-9.1322002 -33.6814 -966.11798
-37.1357 -22.137501 -1010.2
-36.361401 -22.831499 -1003.45
-35.265202 -24.1493 -996.72699
-35.0499 -23.7286 -995.01599
-34.757301 -23.908001 -993.448
-33.4715 -24.9702 -991.638
-32.7444 -24.756001 -989.01599
-30.9858 -25.452101 -985.27899
-29.665001 -26.537001 -983.18903
-29.215099 -26.1329 -982.20801
-28.2946 -27.134199 -979.34003
-19.976299 -29.8347 -972.23199
-19.493999 -29.4293 -971.77802
-16.882799 -30.2272 -969.78601
-7.9653902 -32.900002 -965.388
-37.270802 -21.951099 -1012.06
-36.3536 -22.369301 -1002.11
-32.130798 -25.0124 -987.59003
-30.503901 -25.7038 -983.91101
-25.127501 -27.5835 -976.84399
-22.1835 -28.039499 -973.742
-20.5679 -29.0928 -972.43201
-13.7615 -31.223801 -968.01398
-11.4944 -31.302601 -966.78003
-7.17767 -32.5709 -965.06598
-5.5843501 -33.610699 -964.823
-36.325298 -22.5721 -998.62299
-34.057899 -23.126801 -992.263
-33.827301 -23.7708 -990.83099
-32.645802 -24.271099 -988.92102
-31.7568 -24.6306 -986.54797
-30.364201 -24.688801 -983.70001
-29.8412 -25.384899 -982.914
-29.187901 -25.600201 -982.08502
-27.016399 -25.937901 -977.94299
-25.684601 -26.8423 -977.10303
-24.5425 -26.7339 -975.85498
-23.3556 -27.623501 -974.83197
-22.566099 -27.8993 -974.09802
-21.390301 -27.752001 -972.91101
-20.1056 -28.174 -971.88202
-19.237499 -28.9706 -971.284
-16.3727 -29.8561 -969.37
-15.3331 -29.6371 -968.65399
-10.3962 -31.128201 -966.13397
-9.1151104 -31.5086 -965.63898
-4.3605299 -32.894798 -963.58502
-37.052898 -21.3892 -1005.56
-28.908701 -25.2057 -981.091
-27.7304 -25.118999 -978.84198
-13.8218 -29.6019 -967.66803
-12.1105 -30.6057 -966.93201
-7.7943101 -31.378799 -965.07202
-7.1757798 -31.5457 -964.84302
-36.7771 -21.253401 -1000.66
-36.313702 -21.623699 -996.67401
-33.764301 -22.743 -991.151
-31.5947 -23.172199 -985.78198
-27.2903 -24.7325 -978.33002
-25.6539 -25.8302 -976.90399
-25.187901 -25.976601 -976.54498
-23.125601 -26.156 -974.14697
-22.696199 -26.814301 -973.88397
-19.119301 -27.465799 -970.55798
-18.665501 -28.127199 -970.24402
-16.8344 -28.194901 -969.37
-16.295 -28.865299 -969.164
-12.601 -29.458099 -967.00598
-35.691799 -20.685499 -998.862
-33.525501 -21.7836 -990.96301
-32.724899 -22.7057 -988.61298
-31.5623 -23.165501 -986.25897
-30.304701 -23.6555 -983.51801
-28.949301 -24.1642 -981.341
-28.309601 -24.375401 -980.48401
-26.476601 -25.075199 -977.47198
-25.880501 -24.740499 -977.10699
-24.847 -25.080299 -975.94
-22.332899 -26.4321 -973.40997
-19.9554 -27.184299 -971.685
-14.2209 -28.443701 -967.75702
-12.0554 -29.0861 -966.61499
-36.599899 -19.344999 -1013.78
-36.318298 -19.549601 -1004.65
-36.345402 -20.5299 -997.66199
-34.325001 -21.4305 -993.49902
-31.7211 -22.598801 -985.64502
-30.8759 -22.3561 -984.66901
-23.606001 -24.943501 -974.70398
-1.20313 -32.2005 -962.70898
-33.416 -20.7271 -990.75
-29.635599 -22.2682 -982.33197
-28.180799 -22.828899 -980.18597
-26.489 -23.945801 -977.81
-19.5466 -26.246799 -971.13898
-18.013399 -26.205299 -969.51202
-15.941 -26.825701 -968.40698
-14.8689 -27.1427 -967.80902
-4.7240601 -30.080799 -963.48901
-34.576199 -20.2761 -992.73199
-33.9935 -20.496599 -991.724
-31.8328 -20.849501 -986.79498
-31.7719 -21.4998 -984.94702
-29.4604 -21.782499 -982.27002
-25.510401 -23.1938 -976.39301
-24.833 -23.429899 -975.62
-22.4482 -24.7771 -973.49597
-20.790501 -24.757999 -971.94897
-20.564501 -25.404301 -971.67902
-15.2852 -26.4202 -968.00702
-10.9565 -28.295601 -965.84998
-7.2867398 -28.799999 -964.24902
-35.980202 -18.9018 -998.50201
-35.0965 -19.2953 -996.94702
-32.523899 -20.0054 -988.10901
-31.4144 -20.483601 -985.28003
-29.5889 -21.745001 -981.76898
-26.7736 -22.779499 -978.013
-24.023701 -23.1448 -974.75201
-21.846901 -24.4219 -972.62097
-20.3682 -24.3167 -971.492
-18.9526 -24.7787 -970.06897
-18.4599 -24.947701 -969.65997
-12.6432 -26.687599 -966.44299
-10.3168 -27.3965 -965.38098
-9.1647902 -28.2693 -964.96698
-3.44397 -29.3146 -962.74701
-31.3433 -19.9342 -985.17102
-29.5144 -20.6432 -982.03601
-27.185699 -22.064301 -978.30402
-25.8242 -22.5193 -976.67297
-14.2708 -26.1884 -967.31299
-13.1488 -26.5287 -966.745
-4.5620098 -28.458401 -963.18701
-3.87164 -28.613001 -962.979
-33.433998 -18.489 -990.33197
-33.543999 -19.0406 -989.93597
-30.6014 -19.6766 -984.18103
-28.9818 -20.3116 -981.06
-28.1189 -21.159201 -979.41498
-25.9757 -21.9133 -976.98901
-24.6077 -22.3787 -975.42999
-23.4443 -22.2006 -974.19501
-22.8923 -22.9522 -973.52899
-21.7323 -23.3304 -972.43201
-15.7677 -24.6749 -967.99902
-11.4958 -25.905899 -965.68103
-35.796398 -15.3728 -1017.78
-36.3475 -16.235001 -1010.56
-31.371799 -18.8487 -985.45898
-30.101299 -19.3757 -982.70599
-24.7859 -21.259701 -975.20502
-22.346399 -22.5686 -973.07703
-21.165199 -22.9426 -971.97699
-20.896999 -23.041201 -971.59802
-19.547501 -22.937799 -970.48199
-18.7857 -23.1882 -969.784
-18.229401 -23.373199 -969.41602
-13.2 -25.4039 -966.51099
-12.6564 -25.0611 -966.12402
-10.9189 -25.568399 -965.302
-7.3368502 -26.594101 -963.802
-6.6476402 -26.7638 -963.58002
-3.8466799 -27.5595 -962.77899
-0.82348597 -28.3859 -962.03699
-35.354198 -16.9286 -998.151
-34.173 -17.242201 -990.86603
-33.789799 -17.897699 -989.17902
-29.9063 -18.9333 -982.64899
-28.6577 -19.3568 -980.435
-28.1602 -20.086399 -979.66803
-27.2435 -19.909599 -978.341
-23.501699 -21.190001 -973.98901
-17.895599 -23.514601 -969.00702
-15.2745 -24.258301 -967.57397
-14.1981 -24.0804 -966.89301
-12.6236 -24.5429 -966.02802
-10.434 -25.181801 -964.92499
-8.6533804 -26.209499 -964.26501
-36.114399 -15.0487 -1013.14
-35.262901 -16.2766 -993.078
-35.051998 -16.917101 -991.74902
-31.245701 -18.3801 -985.35999
-27.0574 -19.9629 -977.914
-26.4631 -19.657101 -977.44501
-24.5438 -20.324699 -975.05103
-21.5044 -21.313601 -972.05499
-20.945101 -21.494301 -971.71899
-18.191 -22.3724 -969.242
-16.177999 -22.989599 -968.01202
-6.5741601 -25.7796 -963.39801
-5.32513 -26.1026 -962.93799
-2.9902999 -26.7981 -962.39899
1.034 -27.8613 -961.60602
-35.815102 -14.5638 -1013.79
-34.145802 -16.739401 -990.77002
-32.717999 -17.3407 -986.58899
-30.106701 -17.798599 -982.87598
-23.7439 -20.063601 -974.198
-16.781799 -22.819901 -968.25897
-15.1262 -22.7869 -967.31799
-9.7330904 -24.878401 -964.58698
0.23480199 -27.1105 -961.70001
-36.325699 -15.2577 -995.68103
-34.266201 -16.1674 -990.65198
-31.048 -16.865801 -985.10999
-29.187401 -17.6047 -981.49701
-27.0984 -18.9279 -978.159
-25.8519 -18.789301 -976.42499
-25.5142 -19.459299 -976.13397
-24.580601 -19.2321 -974.84302
-22.7686 -19.833099 -972.95099
-21.0266 -20.396 -971.50897
-19.788799 -20.8027 -970.46002
-16.1651 -21.9235 -967.78998
-12.4971 -23.007601 -965.745
-10.8131 -23.5126 -964.914
-5.9496498 -25.424101 -963.07098
2.3596799 -27.1322 -960.979
-35.705898 -13.4958 -1013.64
-35.9561 -13.7226 -1010.17
-34.795502 -14.8325 -992.88397
-32.530998 -15.6996 -988.328
-32.189602 -15.8725 -987.367
-31.6078 -16.1194 -985.93103
-28.986799 -17.1714 -980.49701
-27.8127 -18.1222 -979.33398
-25.760099 -18.2826 -976.34497
-20.770599 -19.944401 -971.03601
-18.5179 -20.6548 -969.34198
-15.6045 -21.5429 -967.414
-8.3703604 -23.6779 -963.80603
-7.9063702 -23.785 -963.53101
-4.3784199 -24.785299 -962.461
1.33649 -26.3141 -961.39001
-35.141701 -14.6012 -994.51202
-33.580799 -15.3438 -989.61401
-32.5191 -15.786 -986.33502
-29.9779 -16.792101 -982.23901
-28.461399 -16.7889 -979.513
-27.2164 -17.7649 -977.94397
-24.184799 -18.2493 -974.27301
-22.2498 -19.4765 -972.50201
-21.620501 -19.672701 -971.755
-33.375401 -14.2999 -989.02899
-33.312599 -14.908 -987.63501
-28.690399 -16.116301 -980.32501
-28.6087 -16.7243 -979.96198
-25.3645 -17.277 -975.73798
-25.1628 -17.9039 -975.44202
-23.4897 -17.9526 -973.40503
-20.933201 -18.751301 -971.22998
-18.3832 -19.5583 -969.15698
-12.4459 -21.338301 -965.44098
-7.1283002 -22.843901 -963.10901
-35.747101 -13.3538 -993.21198
-32.570301 -14.6382 -986.10699
-31.1161 -15.2136 -984.30798
-28.4139 -15.6772 -979.32501
-27.836399 -16.449699 -979.03601
-27.011 -16.753901 -977.78497
-23.7955 -17.264601 -974.11499
-20.0914 -18.4725 -970.42603
-19.6035 -18.6301 -970.08899
-12.0406 -20.910101 -965.047
-8.22925 -22.5539 -963.60797
4.8881798 -25.519899 -960.66199
-35.330002 -11.3096 -1014
-34.951 -12.9775 -994.36603
-32.293499 -13.5469 -987.96399
-28.475599 -15.1091 -980.172
-26.268499 -15.8827 -976.77002
-25.585501 -16.6763 -976.06702
-22.028299 -17.866899 -972.22998
-20.8848 -17.671 -971.047
-17.8685 -19.1765 -968.73297
-16.8353 -19.506399 -967.58002
-16.028 -19.7311 -967.34698
-11.1503 -20.5898 -964.69702
-8.3447905 -21.404699 -963.38702
-7.6785898 -21.588499 -963.14099
-29.8752 -14.0967 -981.297
-27.8246 -15.3159 -978.37799
-24.9869 -15.8142 -975.09198
-22.1404 -16.7523 -972.03101
-21.204201 -17.069901 -971.32898
-20.3477 -17.3442 -970.61102
-17.4109 -18.240601 -968.20599
-13.5341 -19.393801 -965.716
-10.1774 -20.367901 -964.052
-35.833099 -11.4821 -995.815
-35.0882 -11.8231 -994.198
-34.077999 -11.7478 -991.49402
-31.968 -13.2677 -984.92999
-29.806299 -14.0758 -982.24298
-28.6196 -14.539 -980.04602
-25.3416 -15.1573 -975.82202
-23.754101 -15.7059 -973.85498
-19.8291 -16.991199 -970.18402
-17.2194 -17.809099 -967.716
-14.9092 -18.494699 -966.54999
-12.4107 -19.211399 -965.05499
-6.35748 -21.4953 -962.60797
-34.0742 -9.37848 -1021.79
-35.560398 -9.7967196 -1011.62
-35.514599 -10.9983 -996.466
-30.845501 -12.6309 -984.37903
-31.114 -13.096 -983.47302
-28.0658 -14.2107 -979.10602
-27.002199 -14.0966 -977.31299
-24.5305 -14.9346 -974.53101
-23.2444 -15.8666 -973.05402
-21.959999 -16.2955 -971.97101
-21.591999 -15.9239 -971.51501
-20.7206 -16.689199 -970.89697
-18.087601 -16.9837 -968.72302
-17.1257 -17.3116 -968.07898
-13.3012 -18.4466 -965.57098
-7.5871 -20.0987 -962.87402
-34.871601 -8.5141296 -1016.85
-35.525299 -10.5262 -995.802
-34.044399 -11.2144 -992.51898
-33.122299 -11.6747 -988.63202
-28.771999 -12.9173 -980.71198
-25.203199 -14.1923 -975.22101
-24.239799 -14.5134 -974.47998
-23.391199 -14.8111 -973.29901
-21.266399 -15.509 -971.47302
-15.6005 -17.2647 -966.56702
-12.3314 -18.2141 -964.888
-35.9692 -9.4459801 -1001.6
-32.863201 -10.6831 -989.01001
-28.451799 -12.4918 -979.73297
-28.123501 -12.5882 -979.29602
-24.350901 -13.9191 -974.383
-20.299999 -15.2606 -970.25403
-15.9823 -16.599899 -966.75098
-13.6584 -17.262199 -965.70801
-11.1669 -18.003599 -964.25098
-10.5313 -18.1772 -963.987
-34.8438 -9.8625202 -992.88
-34.439499 -10.0161 -992.35797
-31.9293 -10.4904 -987.50403
-17.6161 -15.5281 -968.12598
-17.1432 -16.2141 -967.88898
-14.0383 -16.611799 -965.91699
-12.7241 -16.9846 -965.00897
-32.398701 -9.7218904 -988.90698
-30.6285 -10.4675 -985.04199
-29.6735 -10.8609 -982.70099
-28.750401 -11.8409 -980.53802
-27.105301 -11.8356 -978.302
-24.0105 -12.9172 -974.24402
-19.756201 -14.3143 -969.729
-17.063499 -15.1205 -967.71198
-10.5426 -17.0516 -963.79797
-8.5692701 -17.6616 -962.41498
-34.7873 -7.9424701 -996.11499
-32.171799 -9.2146902 -988.85901
-31.7006 -10.076 -985.92401
-30.902599 -9.8219004 -984.91101
-29.4053 -11.0277 -981.30603
-27.9716 -11.003 -979.04901
-21.124599 -13.3476 -971.12201
-21.013901 -13.3637 -970.71399
-19.327499 -13.8782 -969.30298
-18.355 -14.1803 -968.64301
-33.440102 -8.6167297 -992.37799
-31.400801 -9.0392199 -986.29498
-23.389799 -12.0245 -973.26703
-22.1649 -12.99 -972.24298
-21.547899 -13.1945 -971.47803
-17.405199 -13.9221 -967.88501
-16.595301 -14.1524 -967.203
-9.2736797 -16.291 -962.44702
-35.383499 -6.4011798 -1006.31
-33.716 -7.8841901 -993.922
-33.5844 -7.4612398 -992.22302
-32.5509 -7.9338398 -989.68103
-29.108601 -9.4513197 -981.07703
-28.614901 -9.6614399 -980.19299
-27.2372 -10.1345 -978.02899
-20.270599 -12.4943 -970.21503
-12.5712 -14.7916 -964.61401
-12.0574 -15.5065 -964.453
-10.3148 -15.487 -962.90997
-33.8372 -6.7608299 -993.745
-31.4307 -7.94452 -986.09198
-30.485901 -8.9209604 -983.32703
-27.2029 -9.6363802 -977.95898
-24.086399 -10.7521 -973.31299
-22.225401 -11.8537 -972.039
-21.330601 -11.6211 -970.77002
-19.3967 -12.2327 -969.41998
-15.8594 -13.8349 -966.81299
-34.3568 -5.0039101 -1013.16
-33.539398 -6.95432 -992.13098
-31.645 -7.3323102 -987.008
-31.4891 -7.4627099 -985.04602
-30.2071 -7.95123 -983.69299
-26.4615 -9.9269695 -976.20398
-21.6523 -11.4876 -971.14203
-20.3475 -11.9188 -970.10602
-32.7617 -4.3196402 -1019.37
-34.867599 -4.7013502 -1008.82
-33.975201 -6.3442702 -991.47198
-32.395 -6.9896898 -988.47803
-30.777599 -7.23138 -984.53802
-30.1549 -7.4921598 -983.13098
-28.866899 -7.9835501 -981.33197
-27.7719 -8.9164696 -978.72498
-26.861099 -8.7214403 -977.82599
-26.4755 -9.3872099 -977.03802
-20.1187 -11.0645 -969.38599
-15.1835 -13.0186 -965.80798
-2.7479899 -15.9826 -960.27399
-1.98804 -16.1894 -960.09302
-35.0481 -4.4333801 -1005.41
-35.183899 -4.5532198 -1003.45
-33.567699 -5.8207102 -993.63599
-32.064098 -6.0826402 -988.36603
-30.916901 -6.6845999 -983.95398
-27.768299 -7.8550401 -979.04303
-26.5186 -8.9427795 -976.37097
-26.040199 -9.1419697 -974.98798
-24.4275 -9.1470299 -972.862
-22.6178 -9.7618103 -971.36298
-18.435301 -11.5702 -968.026
-17.2344 -11.4376 -966.80798
-16.459 -11.6775 -966.12701
-6.8322101 -14.3694 -961.52002
-32.668499 -5.18787 -990.84198
-31.3074 -5.8631902 -986.80902
-26.3901 -7.8745999 -976.203
-21.135401 -10.2402 -969.89801
-19.831699 -10.1178 -968.75
-2.7883899 -14.9024 -960.10999
-35.016499 -3.56738 -1002.66
-33.555698 -4.73456 -993.47302
-33.053799 -4.4502902 -991.79498
-29.2701 -6.7235098 -982.09802
-25.4025 -7.66324 -975.35699
-23.5891 -8.3333101 -972.42603
-22.334299 -8.7419395 -970.84399
-19.393101 -9.6890898 -968.302
-17.6395 -10.23 -966.93903
-16.4352 -10.5906 -965.93402
-15.4315 -10.9001 -965.30603
-13.7254 -11.3857 -964.427
-7.22363 -13.18 -961.62598
-33.919998 -2.4414401 -1012.83
-29.3466 -5.5988798 -981.914
-28.938 -6.3619399 -980.15302
-26.4891 -7.2870498 -976.526
-24.7682 -7.8941002 -974.54602
-19.510599 -9.0895395 -968.63599
-15.4313 -10.3177 -965.21399
-33.412498 -3.0552399 -994.36401
-32.8027 -4.0389099 -990.66803
-29.9874 -4.7316599 -984.22498
-30.2227 -5.2816801 -982.77197
-27.349001 -5.87781 -977.69098
-19.9508 -7.8172302 -968.94598
-16.075701 -10.1246 -965.90802
-15.6973 -9.6716604 -965.48901
-31.2125 -4.3177199 -984.58197
-26.007299 -5.7999301 -975.47101
-25.3965 -6.5738201 -975.17999
-24.5697 -6.8287001 -973.99298
-22.7307 -6.8818102 -971.96802
-17.872101 -8.4774504 -967.52502
-33.963299 -1.65604 -995.271
-31.82 -3.3401201 -989.052
-28.3449 -4.8951402 -979.039
-25.268101 -5.4863 -975.047
-16.860001 -8.2032499 -966.34698
-34.076302 -0.94632 -997.50598
-32.6968 -2.5062599 -989.45099
-30.6991 -2.81723 -985.40601
-28.6555 -4.1916199 -980.78699
-26.8421 -4.3916898 -977.01501
-25.070101 -5.0317998 -975.00702
-23.4953 -5.5737901 -972.58197
-10.933 -9.3937397 -963.117
-33.164001 0.65875202 -1012.5
-32.782398 -1.79037 -991.43402
-32.4949 -1.47351 -989.79602
-31.361601 -1.96762 -987.31097
-29.5609 -2.8015399 -982.49701
-29.27 -2.9314899 -981.08002
-27.4174 -4.1194201 -979.46698
-20.296101 -6.5785499 -969.60797
-14.3184 -7.9179702 -964.68903
-12.3809 -8.4524803 -963.92401
-8.5473003 -9.5339098 -961.96503
-6.9439101 -9.9757404 -961.17297
-5.0941801 -10.4744 -960.44299
-31.746 0.86984301 -1018.21
-34.0443 0.282013 -999.78198
-32.938801 -0.61065698 -992.93799
-28.380199 -2.7625401 -980.13599
-27.063101 -3.8073699 -977.41498
-23.289301 -4.5976601 -972.883
-22.905199 -5.25177 -972.14301
-21.555401 -5.16043 -970.526
-20.8009 -5.4152198 -969.79999
-18.000099 -6.7912898 -967.81097
-13.5214 -7.6395001 -964.44299
-12.9404 -7.7973299 -964.15302
-32.996498 -0.61825597 -992.39899
-29.5294 -1.70068 -983.81702
-27.9559 -2.92224 -978.78302
-24.268999 -3.7528701 -974.02197
-20.7117 -4.9218798 -970.14203
-10.3628 -7.9946899 -962.62402
-9.7411499 -8.1604004 -962.33099
-9.1129799 -8.8413696 -962.14301
0.34356701 -10.279 -958.88501
-33.0275 -0.087707497 -991.78198
-22.739799 -3.7198501 -971.94397
-19.556801 -4.7506399 -968.99402
-14.7112 -6.19662 -965.26599
-14.3016 -6.9031701 -965.00897
-4.5360699 -9.0031996 -960.284
-33.876202 2.0462 -1007.38
-31.935101 0.53552198 -990.10999
-29.8857 -0.33621201 -986.69897
-30.403 -0.29327399 -984.58197
-28.5718 -1.54944 -981.41602
-25.822599 -2.1298499 -975.88
-24.977501 -2.9693601 -974.72601
-17.4119 -5.3849502 -967.24597
-16.9709 -4.9790301 -966.82501
-1.87128 -9.1402903 -959.36798
-31.525999 2.7321501 -1015.66
-33.2402 2.6359899 -1010.17
-27.787399 -1.3653899 -978.59198
-23.8964 -2.22876 -973.38202
-19.4042 -3.67908 -968.86102
-17.9221 -4.1433702 -967.41901
-25.7103 -1.03842 -975.74103
-23.025299 -2.5088799 -972.62402
-20.052799 -2.9081399 -969.513
-17.752701 -3.62485 -967.35999
-16.7871 -3.9172699 -966.70898
-14.1079 -4.6853299 -964.72699
-11.6124 -5.4151602 -963.20203
-32.259499 3.83746 -1013.12
-33.1595 3.7155199 -1009.34
-32.657299 2.02841 -992.07898
-30.039 0.70028698 -983.96899
-28.9091 0.25140399 -982.13599
-25.3223 -0.604065 -975.70001
-24.423 -0.926727 -974.03998
-22.0172 -2.3015699 -971.36499
-14.2489 -4.1068401 -965.01099
-11.4063 -4.91046 -963.15399
-32.073399 2.6796601 -989.013
-29.514601 1.15887 -985.49597
-28.0424 0.42086801 -979.27899
-16.2633 -2.9577601 -966.229
-15.4101 -3.21661 -965.54901
-13.3191 -3.8169301 -964.29797
-31.841999 3.13205 -988.651
-29.428499 2.2816501 -986.43402
-28.9396 1.96103 -983.40997
-28.740999 1.31073 -982
-28.4774 1.68051 -980.52899
-27.505199 1.32599 -979.67902
-23.583099 -0.65734899 -973.19202
-20.7838 -1.05551 -970.47498
-16.9744 -2.25034 -966.88599
-14.2641 -3.03949 -964.85498
-12.3633 -3.5734301 -963.638
2.2460899 -7.3975201 -958.18597
-33.8699 5.04843 -1004.01
-31.957399 3.7446001 -989.505
-28.6684 2.33621 -981.89502
-25.6714 1.12088 -976.39001
-25.285601 0.97369403 -975.505
-24.261801 0.627258 -974.30603
-22.649099 -0.45297199 -972.37097
-22.703899 0.068512 -971.83899
-14.6484 -2.4161999 -965.11902
-12.5882 -2.9964299 -963.88098
-9.7262602 -3.82535 -962.07898
-8.4646597 -4.1412401 -961.55701
-33.1618 4.6612902 -996.12201
-26.2185 1.35712 -977.34497
-19.847 -0.84121698 -969.24701
-19.014299 -1.10504 -968.53302
-16.088699 -1.98624 -966.09302
-15.2935 -2.23825 -965.42401
-8.94452 -3.4913001 -961.75702
-6.6897001 -4.0897799 -960.703
-32.862701 6.23318 -1008.18
-33.420799 5.7474999 -1001.53
-33.1591 5.7974501 -997.29498
-32.641201 4.74158 -992.60999
-30.0543 3.6581399 -987.815
-25.4807 2.08096 -976.25897
-23.031601 1.25143 -972.987
-22.608 1.0784 -972.17401
-13.1407 -1.80176 -964.04199
-11.0419 -2.39136 -962.86603
-0.396667 -5.1946101 -958.74902
-31.953199 6.25281 -1011.16
-33.216499 6.5286598 -1004.71
-24.5016 2.2883 -974.52002
-24.014 2.1209099 -973.67401
-23.438999 1.3873 -973.36902
-18.489599 0.33386201 -967.97498
-15.831 -0.47775301 -965.92297
-11.9445 -2.1393399 -963.45898
-7.56427 -2.78351 -961.11902
-6.4107099 -3.07126 -960.599
-5.8245201 -3.23877 -960.35199
-0.86822498 -3.9700899 -958.82599
-32.9506 6.3807402 -997.94202
-31.9839 6.0773301 -991.13202
-31.165701 5.0627699 -988.53998
-26.7593 3.68964 -978.02399
-18.6646 0.94101 -968.29999
-14.4165 -0.354523 -964.86798
-10.744 -1.35742 -962.76599
-2.98718 -3.45996 -959.39899
-25.259001 3.1166101 -976.16199
-21.3367 2.33688 -970.80701
-19.319 1.68011 -968.96899
-17.479601 0.56985497 -967.23297
-16.7932 0.93667603 -966.85699
-16.1534 0.71423298 -966.13397
-15.6882 0.58374 -965.80402
-15.2699 0.47009301 -965.46301
-12.6608 -0.311768 -963.89801
-11.5765 -0.59890699 -963.31
-31.326 7.9812002 -1013.31
-32.405899 8.3207397 -1007.98
-31.1931 6.1574998 -988.43103
-20.371201 2.56985 -970.026
-19.067101 1.6160001 -968.56598
-10.7842 -0.23651101 -962.62299
-8.9772301 -0.72036701 -961.78497
-25.5611 4.9771099 -977.03302
-24.751101 4.0513 -975.185
-20.6919 3.25598 -970.33197
-12.666 0.835419 -963.75598
-5.4668002 -1.12143 -960.12299
-31.427799 7.6140099 -991.01898
-26.769501 5.4393902 -979.69897
-25.347799 5.4611502 -976.97803
-25.080099 5.3308401 -975.60602
-23.313499 4.6986098 -973.93402
-22.186001 4.33322 -972.27002
-15.7768 2.30792 -965.96802
-15.2664 2.15344 -965.64001
-13.9685 1.78348 -964.646
-9.4229097 0.48654199 -961.927
-5.2434702 -0.59719801 -960.07501
-30.8276 7.9265399 -990.43298
-27.187599 6.8329802 -983.50201
-21.716801 4.6637301 -971.90302
-20.8687 3.8625801 -971.13702
-16.937201 3.14536 -966.96399
-16.474899 2.5127299 -966.67999
-15.6141 2.7694099 -965.93903
-11.8958 1.69125 -963.35199
-9.8797598 1.12894 -962.16602
-32.137199 10.3953 -1007.1
-32.3209 9.84338 -1001.27
-31.8937 9.4895 -998.88397
-30.8993 8.6096497 -992.06299
-26.535299 6.9867902 -979.547
-25.222 5.9404602 -976.93402
-24.3701 6.15482 -976.05798
-15.987 3.38974 -966.229
-15.1313 3.1159101 -965.539
-32.2089 10.6305 -1004.28
-32.1138 10.3875 -1001.87
-32.058498 10.1885 -1000.02
-30.851 9.6236601 -991.96399
-27.7176 7.96524 -981.79498
-26.514099 6.95471 -978.59998
-25.157499 6.9685702 -977.284
-24.9916 6.87781 -976.39099
-16.702101 4.1020498 -966.84998
-11.9946 2.7471001 -963.58801
-9.5415001 2.0735199 -962.08099
-31.8318 11.3518 -1007.03
-31.3981 10.5821 -994.69202
-30.796801 9.5891104 -991.40601
-30.4373 9.3994398 -990.354
-26.8085 7.6375399 -980.41803
-26.404301 7.93225 -978.50702
-24.8605 7.38696 -976.81598
-22.7244 6.6199002 -973.88
-21.204 6.0885601 -971.427
-15.6888 4.3375201 -966.19
-14.87 4.1056499 -965.495
-31.6173 11.8805 -1007.68
-31.7911 11.5486 -1004.31
-26.0429 8.4595299 -980.401
-24.285299 7.1621099 -975.48602
-16.8981 4.7142 -967.18402
-13.921 4.3546801 -964.729
-11.4782 3.6921699 -963.14801
-31.458 11.3654 -997.02802
-30.1877 10.3387 -989.81403
-24.185301 8.2158203 -975.38397
-18.9394 6.4884 -969.88098
-15.0808 5.2932401 -966.229
-11.8453 4.3302302 -963.43201
-25.160801 8.6459703 -978.06
-24.601299 8.4316702 -977.19501
-23.986601 8.7430696 -975.336
-15.6624 6.0483398 -966.50702
-14.2958 5.63379 -965.49298
-10.6146 4.5532198 -962.79303
-27.2279 10.5794 -981.55603
-23.1882 9.0487099 -974.90802
-23.0266 8.9570904 -974.49103
-16.2318 6.8149099 -967.172
-15.9284 6.7038598 -966.80298
-9.2920504 4.7728901 -962.297
-5.0581698 3.69684 -960.487
-30.701 12.406 -992.28601
-25.5529 10.5033 -979.24103
-24.305099 10.0303 -977.03802
-9.0179396 5.3038902 -962.30701
-6.30615 4.5898399 -960.92603
-30.963699 14.0141 -1002.41
-26.004 11.3416 -982.09399
-22.9056 10.0614 -974.836
-30.639 14.8423 -1005.77
-30.938601 14.5668 -1002.33
-29.232401 12.7569 -988.51898
-26.462 11.4259 -981.034
-25.6213 11.053 -978.25598
-24.216999 11.0377 -976.46503
-22.739201 10.524 -974.79602
-21.922501 10.2109 -973.54901
-20.349701 9.7155199 -971.53699
-14.608 7.40378 -966.07098
-0.82214397 4.2678199 -959.00598
-30.526699 14.3369 -995.66602
-29.582399 14.2166 -991.69299
-26.468901 12.5217 -981.45697
-26.334101 12.4396 -980.96698
-25.4161 11.5865 -980.14398
-25.5411 11.5343 -978.20898
-24.099501 11.4911 -975.97498
-16.1633 8.40979 -967.42499
-14.991 8.5661001 -966.315
-8.0036001 6.60776 -961.93103
-29.2859 13.9804 -990.01202
-29.2383 13.786 -988.414
-23.7122 11.9364 -976.44299
-22.723 11.5665 -974.68799
-1.06433 5.35745 -959.18201
-29.8151 15.4853 -993.28601
-25.5734 13.354 -981.948
-15.3582 9.7136202 -966.966
-12.5851 8.8954201 -964.56299
-11.9297 8.7167101 -964.26398
-29.992901 15.9746 -997.46399
-28.509001 15.2282 -988.37097
-26.711901 14.1907 -981.271
-24.180401 12.6723 -977.73199
-23.5886 13.0109 -976.80701
-22.7831 12.1618 -975.552
-21.430599 12.2031 -973.40302
-11.3392 9.0923204 -963.91199
-9.83533 8.7137804 -962.966
-1.0014 6.4124098 -959.08398
-29.1175 17.471901 -1008.64
-30.090099 17.132 -1003.02
-30.002001 16.638901 -998.67999
-30.0123 16.3778 -996.17401
-24.561399 13.4831 -980.04303
-20.489901 11.8651 -971.73602
