# .PCD v0.7 - Point Cloud Data file format
VERSION 0.7
FIELDS x y z
SIZE 4 4 4
TYPE F F F
COUNT 1 1 1
WIDTH 1625
HEIGHT 1
VIEWPOINT 0 0 0 1 0 0 0
POINTS 1625
DATA ascii
27.131201 -25.0214 -964.96997
27.811001 -24.980499 -965.64001
29.0914 -24.175501 -965.59601
29.8354 -24.0387 -966.21198
44.068401 -17.152599 -977.46002
47.856602 -14.5474 -983.28998
48.535198 -14.277 -983.80701
48.690701 -14.07 -984.41302
50.654499 -12.3818 -987.755
51.151699 -12.3489 -988.35999
51.097198 -12.1438 -989.08197
51.515202 -12.1215 -989.85303
51.969799 -11.4421 -990.76202
52.2169 -11.1094 -991.64398
52.490101 -11.2916 -992.354
52.697399 -10.565 -993.17297
53.591202 -9.9543505 -994.77502
54.000198 -9.1860704 -996.75299
54.053902 -9.1186399 -997.32501
54.291401 -8.3457804 -999.39001
54.4202 -8.0577097 -1000.31
54.3158 -7.6963501 -1001.02
54.449799 -7.1203299 -1003.48
54.6329 -6.7889299 -1005.51
54.1581 -5.2585402 -1010.13
53.380699 -4.3705401 -1013.94
15.8314 -27.877701 -962.633
17.995501 -27.350901 -962.44299
19.375999 -26.929399 -963.23199
21.900801 -26.037399 -963.83002
23.8633 -25.5814 -963.84399
25.9461 -24.7337 -964.60199
27.1085 -24.460501 -964.82098
27.921101 -24.389099 -965.34497
29.0126 -23.849001 -965.39502
29.924999 -23.511801 -965.96399
30.196501 -23.280001 -966.45001
31.4554 -22.695499 -967.02301
32.193401 -22.567699 -966.89502
43.946201 -16.5947 -977.38599
47.3578 -14.5627 -981.87097
47.534 -14.1248 -982.58899
48.478001 -13.7648 -983.65997
49.976299 -12.6181 -986.35999
51.9268 -10.946 -990.92902
52.678299 -9.5507002 -993.49701
53.424702 -9.4731197 -994.34198
53.756901 -9.2995796 -995.51898
53.9426 -8.6902199 -996.59497
54.351299 -8.3237696 -997.435
54.2729 -7.8348799 -999.20398
54.131699 -7.5799699 -1000.35
54.354801 -7.25102 -1001.14
54.5466 -6.4605598 -1002.89
54.520901 -6.3104401 -1004.27
54.257099 -5.2382202 -1006.88
54.333302 -5.4948702 -1007.3
54.866798 -5.5315499 -1007.89
53.938702 -4.6407499 -1010.54
54.431301 -4.9103498 -1011.1
53.563702 -4.2837601 -1012.14
53.8647 -3.8206699 -1013.04
11.0161 -28.5781 -962.42297
14.1011 -27.8246 -962.25598
15.6519 -27.5679 -962.51599
17.180201 -26.952101 -962.83801
18.8727 -26.4228 -963.00702
20.266399 -25.999201 -963.45001
22.451 -25.3438 -963.521
23.1712 -25.097401 -964.29401
25.687099 -24.2661 -964.02899
25.9631 -24.308901 -964.599
27.115101 -24.0037 -964.62799
27.904499 -23.647699 -965.05402
29.0186 -23.3297 -965.23102
29.923599 -22.996401 -965.815
31.137699 -22.4175 -966.48102
33.8512 -21.299999 -968.10199
35.230202 -20.6632 -969.16998
44.3442 -16.2369 -976.62299
44.789398 -15.7232 -978.14301
46.598099 -14.442 -981.04401
48.499901 -13.0867 -984.14398
48.906601 -12.8426 -984.52899
49.5942 -12.3149 -985.86298
50.566799 -11.5312 -987.76703
51.058701 -11.2606 -988.00897
51.227901 -10.9765 -989.20697
52.037399 -10.2409 -990.81799
51.966202 -10.3626 -991.60602
53.3829 -8.8316402 -994.68298
53.951801 -7.83711 -997.55499
54.032501 -7.3640299 -999.229
54.1633 -7.0791602 -1000.14
54.4548 -6.6037402 -1001.38
54.451 -5.8948302 -1004.14
54.246101 -5.3011198 -1006.18
54.538898 -4.5850401 -1007.89
54.0341 -4.1374402 -1010.28
53.726898 -3.7595699 -1011.81
54.055698 -3.2407601 -1012.72
14.0123 -27.281 -962.15802
15.5315 -27.042299 -962.47302
16.6786 -26.4839 -962.92603
18.917101 -25.9214 -962.78003
20.382 -25.511 -963.06799
23.322901 -24.543501 -964.12402
25.150101 -24.0697 -964.10101
27.014799 -23.4249 -964.64899
27.9186 -23.1593 -964.87
28.863501 -22.7495 -965.32098
29.9797 -22.535 -965.64001
30.006201 -22.2815 -966.15399
31.123899 -21.929501 -966.30402
32.132801 -21.6632 -966.78302
32.5718 -21.5007 -967.60303
35.721401 -19.9179 -970.27802
36.852501 -19.1859 -970.54401
37.386002 -19.0821 -970.75598
44.283798 -15.6094 -977.07001
45.692699 -14.7517 -978.72601
46.3493 -13.9495 -980.28302
47.7094 -13.1954 -982.47198
48.461399 -12.5972 -983.98602
49.105801 -12.1878 -984.82898
51.104099 -10.8377 -987.77002
51.291199 -10.4735 -988.95203
52.027599 -9.7166004 -990.59198
52.727001 -9.0629396 -992.41602
53.18 -8.9263802 -993.91302
52.895901 -8.5560503 -994.26599
53.086498 -8.2602997 -994.92102
53.5424 -8.0156498 -995.5
53.728001 -7.6768498 -996.35999
53.5467 -7.4727201 -997.29602
53.8325 -7.2035398 -998.08899
53.811501 -6.7441902 -999.99298
54.7682 -5.4265499 -1002.45
54.186298 -4.51157 -1007.01
54.355999 -4.07722 -1007.91
53.756802 -3.4028201 -1011.32
15.5923 -26.4475 -962.29498
17.1525 -25.6635 -962.40503
18.48 -25.4699 -962.83698
20.2826 -25.1451 -963.11102
22.9697 -24.220301 -963.26599
24.0977 -24.0196 -963.461
25.558201 -23.7728 -963.91901
26.6677 -23.152599 -963.90997
27.511101 -22.9676 -964.47803
28.027901 -22.402901 -964.51001
28.620199 -22.357901 -965.08899
29.348499 -22.041201 -965.49701
31.1766 -21.377501 -966.13898
31.7626 -21.1859 -966.922
33.7855 -20.293699 -967.79102
34.0723 -20.1029 -968.20801
34.479 -19.8766 -968.56799
43.7976 -15.0109 -976.979
47.738499 -12.7056 -982.26599
49.4454 -11.3294 -985.57898
50.4772 -10.8633 -987.51099
50.960098 -10.1378 -988.76703
51.519001 -9.7796803 -989.14203
51.742298 -9.4330301 -990.13702
51.9468 -9.2238798 -991.41699
52.187599 -8.8077002 -992.13501
52.702 -8.2305098 -993.51703
53.4324 -7.5991402 -995.51801
53.5317 -6.97929 -997.20599
53.783401 -6.93433 -997.961
53.8554 -6.3387499 -998.76001
54.0317 -6.0920701 -999.83002
54.2449 -5.7750602 -1000.65
54.417099 -5.5829201 -1001.53
54.257301 -5.1436501 -1002.82
54.176498 -4.9279499 -1004.22
54.416698 -4.4333901 -1005.16
54.151199 -3.4867599 -1009.47
53.598099 -2.8013699 -1011.54
53.8181 -2.67944 -1012.84
12.9315 -26.4862 -961.94397
17.1073 -25.163799 -962.302
19.930201 -24.488899 -962.96002
22.497101 -23.815701 -962.93103
24.0809 -23.5422 -963.349
26.9687 -22.5993 -963.53601
27.6777 -22.4991 -964.18103
28.194201 -22.053101 -964.35999
28.6227 -21.853201 -964.90997
29.4258 -21.505699 -965.29102
30.436199 -21.2027 -965.552
31.318399 -20.891199 -965.89099
32.000099 -20.6637 -966.534
41.166599 -15.5682 -973.60699
41.589401 -15.9741 -974.25098
42.8535 -15.3962 -974.974
44.0065 -14.7714 -976.35699
44.743198 -14.2153 -977.58002
47.414398 -12.4221 -981.68701
47.807598 -12.0741 -982.64001
48.746498 -11.2531 -985.00299
50.1679 -10.287 -986.58502
50.7831 -9.6563702 -987.841
50.9417 -9.5684996 -988.60199
51.558498 -8.9662905 -990.09198
52.0466 -8.6158705 -990.76898
52.731602 -7.8488302 -993.19397
53.040298 -7.2435699 -994.65698
53.4613 -7.0811701 -996.34497
54.085098 -6.3533802 -996.86499
54.086102 -5.87988 -998.58398
54.213001 -5.1518998 -1000.56
54.130501 -4.9886398 -1001.61
54.163799 -4.2540002 -1004.15
54.188702 -3.3819399 -1007.06
54.473301 -3.5661399 -1007.78
53.695599 -2.2476201 -1010.93
53.8209 -2.1112399 -1012.75
15.5511 -25.4046 -962.03601
17.0233 -24.673901 -962.22498
18.1724 -24.496901 -962.37
19.9897 -23.983801 -962.64301
22.5741 -23.3318 -962.82397
25.2665 -22.510201 -963.49902
26.691299 -22.1434 -963.617
27.554501 -21.500999 -963.96899
27.9412 -21.574499 -964.42297
28.558599 -21.305599 -964.78101
29.4485 -21.009501 -965.06897
30.9652 -20.4014 -965.88702
31.9795 -20.169701 -966.427
32.341999 -19.822701 -966.82599
33.098801 -19.5296 -967.16498
33.667301 -19.288099 -967.487
43.646301 -14.4834 -975.823
44.1563 -14.097 -976.64697
45.219799 -13.2163 -978.75702
46.9669 -11.9603 -981.80701
48.798599 -10.6892 -984.47302
49.633099 -9.9054298 -986.35699
50.7542 -9.1975403 -988.14697
51.171902 -8.9712095 -988.46301
52.077599 -7.9719601 -991.11401
52.002399 -7.5879698 -991.79401
52.3652 -7.27847 -993.38702
53.072899 -6.7431798 -994.42603
52.713799 -6.6287098 -995.28003
53.982601 -5.8709698 -996.71802
53.803001 -5.9232302 -997.72498
53.880901 -5.3852601 -998.534
53.667599 -5.28967 -1000
54.1908 -4.6616201 -1000.76
53.7855 -3.9398301 -1003.35
53.754601 -2.1593399 -1009.72
53.8992 -1.62407 -1010.65
53.6744 -1.52571 -1012.69
12.1364 -25.570801 -961.94299
14.9031 -25.0256 -961.93701
16.478901 -24.292801 -962.03601
18.276199 -23.9776 -962.13898
20.017 -23.3228 -962.28003
22.7019 -22.8053 -962.58698
25.305401 -21.989799 -963.20001
26.697901 -21.6415 -963.48999
30.7911 -19.7619 -966.01801
31.368999 -19.6633 -966.25098
32.2598 -19.542 -966.74103
32.9048 -19.056299 -966.966
33.7995 -18.7407 -967.21002
34.1838 -18.471399 -967.78198
34.7715 -18.4531 -968.41498
35.503399 -17.826401 -968.31201
37.8937 -16.755501 -971.14203
39.4921 -15.9428 -972.27502
42.890701 -14.2008 -975.45898
44.022202 -13.5477 -976.31
45.822399 -12.5935 -978.854
45.7813 -12.5344 -979.591
48.475498 -10.2239 -984.12598
49.200802 -9.8450298 -985.15198
49.525002 -9.3569899 -986.29602
51.889999 -7.09863 -991.72699
52.259899 -6.9421601 -992.67999
52.575001 -6.71981 -993.01001
52.846901 -6.11726 -994.95697
52.936901 -6.14008 -995.70599
54.031399 -5.4000802 -997.41602
53.3582 -4.7632899 -1000.28
53.6717 -4.1333299 -1001.03
54.184101 -4.0396299 -1001.67
53.6754 -3.7569599 -1002.5
53.658199 -3.4244399 -1003.51
54.0242 -3.0834401 -1004.29
54.406101 -2.56868 -1005.07
53.698898 -1.95418 -1008.63
53.876598 -1.7561001 -1009.34
53.589901 -0.97314501 -1012.81
11.9496 -25.026699 -961.75403
14.3825 -24.608601 -961.70001
15.8973 -23.891199 -961.83899
18.004499 -23.5401 -962.22302
22.3979 -22.263599 -962.64801
23.931 -22.093901 -962.99298
24.567801 -21.566 -963.367
26.1208 -21.157499 -963.33502
26.4891 -20.9058 -964.05103
28.132601 -20.866301 -963.99103
28.519699 -20.223499 -964.20099
29.3349 -20.063601 -964.78699
30.167801 -19.3811 -965.16699
31.4328 -19.101801 -965.95697
32.774899 -18.3248 -966.77002
33.9277 -18.028601 -967.74103
34.559399 -17.76 -968.02002
41.838001 -13.9627 -974.79401
42.556301 -13.8474 -974.87799
43.964001 -13.0158 -976.20001
46.451199 -11.3217 -980.24298
46.8745 -11.0792 -980.83398
47.2771 -10.8816 -981.146
47.5201 -10.7055 -981.60602
48.164101 -10.2936 -982.50201
48.407001 -9.6445398 -984.02802
48.964901 -9.5219498 -984.52399
49.423302 -9.3734703 -985.54901
49.555099 -8.8216896 -986.13202
50.483898 -8.5819702 -986.94397
50.686298 -8.1904802 -987.77899
51.110001 -7.9602098 -988.09399
51.268799 -7.64464 -989.15802
51.485901 -7.46839 -989.52502
51.758801 -7.22051 -990.09698
51.882301 -6.98206 -990.88898
51.958698 -6.61408 -991.51599
52.656799 -5.9291201 -993.909
52.968399 -5.6051602 -994.67401
53.016399 -5.0721302 -996.40198
53.444801 -4.5860701 -997.89301
53.4156 -4.3123202 -999.026
53.624001 -2.94701 -1003.34
53.694401 -2.0127599 -1005.81
53.470699 -1.78389 -1007.46
53.697601 -1.16641 -1009.36
53.599602 -0.60989398 -1010.66
14.4626 -23.587999 -961.396
16.48 -23.283199 -961.76898
18.1528 -23.0313 -962.00598
22.957701 -21.732401 -962.435
24.0446 -21.3183 -962.427
25.1528 -20.794001 -962.966
25.5742 -20.7313 -963.35199
26.925699 -20.514299 -963.74103
28.204901 -19.7262 -964.33398
28.8813 -19.511499 -964.86603
29.8589 -19.1994 -965.099
30.9876 -18.652901 -965.547
31.5023 -18.5525 -965.73401
31.727501 -18.343 -966.323
32.615799 -17.7794 -966.77802
32.751701 -17.867599 -967.30298
33.886799 -17.558901 -967.64801
34.276501 -17.4877 -967.89899
35.863602 -16.6607 -969.20099
38.657902 -15.0973 -972.021
39.257 -14.52 -972.01801
41.678398 -13.8918 -973.573
42.655701 -13.3442 -974.65601
43.6661 -12.7757 -975.84698
43.878101 -12.5018 -976.16803
44.335201 -12.4425 -976.71997
44.5947 -12.0331 -977.60901
45.041 -11.7974 -977.99402
47.390598 -9.9525099 -981.56897
48.243999 -9.6914701 -983.349
49.2444 -8.3613005 -985.40997
50.189899 -8.0611696 -986.59998
50.792999 -7.8380399 -986.83002
50.661701 -7.67237 -987.60602
51.110901 -7.4535999 -987.90002
51.6194 -6.7375498 -990.03699
51.768799 -6.4857101 -990.77802
52.387699 -5.4325099 -993.93298
52.871201 -5.22929 -994.40302
53.205601 -5.1153002 -995.245
53.7495 -4.3945599 -996.104
53.5508 -3.9368501 -997.992
53.5009 -3.64481 -998.98297
53.493198 -3.36043 -1000.01
53.4645 -3.0540199 -1001.12
54.025902 -2.82024 -1001.65
53.717701 -1.99209 -1004.49
53.673801 -1.42625 -1005.67
53.634102 -1.34122 -1007.09
53.720901 -0.93994099 -1008.08
53.793301 -0.642349 -1009.16
52.161701 1.01378 -1016.11
13.1023 -23.268801 -961.43298
15.7604 -22.8708 -961.69098
17.457899 -22.6369 -961.88397
20.942101 -21.5245 -961.901
23.1464 -21.156601 -962.16101
23.3785 -21.075199 -963.10602
24.8545 -20.2948 -963.08698
25.329599 -20.239799 -963.17902
26.077 -20.072701 -963.75702
27.385401 -19.8622 -963.815
28.2764 -19.125601 -964.19098
28.655199 -19.0613 -964.65002
29.7736 -18.878099 -964.80103
30.462 -18.3703 -965.36499
31.1584 -18.0557 -965.90503
32.908501 -17.204599 -967.10101
33.534401 -17.102699 -967.23199
34.0714 -16.813299 -967.659
34.652599 -16.4387 -968.12299
34.675701 -16.441299 -968.74701
36.5532 -15.5691 -969.60303
37.382099 -15.4001 -970.46198
37.849701 -14.8169 -970.62201
38.561798 -14.6074 -971.95801
44.6674 -11.7098 -976.63397
45.276699 -11.0962 -978.36102
46.0112 -10.6625 -979.20697
46.838699 -10.0811 -981.18402
47.684502 -9.3416405 -981.99902
48.166801 -9.2234602 -982.44501
48.305199 -8.9230299 -983.35999
48.602501 -8.72855 -983.79199
48.921799 -8.5328398 -984.17798
49.939499 -7.8066802 -985.82599
50.714001 -7.3453999 -986.68701
50.828499 -7.1684399 -987.27399
51.130199 -6.6639199 -988.86798
52.362701 -5.5921998 -991.34601
51.9533 -5.4653502 -992.33002
52.683601 -5.3930302 -992.539
52.664001 -4.80898 -993.38702
53.045601 -4.3008499 -995.29901
53.338402 -3.92748 -996.24701
53.504799 -3.44191 -997.83698
53.508301 -3.1656899 -998.82202
54.031502 -2.33639 -1000.34
53.906101 -2.2867 -1001.62
53.747799 -1.57021 -1004.17
53.3564 -0.875633 -1007.26
53.742199 -0.18119 -1009.07
53.2715 0.329041 -1011.09
52.543999 0.99461401 -1013.93
20.7897 -20.980301 -961.88599
21.286501 -20.8792 -962.664
23.611 -20.319201 -962.23199
25.0361 -19.7694 -963.026
27.6215 -18.853399 -964.10199
28.689699 -18.5443 -964.271
29.312901 -18.2568 -964.84802
32.771999 -16.8832 -966.74103
33.132099 -16.692499 -967.479
34.198399 -16.1954 -967.94299
34.6548 -15.904 -968.448
35.819199 -15.6913 -968.94202
36.676201 -15.0784 -969.27899
37.053501 -14.9986 -969.70502
37.985401 -14.3843 -971.078
38.960999 -14.0698 -971.15802
39.7981 -13.9123 -971.90802
41.2244 -13.1096 -972.70801
43.160301 -11.5495 -975.03601
43.9394 -11.3943 -976.771
44.506199 -11.2409 -977.15198
45.658501 -10.3606 -978.57599
46.912701 -9.5296202 -980.97601
48.7756 -8.0462799 -984.07703
48.945702 -7.8540301 -984.53101
49.123699 -7.4296598 -985.26703
51.424702 -5.9677401 -988.97498
51.833302 -5.4979601 -990.34601
52.332001 -5.08178 -991.16998
52.8559 -4.1525898 -994.12799
53.2584 -3.43467 -996.12201
53.138802 -3.3127699 -996.92499
53.527302 -2.56177 -998.51202
53.548199 -2.36674 -999.59497
53.469101 -1.92405 -1001.27
53.517799 -1.7812001 -1001.87
53.4664 -0.90159601 -1004.78
53.3237 -0.46165499 -1006.43
53.490501 0.239769 -1008.23
54.007599 0.32408899 -1008.86
12.609 -22.808599 -961.18903
16.1021 -21.659401 -961.755
21.8857 -20.2542 -961.92297
23.2579 -19.9484 -962.33502
25.064899 -19.2542 -962.71002
26.1359 -18.9147 -962.89099
26.7036 -18.835699 -963.586
27.702 -18.180099 -963.81299
28.4832 -18.037201 -964.15002
29.2852 -17.731899 -964.58099
29.8263 -17.4284 -965.21399
30.827299 -17.168501 -965.388
31.406099 -16.844299 -965.97198
32.594799 -16.3262 -966.46997
33.353001 -15.9471 -967.474
34.042301 -15.6749 -967.80499
34.5298 -15.4037 -968.66699
36.398899 -14.7723 -969.06097
37.174198 -14.3057 -970.03699
38.895401 -13.5524 -971.37097
39.551701 -13.3461 -971.47803
41.397099 -12.5535 -973.20398
43.696301 -11.4808 -975.29602
44.412498 -10.7146 -976.414
46.702099 -9.1117802 -980.12598
47.032799 -8.4819899 -981.43597
47.724701 -8.32304 -982.01898
48.614601 -7.62465 -983.328
50.800598 -5.9385099 -987.448
52.014 -4.4566202 -991.914
52.468899 -4.09338 -992.724
52.7472 -3.5761001 -994.05298
52.773399 -3.50877 -995.16901
52.9939 -2.9821501 -996.11902
53.4305 -2.4583399 -997.50098
53.336399 -2.1819501 -998.60101
53.715801 -1.93005 -999.237
53.481998 -0.40538001 -1004.58
53.413101 0.0545654 -1006.15
53.245201 0.209084 -1006.82
53.192699 0.77410901 -1008.8
53.262901 1.04679 -1009.71
52.0256 2.13415 -1014.32
51.304298 2.8664401 -1017.46
10.7062 -22.5439 -961.02899
14.0673 -22.021601 -961.47699
19.582899 -20.321199 -961.71301
21.133499 -19.794001 -961.89099
23.2013 -19.409 -961.85999
23.8533 -19.292801 -962.46301
24.8773 -18.6724 -962.79999
25.5912 -18.5154 -963.29999
26.58 -18.3613 -963.57001
27.444901 -17.766001 -963.89502
29.038099 -17.2729 -964.47302
30.064301 -16.946501 -964.83801
30.596201 -16.1945 -965.33502
31.7195 -16.5347 -965.85101
31.819 -16.1231 -966.164
32.466999 -15.8382 -966.47601
32.602901 -15.7904 -967.16998
33.430599 -15.4219 -967.15503
33.531898 -15.0894 -968.17102
35.200298 -14.7769 -967.69501
35.866299 -14.7061 -968.492
37.470501 -13.9081 -969.80298
38.829899 -13.0515 -971.08002
39.482101 -12.8322 -971.30499
44.316799 -10.2148 -976.25
45.762501 -9.1967802 -978.77002
46.8736 -8.4348803 -980.42902
47.793701 -7.8162799 -981.75299
48.5811 -7.1571102 -983.25
49.4543 -6.5235 -984.89801
49.752602 -6.2262201 -986.16199
50.725201 -5.7767601 -986.58698
50.863201 -5.36795 -987.79999
51.646 -4.6610899 -989.48901
52.568001 -3.5618601 -992.45203
52.728802 -3.6403699 -993.01801
52.585098 -3.29808 -993.479
52.810101 -2.1745901 -997.13501
53.193901 -2.1113701 -997.67297
53.325401 -1.7235 -998.38599
53.4562 -0.93343401 -1000.86
53.645 -0.58989698 -1001.85
53.936798 -0.164627 -1002.31
53.932701 -0.016914399 -1003.58
53.475601 0.71639299 -1006.82
53.416199 1.31394 -1008.24
52.887901 1.90685 -1010.02
52.595699 2.57986 -1011.97
51.8106 2.7313399 -1014.62
20.9753 -19.420799 -961.62799
23.780199 -18.3543 -962.30798
24.427 -18.3305 -962.60101
25.4188 -18.0089 -962.86798
25.892 -17.764 -963.50201
27.3512 -17.339199 -963.46198
28.410299 -17.1583 -963.64099
28.941299 -17.0147 -964.48999
29.913601 -16.4673 -964.66602
32.41 -15.3553 -966.42499
32.9846 -14.9485 -967.245
34.242699 -14.3834 -968.33002
36.8536 -13.4663 -968.677
37.3242 -13.2548 -969.59698
38.643902 -12.5715 -971.013
39.437599 -12.3418 -971.15399
40.957901 -11.4453 -973.396
43.3386 -10.4115 -975.26001
43.973701 -9.8863096 -975.72198
44.338001 -9.2270203 -975.86102
44.9436 -9.2830601 -977.00098
46.774799 -7.9250598 -980.27197
47.765202 -7.3326502 -981.58197
48.084301 -6.7396798 -982.72998
48.638199 -6.5521698 -983.841
49.313702 -6.0577502 -984.78601
49.304699 -5.8763599 -985.41901
51.7122 -4.0220699 -990.12299
52.110001 -3.6389899 -990.76398
52.5574 -3.0854599 -992.25
52.203602 -2.5620999 -994.43799
52.389198 -2.3829999 -995.45898
52.963902 -1.66081 -996.94
53.069599 -1.41585 -997.81702
53.429901 -1.04021 -998.62402
53.386002 -0.76209998 -999.65503
53.338902 0.162506 -1002.93
53.542099 0.47380799 -1003.69
53.326302 0.863747 -1005.29
53.0723 1.3386101 -1007.08
53.258099 1.8335299 -1008.32
12.7357 -20.8445 -961.42102
20.7721 -18.882799 -961.51001
22.184 -18.633801 -961.95898
23.0721 -18.0033 -962.23999
24.431499 -17.8298 -962.34198
25.1425 -17.5396 -962.84802
27.2729 -16.899599 -963.24402
28.3538 -16.6388 -963.60199
28.788799 -16.007799 -964.354
29.646 -15.8485 -964.80603
30.7041 -15.676 -965.13098
31.7474 -15.1617 -965.66498
31.686501 -14.9223 -966.84399
33.859901 -14.2172 -967.24103
38.439999 -11.9462 -970.57501
40.372799 -11.4067 -971.72699
40.557999 -11.0117 -972.75598
43.8577 -9.3995895 -975.69897
45.924 -8.0116301 -978.86603
46.965801 -7.2589502 -980.59399
47.650101 -6.8864999 -981.46301
48.7271 -5.9984498 -984.41302
49.166302 -5.3365898 -984.72101
49.286598 -5.2609501 -985.44299
50.5504 -3.6921799 -988.56897
50.855499 -3.61201 -989.20203
51.5536 -3.5220499 -989.69598
52.113998 -2.7836499 -991.82501
52.214802 -2.62327 -992.297
52.3354 -1.9519399 -994.32397
52.393902 -1.75401 -995.24597
52.419399 -1.30396 -996.27899
53.326302 -0.50617999 -999.19702
53.2411 -0.130173 -1000.13
53.467201 0.23173501 -1001.26
53.519199 0.82079297 -1002.41
52.902401 2.3980401 -1008.44
52.5009 2.7330501 -1010.48
52.292801 3.1707001 -1012.1
13.2483 -20.0091 -961.138
19.165501 -18.645201 -961.16302
20.271 -18.5089 -961.51599
21.7908 -18.116501 -961.57898
22.693199 -17.7234 -962.177
24.061199 -17.356701 -962.48297
25.616501 -16.775801 -963.11902
26.443199 -16.4557 -963.55298
28.0072 -16.1618 -963.75403
28.419399 -15.7923 -964.203
29.5347 -15.3294 -964.71301
30.781799 -15.0826 -965.62402
31.780001 -14.4453 -966.05603
32.349098 -14.1809 -966.45697
32.970501 -14.125 -967.10101
34.8358 -13.263 -967.68298
36.361198 -12.7686 -968.21301
37.833698 -11.5649 -969.729
40.276402 -10.5115 -972.86902
43.814602 -8.8789997 -975.18701
46.356201 -7.1384301 -979.54797
46.937901 -6.5706601 -981.07703
47.726501 -6.2711601 -982.04602
48.344601 -5.5964098 -983.35797
49.9338 -4.4714999 -985.81897
50.1656 -4.0925598 -986.99597
50.512501 -3.7825601 -987.75299
50.9133 -2.9969299 -989.87598
51.533199 -2.88638 -990.14398
51.685902 -2.6565499 -990.62903
51.531601 -2.51421 -991.39301
51.897701 -2.1760299 -992.50403
52.1917 -1.53795 -993.27899
51.977299 -1.72798 -993.68103
52.444901 -1.4100699 -994.39099
52.158001 -0.93829298 -995.30103
52.785599 -0.568497 -997.00897
53.3568 0.25529501 -999.28003
53.507801 0.570862 -1000.28
53.468102 0.74935198 -1001.2
53.3148 1.57477 -1003.91
53.592999 1.63071 -1004.94
53.021198 2.4611199 -1007.21
52.594398 3.05814 -1010.25
51.5681 4.4150701 -1014.93
20.047199 -17.9967 -961.40002
21.399099 -17.2565 -961.77502
23.051901 -16.9935 -962.06201
23.7045 -16.8615 -962.28302
24.948299 -16.1581 -962.68701
25.782 -16.027201 -963.09399
26.4258 -15.9594 -963.31403
27.3179 -15.6199 -963.61102
28.9811 -14.9414 -963.90503
29.523199 -14.9457 -964.32202
31.371 -13.9397 -966.078
32.117901 -13.7078 -966.36102
32.8587 -13.6066 -967.04999
33.7411 -13.4681 -966.95697
34.715801 -12.8335 -967.32898
39.690498 -10.427 -971.80603
43.842999 -8.4157305 -975.35303
44.689301 -7.8013501 -976.56799
45.2248 -7.3780398 -977.62903
45.617298 -7.0432301 -978.67401
46.327599 -6.6492801 -979.375
46.8325 -6.2664599 -980.25299
48.225498 -5.1281199 -983.22803
48.5644 -4.9296198 -983.54797
48.827301 -4.85043 -984.047
49.381699 -4.06987 -985.90601
49.792 -3.80058 -986.41302
50.4688 -2.9573801 -988.87701
51.020401 -2.7549701 -988.948
51.244099 -2.3915901 -990.34399
51.2673 -1.84172 -991.11298
51.885899 -1.82792 -991.39398
52.292702 -1.08623 -993.13202
52.415501 -0.90652502 -994.17902
52.573002 -0.53952801 -995.22998
52.312 -0.30239901 -996.17999
52.4827 -0.141304 -997.99799
53.007401 0.57454699 -998.78601
53.3396 0.536026 -998.98297
53.4245 1.95175 -1002.32
53.303799 2.10163 -1003.72
52.841499 3.08792 -1007.56
52.541901 3.3349099 -1008.65
18.1646 -17.993999 -960.79303
19.673 -17.5016 -961.44098
23.4827 -16.412201 -962.13702
25.512899 -15.7052 -962.69897
26.9196 -15.2275 -963.797
28.298 -15.0071 -963.83698
29.3216 -14.2969 -964.08801
29.797001 -14.149 -964.91998
30.867599 -13.7175 -965.37299
31.4604 -13.2744 -966.13
31.9526 -13.1993 -966.36902
32.745998 -13.0319 -967.00299
33.720299 -12.3431 -966.67798
34.904099 -12.1428 -967.31299
38.1222 -11.05 -969.354
40.7696 -9.5896902 -971.49902
42.152802 -8.7651701 -972.89301
42.689602 -8.62988 -973.422
43.4216 -8.0841904 -974.86499
43.922199 -7.7326102 -975.74902
46.4683 -5.9658799 -979.66101
47.245098 -5.35707 -981.125
48.081402 -4.7606702 -982.50897
48.591702 -4.2936401 -984.10101
48.9636 -3.92221 -984.82202
50.3022 -3.32038 -986.83899
50.3741 -2.4535301 -988.745
50.942001 -2.0194199 -989.64899
51.340801 -1.54505 -990.95801
51.903099 -1.18145 -992.41998
52.2985 -0.38448301 -994.06299
52.4086 -0.070167497 -995.14301
52.557301 0.31266001 -996.85303
52.783501 0.93045801 -997.59601
52.789101 1.05047 -998.66901
52.9921 1.1033601 -999.23602
53.1646 1.72842 -1000.31
52.865398 1.99456 -1001.76
53.3209 2.75003 -1004
53.214199 3.2760201 -1005
52.727501 3.8383601 -1008.31
52.427601 4.2455702 -1009.91
10.5087 -19.066999 -961.29602
18.0984 -17.256399 -960.55103
22.409901 -16.022499 -961.742
23.3843 -15.8698 -962.12
24.3951 -15.6933 -962.45898
25.865101 -14.9882 -963.14801
26.8958 -14.6977 -963.112
27.775499 -14.3878 -963.771
28.772499 -13.8204 -963.961
29.625 -13.6599 -964.40399
30.0035 -13.4694 -964.922
30.779301 -13.1678 -965.15698
31.313499 -12.9652 -965.63898
32.0485 -12.6673 -966.14203
32.456501 -12.4531 -966.448
34.213699 -11.879 -967.27197
43.478298 -7.3916001 -974.99799
44.019798 -7.2116399 -975.49902
44.210602 -7.1898198 -976.15997
45.232101 -6.1998401 -977.901
45.7901 -5.8218498 -978.71399
48.375702 -3.8466201 -983.39001
49.659 -2.9101701 -986.35101
50.726002 -2.0636301 -987.63202
51.708302 -0.66775501 -991.63202
51.998001 -0.066307098 -993.12402
52.312599 0.44369501 -995.01099
52.416801 0.93038201 -996.67102
52.761902 1.52631 -998.39099
52.813202 1.82177 -999.487
52.916599 2.3480899 -1000.48
53.313 2.82688 -1002.38
52.213501 4.8838201 -1010.38
13.6208 -17.936501 -960.862
17.6619 -16.7589 -960.83698
18.6779 -16.613899 -961.24298
20.723 -16.265699 -961.49701
21.8615 -15.7773 -961.66998
22.8508 -15.4374 -961.93298
23.671 -15.2493 -962.45398
24.987 -14.7741 -962.45801
26.143801 -14.2581 -962.99597
26.6049 -14.217 -963.10901
27.6521 -13.4529 -964.28497
29.0327 -13.3151 -964.39398
29.7194 -13.0096 -964.80902
31.018499 -12.3312 -965.61902
31.5693 -12.2498 -966.05103
32.041698 -12.1328 -966.659
33.3204 -11.3953 -966.67102
37.8983 -9.9996595 -968.45398
43.956501 -6.8288002 -974.71698
46.040501 -5.1612101 -978.92499
46.556702 -4.74898 -979.81201
46.816799 -4.2583899 -980.54797
47.795101 -3.7786801 -982.30902
48.120499 -3.42219 -982.66302
48.571499 -3.2616 -983.505
48.991798 -2.8981099 -984.36798
49.9772 -1.94054 -986.87299
49.982399 -1.79874 -987.65399
51.121899 -1.06833 -988.80902
51.382099 -0.37915 -991.13501
51.846001 -0.223389 -991.29401
52.046398 0.53217298 -994.02802
52.379002 1.2594 -995.94
52.468899 1.57111 -996.94
52.8186 2.05127 -997.354
52.683701 2.1746399 -998.76398
52.828999 2.4968901 -999.76001
53.048199 4.4578099 -1006.27
52.780899 5.0838799 -1007.94
52.148998 5.52917 -1010.73
51.6418 5.9183402 -1012.49
12.8491 -17.440201 -961.08301
16.580099 -16.601101 -960.70001
17.639 -16.285 -961.03003
21.7141 -14.9841 -961.513
22.153099 -15.0174 -962.04102
23.6497 -14.4805 -962.82703
25.180599 -14.0188 -962.87903
26.351601 -13.7246 -962.94202
26.7307 -13.5144 -963.52301
27.995701 -13.136 -963.66901
28.487801 -12.875 -964.32599
29.696501 -12.5641 -964.901
30.141199 -12.2217 -965.11401
30.9772 -11.9788 -965.39001
32.1213 -11.6726 -965.85101
32.142502 -11.6346 -966.47803
32.7565 -11.1692 -966.91101
39.557301 -8.7770395 -970.72699
42.423599 -7.3384299 -972.37299
44.152599 -6.12924 -975.89203
44.820702 -5.4148302 -977.07397
46.3918 -4.3446798 -980.091
48.442001 -2.9161899 -982.784
48.9832 -2.42065 -984.16602
49.132099 -2.1389101 -984.83002
49.615398 -1.6415499 -986.34998
50.054699 -1.4313999 -986.58002
50.816601 -0.76441199 -988.24597
50.866901 -0.59918201 -988.802
51.237202 0.133286 -989.81403
50.938202 0.158096 -990.94897
51.549702 0.59102601 -992.44598
51.835201 0.89668298 -993.25098
51.836899 1.22604 -994.38
52.424 1.76112 -995.68903
52.436501 2.3452499 -997.72198
52.448002 2.64732 -998.742
53.033001 2.8573899 -999.16199
52.6563 3.3196101 -1000.8
52.773399 3.8645301 -1002.7
53.154999 4.3879499 -1004.9
53.141998 4.89891 -1004.85
52.7547 4.9650202 -1006.41
52.435001 5.4668498 -1008.41
5.20612 -18.619101 -960.83698
12.7066 -16.980499 -960.65802
17.726801 -15.7541 -960.53699
19.236 -15.361 -961.14801
21.974001 -14.4338 -961.85498
22.658199 -14.2382 -962.08301
26.129 -13.213 -962.89001
26.715401 -12.9732 -963.22302
28.512501 -12.3327 -964.02197
29.266701 -12.0453 -964.52502
30.0205 -11.5611 -964.99902
30.4426 -11.5214 -965.5
31.0289 -11.2584 -965.953
31.8444 -11.002 -966.229
33.466599 -10.6083 -966.15198
36.2458 -9.4920702 -967.78003
43.949501 -5.8359199 -974.39697
44.056301 -5.6584802 -974.93799
44.597599 -5.2845898 -975.67798
44.408798 -4.8392401 -977.24902
45.8666 -4.0227799 -978.86902
46.9949 -3.3810999 -980.44598
47.8578 -2.7300501 -981.78302
48.904999 -2.07182 -983.36401
49.305801 -1.52194 -984.95801
50.2785 -0.61167902 -987.37799
50.862099 -0.111053 -988.58197
51.0364 0.58074999 -990.979
51.389099 0.83723402 -991.42798
52.129601 1.6628 -993.68903
52.065601 2.05602 -995.185
52.506599 2.5415299 -996.41498
52.4986 3.2567401 -998.42603
52.449299 3.4684401 -999.62402
52.7001 3.8066199 -1000.55
52.557598 4.0915799 -1001.67
52.5928 4.5170398 -1003.03
52.7257 5.32583 -1005.19
52.3708 5.9377198 -1008.22
52.032299 6.51016 -1010.43
51.206799 7.5286298 -1015.14
13.3211 -16.4405 -959.966
15.1389 -16.0205 -960.698
17.402599 -15.1255 -960.85199
18.550699 -14.9666 -961.03497
20.508499 -14.4039 -961.46503
21.417999 -14.0184 -961.70099
23.455299 -13.647 -962.44299
24.446199 -12.9819 -962.65997
26.572001 -12.4639 -963.05298
27.092199 -12.0391 -963.79999
28.160801 -11.8769 -964.18903
29.0599 -11.7195 -964.62097
29.800301 -11.0991 -965.05499
30.2955 -11.0204 -965.375
31.1677 -10.7452 -965.59698
31.7749 -10.5283 -966.00403
34.871899 -9.5526505 -966.76398
35.924599 -9.0367203 -967.79199
40.015999 -7.3756299 -970.35303
43.7248 -5.3519402 -974.32599
44.0065 -5.07546 -974.776
44.387798 -4.8073602 -975.68298
44.541302 -4.4383502 -976.86499
49.162201 -1.05186 -984.88501
50.1422 -0.138382 -987.25299
50.014801 -0.191154 -988.21399
50.900799 0.37583899 -988.35303
50.442001 0.53960401 -989.49701
51.149399 1.0727201 -990.659
51.2598 1.39469 -991.71899
51.7971 1.49743 -991.90302
51.6362 1.86763 -992.98602
51.558399 2.01493 -993.59698
51.979599 2.33355 -994.74799
52.073502 2.96821 -995.63599
52.493401 3.09427 -996.33698
52.388901 3.18133 -997.45099
52.435299 3.75685 -998.31702
52.736099 3.8747101 -999.20697
52.9524 5.1712399 -1002.48
52.251598 6.57096 -1008.57
12.3116 -15.9109 -960.39801
16.407801 -14.7679 -960.97498
18.271099 -14.4776 -961.14099
21.081499 -13.6509 -961.414
22.415001 -13.3153 -962
23.031 -13.0381 -962.15802
23.894199 -12.7135 -962.521
25.275 -12.3873 -962.96899
26.669399 -11.7504 -963.79999
27.8517 -11.428 -964.02002
28.9156 -11.2447 -964.62701
30.3022 -10.4711 -965.10901
31.049999 -10.3468 -965.70697
32.871498 -9.68433 -966.09802
35.408001 -8.5297499 -967.271
36.218102 -8.3201799 -968.18402
38.0858 -7.4218302 -969.56299
38.745399 -7.2951999 -969.54901
40.767899 -6.3836699 -971.20898
43.3634 -5.0794401 -973.66498
43.574299 -4.6694298 -974.26898
44.503799 -4.2585902 -975.43402
44.248001 -3.8940699 -977.11298
45.600498 -3.22047 -978.383
48.495701 -1.17524 -983.28302
49.098801 -0.57319599 -984.716
49.922199 0.038429301 -986.05402
50.031502 0.34446701 -987.13898
49.917198 0.37418401 -988.12097
50.394501 1.3507299 -990.48901
51.006199 1.8796099 -991.69702
51.495399 2.2264299 -992.36102
51.562099 2.6923201 -993.98401
51.862301 3.0396199 -994.92401
52.2225 3.49367 -995.44098
52.230202 3.52337 -996.28802
52.406898 3.96436 -997.599
52.4678 4.8053398 -999.24298
52.6008 4.9509602 -1000.3
52.877701 5.0260201 -1001.26
52.4795 5.6093102 -1003.19
52.5154 5.7711101 -1004.09
52.256699 6.4787898 -1007.1
52.196201 7.1635599 -1008.47
51.985199 7.2075901 -1009.9
51.365799 8.0596504 -1013.24
9.448 -16.324699 -960.27802
10.73 -15.7342 -960.83502
14.4769 -15.0876 -960.54401
17.973801 -13.9766 -960.83698
19.586901 -13.5647 -960.99597
21.753799 -12.9525 -961.85699
23.900801 -12.1214 -962.32501
25.360399 -11.8811 -962.78802
26.1744 -11.7216 -963.25098
26.750099 -11.2764 -963.48798
27.9783 -10.9309 -963.68799
28.593599 -10.6161 -964.24298
29.3295 -10.1385 -964.62598
30.239599 -9.9766903 -965.04999
31.0504 -9.77738 -965.21997
31.755199 -9.7465401 -965.66302
32.830101 -9.2156296 -965.92297
35.633301 -8.0915804 -967.53302
36.5182 -7.6099801 -968.466
37.423199 -7.5553298 -968.95099
37.7845 -7.1035299 -969.23499
38.778 -6.8250198 -969.39899
39.864601 -6.4054699 -970.06702
42.959801 -4.7571602 -974.03198
44.810799 -3.2614601 -976.89899
44.803902 -3.1108899 -977.55298
46.9688 -1.68994 -980.66498
47.648899 -1.1418101 -981.94598
47.689602 -0.91896099 -983.20398
49.075001 -0.085693397 -984.53198
49.489601 0.159996 -984.97699
49.422401 0.129784 -985.79401
50.2309 1.12876 -987.89697
50.326401 1.60229 -988.46997
50.868698 1.8727601 -990.64203
51.133701 2.3680601 -991.388
51.442001 2.7003 -992.17401
51.641102 2.6898201 -992.79797
51.867401 3.2784901 -993.55103
52.003799 3.4066899 -994.508
51.999901 4.1507101 -996.75098
52.2822 4.7210202 -998.27197
52.384399 5.4169002 -1000.39
52.314999 5.66044 -1001.71
52.294102 6.26933 -1004.24
52.447899 6.4264398 -1005.47
51.926601 6.9777002 -1006.47
51.844799 7.83144 -1009.38
8.8468599 -15.9118 -960.198
12.1492 -14.9275 -960.29303
13.8729 -14.6682 -960.42401
15.8889 -13.8975 -960.66101
17.0966 -13.5877 -961.133
19.789499 -12.7819 -961.17902
20.5387 -12.7189 -961.17603
21.6663 -12.4921 -961.81201
22.665001 -11.7997 -962.03302
23.563499 -11.7809 -962.28302
24.728701 -11.4805 -962.64502
25.653601 -11.3114 -962.97302
26.6915 -10.7683 -963.27899
27.6639 -10.4513 -963.60797
28.610201 -10.1348 -963.97101
30.120399 -9.4518995 -965.013
30.995899 -9.2937899 -965.51801
31.6395 -9.1783104 -965.61603
32.845699 -8.6614704 -965.68903
33.727699 -8.3713102 -965.96698
34.427399 -8.1378298 -966.66498
34.959599 -7.8427801 -966.92603
35.443199 -7.3522 -967.60498
36.0839 -7.36169 -967.83801
36.878799 -7.0940299 -968.57397
37.5742 -6.96521 -968.64398
38.0037 -6.55936 -968.94501
38.815201 -6.3310499 -969.17499
39.658298 -5.86274 -969.97302
41.382801 -4.64885 -971.867
43.1898 -3.9288599 -973.88702
43.502399 -3.7423601 -974.34399
43.968201 -3.05392 -975.39697
44.644299 -2.7840099 -976.789
46.8671 -1.396 -979.664
47.154301 -1.13517 -981.24902
47.857201 -0.38079801 -982.164
48.556301 0.15062 -984.24597
49.226601 0.67267603 -985.83698
49.9011 1.4873 -987.92798
50.0415 1.65124 -989.55499
51.0634 2.2315099 -988.80298
51.3162 3.06915 -991.979
51.6087 3.5081899 -992.92499
51.9147 3.8878601 -993.82397
51.7924 4.1796298 -995.133
51.972198 4.3319702 -995.53302
52.033401 4.6394 -996.508
52.325401 5.2497902 -998.17401
51.723499 7.6100702 -1007.48
51.362701 9.0803299 -1011.28
8.6017504 -15.2214 -959.64301
13.8393 -13.7265 -960.25098
15.1271 -13.5344 -960.59802
17.2171 -13.1998 -960.57501
18.9356 -12.4265 -960.73999
20.3976 -12.2555 -961.00201
21.2171 -11.9173 -961.55798
22.395599 -11.5784 -961.73499
23.917999 -11.1178 -962.07898
24.6738 -10.9508 -962.55798
26.483299 -10.0932 -963.20599
27.678301 -9.9121304 -963.37598
28.4718 -9.7366104 -964.03601
29.391899 -9.0173302 -964.31299
29.913799 -9.0686398 -964.633
30.744699 -8.7780504 -964.88
31.6126 -8.6404896 -965.51898
32.676998 -7.8832402 -965.60199
33.478699 -7.7423701 -966.12903
35.934601 -6.8278098 -967.76001
36.466702 -6.5359902 -968.18402
37.5228 -6.43678 -968.48401
39.007099 -5.6352701 -969.59601
43.507999 -3.21032 -974.19098
43.423199 -3.17645 -974.99902
43.977001 -2.68646 -975.698
44.492599 -2.2743101 -976.66998
45.5839 -1.57314 -978.505
46.360001 -0.771469 -980.09802
47.73 0.16761 -982.12903
48.308899 0.55029303 -983.34698
49.380001 1.19872 -984.53101
50.2486 2.08376 -987.51501
50.3908 2.65591 -988.17499
50.638199 2.8828499 -990.60498
50.9935 3.2318799 -990.47101
51.145901 3.54071 -991.461
51.233601 3.6687701 -991.92902
51.623001 4.2398901 -993.55701
51.893002 4.3641601 -994.42902
51.760502 4.9576502 -995.5
52.0345 5.1570301 -996.28699
52.118801 5.6742601 -997.18701
52.005001 5.7353902 -998.37097
52.150299 6.0714698 -999.37701
52.487701 6.4812799 -1000.1
52.191002 6.5920501 -1001.58
52.529099 6.6886902 -1002.59
52.122898 7.5471902 -1004.41
52.243301 8.0878897 -1005.56
52.298801 8.2420797 -1006.94
51.653801 8.9177599 -1009.19
8.7028799 -14.6601 -959.383
10.4633 -14.2269 -959.97699
13.8431 -13.1896 -960.14001
14.8107 -13.0519 -960.32703
17.251801 -12.5339 -960.34003
19.888901 -11.7856 -961.02698
21.008101 -11.5599 -961.539
23.3253 -10.7485 -961.86102
24.5807 -10.4188 -962.49597
25.128099 -10.1253 -962.75702
26.439699 -9.5409002 -963.11499
27.422199 -9.3717699 -963.53198
28.0599 -9.1313896 -963.86401
28.855 -8.8441 -964.263
29.911301 -8.54811 -964.35498
30.6754 -8.2333803 -964.92297
31.249399 -8.0444202 -965.11401
36.042702 -6.2300801 -967.50299
38.299301 -5.3807101 -968.98401
40.666 -3.80602 -971.78998
41.3507 -3.64008 -972.57001
41.843899 -3.4522099 -972.914
42.931702 -2.84374 -974.09497
46.575001 -0.26699099 -980.15698
47.243698 0.117531 -980.98199
48.670502 1.2417099 -983.63898
49.727402 3.0630701 -988.59497
50.794102 3.21629 -988.57001
51.230499 3.7383001 -990.06897
50.887299 4.01578 -991.43298
51.195301 4.0380101 -991.88599
51.4216 4.6813002 -992.58899
51.5284 4.8354602 -993.71002
51.6077 5.3747602 -994.45203
51.660301 5.44347 -995.48199
52.094002 5.57446 -996.21002
51.9473 6.0647001 -997.64899
52.198898 6.2669401 -998.08197
52.242401 7.0363402 -1000.63
52.179699 7.2726598 -1001.63
51.982101 8.0362997 -1004.32
51.643299 8.7530203 -1007.48
51.007198 9.5509501 -1010.22
12.1432 -13.1709 -960.24402
14.5195 -12.6183 -960.33801
16.997601 -12.1944 -960.51801
18.1896 -11.6363 -960.66901
19.7069 -11.2192 -960.89502
20.6966 -10.9508 -961.24799
21.700399 -10.6383 -961.64801
23.254801 -10.0826 -961.78003
24.0054 -9.9518099 -962.29602
25.0499 -9.6146498 -962.48999
25.9119 -9.2963305 -963.01202
27.420099 -8.9061699 -962.987
28.123899 -8.6483498 -963.52301
28.6523 -8.3776703 -964.11401
29.290899 -8.10287 -964.56097
29.9568 -7.82371 -964.94702
31.0348 -7.51686 -965.005
32.030102 -7.28304 -965.44501
33.127602 -6.9221501 -965.66199
33.818699 -6.6182599 -966.08899
34.582802 -6.4784098 -966.77899
35.0881 -6.0585499 -967.034
36.086201 -5.7589302 -967.23901
37.727798 -5.0683699 -968.47803
38.422298 -4.7726498 -969.35602
41.761501 -3.0058601 -973.52197
42.2015 -2.3733499 -973.81
43.404202 -1.56718 -974.90399
43.710899 -1.4889801 -975.45203
45.4828 -0.54516602 -977.98199
45.562199 -0.36893499 -978.57703
46.702499 0.469376 -980.492
48.905899 2.1918001 -984.87299
50.0583 3.0551 -987.46002
50.2584 3.5036299 -988.16602
50.7929 3.7142301 -988.349
50.5285 4.0318799 -989.85797
51.053299 4.2259302 -989.98901
50.856201 4.5145602 -991.242
51.105202 4.5523901 -991.82599
51.360401 5.1757102 -992.547
51.375401 5.31075 -993.62299
51.658001 5.9608202 -995.40399
51.796398 6.2722301 -996.50897
52.002899 6.5702701 -997.38397
51.970001 6.8796601 -998.52698
52.1227 6.9398499 -999.14801
52.197701 7.8455601 -1002.7
51.9977 8.2194099 -1003.02
52.254299 8.5318499 -1003.95
51.7897 9.2296696 -1005.76
50.837601 10.0468 -1010.13
51.140099 10.2337 -1011.47
10.3006 -13.1847 -959.76801
13.2674 -12.1673 -959.83002
14.8523 -11.9604 -960.073
15.8344 -11.8112 -960.28198
19.4764 -10.6794 -960.95001
20.6199 -10.5002 -961.06702
21.514601 -10.3487 -961.44702
22.586399 -9.8420095 -961.82898
24.2041 -9.4389296 -961.73499
24.912901 -9.2307596 -962.51501
27.102699 -8.4312496 -962.94598
27.733101 -8.2015495 -963.65302
28.694901 -8.01021 -964.06897
29.325399 -7.5789399 -964.27197
30.0947 -7.3168302 -964.60602
30.866899 -7.1300702 -965.14203
31.361 -7.0605898 -965.36798
33.0909 -6.3979301 -965.35498
33.741001 -6.1465502 -966.16602
34.201698 -5.85291 -966.505
35.282398 -5.5545201 -966.66901
35.966202 -5.3210802 -967.28497
36.676102 -5.0312099 -967.54401
37.430401 -4.4856 -968.62903
38.4921 -4.23633 -970.01801
40.682098 -2.75261 -971.633
45.3452 -0.084968597 -977.85101
45.821301 0.32687399 -978.88
46.224998 0.52522999 -979.245
46.875801 1.0855 -980.94299
47.616901 1.1942 -981.20502
46.9641 1.65452 -981.591
47.897598 1.7431901 -981.87799
47.867199 1.84521 -982.42401
48.162498 1.90704 -982.99597
49.771 3.4420099 -986.54199
50.004299 3.8087001 -987.53198
50.1194 4.1161799 -988.07098
50.895901 4.9629002 -990.94598
51.1343 5.3046498 -991.84302
51.437901 5.7186399 -992.38501
51.563499 5.7969098 -993.30798
51.515301 6.1490998 -994.47101
51.5853 6.4530001 -995.48199
51.816399 6.7466402 -996.27502
51.924301 7.3727498 -998.341
52.0443 8.1973896 -1000.23
52.101002 8.30196 -1001.34
51.715 8.6849699 -1003.02
51.8326 9.1613598 -1004.51
51.081501 10.0641 -1008.28
12.6066 -12.2846 -959.80701
17.2391 -10.7832 -960.677
19.4067 -10.2999 -960.39301
20.473 -9.9459 -961.05701
23.0872 -8.9837799 -961.67603
23.7127 -8.9736404 -961.82397
24.9583 -8.6678495 -962.35797
25.869499 -8.0204201 -962.64301
26.898899 -7.8380098 -963.01599
27.457001 -7.6817899 -963.43903
28.278099 -7.5907102 -963.71301
29.904499 -6.8445101 -964.58099
30.7924 -6.6861401 -965.09998
31.647301 -6.3393698 -964.88501
32.378201 -5.9611602 -965.55798
33.870998 -5.6785898 -965.97699
35.8815 -4.8197498 -967.21899
38.4268 -3.5329599 -969.19397
39.285198 -2.43185 -971.17401
44.028099 -0.32080099 -976.09698
46.024899 1.00739 -979.16302
47.619499 2.1161499 -981.91199
47.858002 2.31915 -982.38599
48.873199 3.0422201 -984.14099
49.115501 3.21594 -985.39398
49.8106 4.2641602 -987.48901
50.6586 4.6796298 -988.04602
50.242199 4.9830899 -989.638
50.6334 5.3440599 -990.47498
50.870998 5.5052199 -990.784
51.001999 5.7575102 -991.73102
51.248798 6.1349001 -992.698
51.957802 7.3273101 -997.01501
51.891602 7.8653998 -998.13702
51.8494 8.8123999 -1001.46
51.716801 9.3336897 -1003.34
51.985699 9.6071501 -1004.02
51.690102 10.2009 -1005.74
51.6707 10.3223 -1007.41
12.9252 -11.4675 -959.18201
16.269699 -10.6223 -960.21002
17.4811 -10.2544 -960.18597
18.442699 -9.8642702 -960.71997
21.132401 -9.19174 -961.09998
22.66 -8.7946501 -961.151
23.679701 -8.4018297 -961.64697
24.603901 -8.2617598 -962.01898
26.7251 -7.3941302 -963.05902
28.2206 -6.6946201 -963.58099
28.612101 -6.6683302 -964.224
30.0096 -6.3399901 -964.09003
31.384501 -5.61026 -964.98602
32.2766 -5.42976 -965.45398
33.078201 -5.3186998 -965.90002
34.081001 -5.13065 -966.20697
34.907501 -4.5775299 -966.47498
35.377602 -4.3428001 -967.04102
37.0429 -3.68661 -968.078
43.646702 -0.0340042 -975.466
45.016102 0.90204602 -977.66602
46.6847 2.0378499 -980.88898
48.394001 3.3126199 -982.914
49.439602 4.5746198 -986.953
50.428799 5.28614 -989.35901
50.410301 5.80163 -990.43701
50.728699 6.10392 -991.203
51.228901 6.8884702 -993.33099
51.477901 6.99786 -994.276
51.440601 7.5655699 -995.65802
51.657501 7.7323399 -995.95502
51.5172 7.8771 -997.29602
51.7938 8.6831303 -999.11102
51.672298 9.5372801 -1002.1
51.5728 10.6713 -1005.87
51.432701 10.8276 -1007.58
51.1749 11.5967 -1009.52
50.100399 12.2595 -1012.86
14.113 -10.3893 -959.81097
16.9662 -9.7974005 -960.21301
18.572901 -9.3527803 -960.31097
19.4727 -9.07411 -960.95001
22.1583 -8.3455 -961.18799
23.5884 -7.9341402 -961.61603
24.487499 -7.78793 -962.00201
25.215 -7.1508899 -962.39001
27.2068 -6.8610802 -963.14697
28.363001 -6.4072299 -963.24402
29.045 -6.0345101 -963.93903
29.5854 -5.9106398 -964.17902
30.6749 -5.5782199 -964.24799
32.121101 -4.9779 -965.38599
33.114101 -4.81602 -965.711
34.069599 -4.1409202 -966.03497
34.404701 -4.1803598 -966.53198
40.394001 -1.25994 -971.90802
41.573002 -0.84302503 -972.63
46.1166 1.81181 -978.90698
46.490398 2.4321899 -980.10699
48.0536 3.2356901 -981.66302
48.788502 4.3425899 -984.896
49.4272 4.9435802 -986.19
49.866901 5.7426801 -988.83801
50.356098 6.58007 -991.05798
50.747898 6.6813502 -991.70697
51.2924 7.26929 -992.797
51.251301 7.55862 -994.33197
51.422901 8.0788698 -995.45801
51.706402 8.3317604 -996.00598
51.793098 8.4879503 -996.97601
51.845299 9.0685196 -997.88202
51.5187 9.29877 -999.65698
51.678001 9.8632603 -1001.4
51.665699 9.9361496 -1002.82
51.530899 10.2985 -1003.06
51.1521 11.2664 -1006.63
13.4466 -10.0113 -959.71997
15.1468 -9.7520199 -959.87201
17.2894 -9.0172005 -960.83301
19.2794 -8.5367403 -960.745
20.4709 -8.2288399 -960.97699
22.056801 -7.7149401 -961.02698
23.6749 -7.4559698 -961.46399
23.8458 -7.4010501 -961.88
25.142599 -6.6842299 -962.341
27.031799 -6.3829699 -963.17297
28.1359 -5.6272402 -963.31702
30.255899 -5.08848 -964.57703
31.285101 -5.0801802 -964.83197
32.284401 -4.4454999 -965.15002
32.940701 -4.3529902 -965.23499
33.618 -3.9470899 -965.81702
35.203899 -3.4116399 -966.453
35.874901 -3.7906201 -967.11298
46.908298 3.30021 -980.51501
47.291 3.70909 -981.75403
49.347698 5.3965702 -986.01398
49.978901 6.0770502 -987.89001
50.076 6.4131999 -989.40997
50.815498 7.40799 -991.77399
51.064201 8.0355101 -993.29102
51.0947 8.1044197 -994.367
51.499298 8.7393303 -995.06403
51.494099 9.1531 -997.24799
51.721901 9.5180998 -997.90802
51.5037 9.69314 -1000.38
51.453201 10.1956 -1000.89
52.0494 10.9963 -1002.41
51.320999 11.2435 -1004.53
51.1586 11.7441 -1006.09
11.6166 -10.1164 -958.92401
13.2737 -9.6975298 -959.289
14.0669 -9.3766603 -960.02197
16.0355 -8.8862495 -960.12701
18.4867 -8.2656002 -960.18799
19.655001 -8.0514402 -960.13
20.6257 -7.7073102 -960.54401
21.429001 -7.44239 -961.11499
22.7997 -7.0686998 -961.46802
24.6052 -6.2575698 -962.09198
26.8951 -5.8602099 -963.14001
28.812599 -5.4959602 -963.91302
31.6989 -4.0966301 -964.948
32.8419 -3.7804899 -965.25897
33.699501 -3.63111 -965.72699
34.052799 -2.9646001 -966.46997
37.8284 -1.59717 -968.73297
41.474201 0.35298201 -972.66699
43.724602 1.63467 -975.40399
45.3797 2.7560799 -978.07202
46.480999 3.4521401 -979.91199
48.852699 5.2335 -983.836
49.337299 5.9093099 -985.784
49.629002 6.0787702 -986.10303
49.572399 6.1572099 -987.24701
50.4249 6.9443102 -988.59399
50.2346 7.41293 -990.396
50.843601 7.8863401 -991.53802
50.957699 8.2368498 -992.617
51.123699 8.57969 -993.68402
51.2136 8.7353897 -994.15601
51.155499 8.9995203 -995.23297
51.415298 9.3276596 -996.005
51.6395 10.1297 -999.06702
51.4384 10.9754 -1001.63
51.7005 11.6142 -1004.04
50.6991 12.3767 -1007
49.7244 13.4401 -1011.36
11.3381 -9.3645897 -959.052
12.6235 -9.2501802 -959.48499
14.1456 -8.8195601 -959.60199
15.9296 -8.16469 -959.95599
17.6066 -7.8954501 -960.22803
20.1982 -6.9920902 -960.65503
21.983 -6.7239099 -960.87201
22.407499 -6.5753498 -961.18402
23.6586 -6.4098401 -961.79901
24.825001 -5.8345199 -961.84802
26.0375 -5.50037 -962.44501
27.2826 -5.15729 -962.62097
30.5467 -4.21172 -963.99103
31.058701 -3.46753 -965.40698
32.069302 -3.3025301 -965.26202
34.166199 -2.68313 -965.77802
36.711102 -1.34604 -968.09601
43.469398 2.164 -975.60999
44.7896 3.01561 -977.34302
45.821201 3.4580801 -978.20599
46.8619 4.1304898 -981.17603
47.2491 4.5556002 -981.02502
47.729698 4.9556599 -982.70502
48.554298 5.4843898 -983.22302
48.655602 5.8719702 -984.33099
49.194901 6.07967 -984.56201
49.163898 6.3654399 -985.74701
49.152599 6.71071 -986.86499
49.353901 6.70755 -987.30402
49.8456 7.45365 -988.53802
50.694 8.2248898 -990.87
50.7169 8.3913002 -991.40002
50.8144 9.0009203 -993.34497
51.1161 9.1063805 -994.20398
51.223099 9.7952805 -996.16498
51.2924 10.4126 -997.10999
51.339901 10.4525 -998.04999
51.736401 11.2679 -999.98199
51.547001 11.3865 -1001.4
51.742699 12.0257 -1002.57
51.1437 12.1048 -1004.49
50.457901 13.4743 -1008.89
9.5524302 -9.3523598 -959.15601
12.2544 -8.7498798 -959.36298
13.3105 -8.3692102 -959.80701
16.015301 -7.62321 -959.78101
17.1436 -7.4904399 -959.91803
19.130199 -7.0422101 -959.80402
19.817699 -6.7267499 -960.44501
20.7486 -6.4622998 -960.87402
22.198299 -6.0783801 -961.052
23.527201 -5.7316999 -961.22699
25.7913 -5.0430298 -962.32898
27.1229 -4.82693 -962.55701
27.901199 -4.39536 -962.76703
28.643101 -4.1289401 -963.04102
29.231001 -3.8599501 -963.44397
29.764099 -3.64185 -963.85699
31.1217 -2.88936 -965.25
32.117599 -2.7850599 -965.03802
37.624401 -0.588745 -968.47601
40.069599 0.85855103 -971.36298
41.554199 1.54152 -972.83398
43.1049 2.41412 -974.711
44.6007 3.34952 -976.83301
46.1409 4.49891 -979.95502
47.051601 5.12674 -980.93298
47.379902 5.3347702 -981.21198
47.343399 5.3947001 -982.13599
48.4394 6.3475299 -984.388
49.216702 7.2052202 -986.55298
49.615101 7.73066 -988.11298
49.949699 8.3638 -990.177
50.5228 8.7121801 -990.76898
50.740799 9.2023497 -992.35303
50.995701 9.4984903 -993.10602
51.0961 9.61759 -994.11902
51.443199 9.7434101 -994.93298
51.145901 10.1609 -995.26099
51.4804 11.0419 -997.89398
51.437901 11.1559 -999.039
51.417198 11.8068 -1000.71
51.1661 12.5906 -1002.96
50.886398 13.4267 -1006.27
49.596298 14.4477 -1010.99
13.7497 -7.9438701 -959.599
15.3064 -7.2006102 -959.73602
17.063999 -6.9341002 -959.922
19.7507 -6.2747202 -960.172
20.491899 -5.85431 -960.73602
21.9498 -5.6122098 -961.23901
24.6313 -4.8785601 -961.71301
25.876499 -4.4976702 -961.802
26.7883 -4.31742 -962.18597
27.5096 -4.1634202 -962.85101
28.366501 -3.43349 -962.71399
28.8508 -3.3250599 -963.461
29.6224 -3.1746099 -963.99902
30.3878 -3.07125 -963.96503
31.088699 -2.4182501 -964.53699
32.2495 -2.26442 -964.67401
32.850899 -2.0764599 -965.45099
