# .PCD v0.7 - Point Cloud Data file format
VERSION 0.7
FIELDS x y z
SIZE 4 4 4
TYPE F F F
COUNT 1 1 1
WIDTH 1668
HEIGHT 1
VIEWPOINT 0 0 0 1 0 0 0
POINTS 1668
DATA ascii
42.232601 9.9289904 -974.599
42.5401 10.1211 -975.00897
42.969501 10.3333 -975.36401
43.459599 10.7181 -976.41699
43.669102 10.9269 -976.96899
43.962898 11.1254 -977.44
44.296799 11.3147 -977.84302
45.417702 12.3637 -980.755
46.140598 12.7628 -981.60498
46.962898 13.4176 -983.28497
47.273602 13.8009 -984.24799
49.283199 16.347601 -991.42499
49.289299 16.9431 -993.51703
49.815701 18.088301 -995.13397
49.6959 18.2342 -995.78802
49.805099 18.3552 -997.88599
49.910801 18.509899 -998.245
49.7463 18.956499 -999.86298
49.7523 19.275801 -1000.92
49.434299 19.9818 -1001.51
49.353401 20.373899 -1002.95
48.989601 21.0399 -1005.5
48.472801 21.492399 -1007.28
32.025799 5.6538301 -965.16199
32.676601 5.90311 -965.49597
33.409599 6.1403499 -965.70898
33.708401 6.3503199 -966.28998
34.2784 6.5646901 -966.72803
34.882599 6.8073502 -967.138
35.273399 7.0455599 -967.70599
35.898201 7.3097901 -968.06897
36.301601 7.54354 -968.62402
36.788601 7.7540598 -969.05499
38.257401 8.3607302 -970.08002
38.7076 8.5634699 -970.466
39.046501 8.7596302 -970.97498
39.2411 8.9509602 -971.58899
39.8358 9.2071199 -971.94501
40.310699 9.4409103 -972.35498
41.388199 10.0296 -973.68799
41.923801 10.2332 -973.98401
42.152699 10.4153 -974.39899
42.278 10.618 -974.93298
42.877399 10.8109 -975.17902
43.3437 11.1894 -976.25
43.7682 11.5919 -977.362
44.169399 11.786 -977.71802
44.1007 11.9413 -978.41498
44.720299 12.3036 -979.12
44.903099 12.4701 -979.59399
46.931702 13.9687 -983.06799
47.2887 14.1786 -983.41901
47.456799 14.4587 -984.45203
47.160198 14.6127 -985.336
48.1595 15.5064 -987.59698
48.867901 16.010099 -988.638
49.023701 16.3298 -989.69397
49.123798 16.5119 -990.22302
49.514702 17.311199 -992.711
49.634499 17.6126 -993.62201
49.837799 18.855801 -997.71503
49.8578 19.455299 -999.61401
49.177898 21.055 -1003.74
48.264999 22.035601 -1007.67
48.119999 22.129 -1008.16
48.121399 22.259899 -1008.6
46.862301 23.069901 -1012.11
31.7192 6.1099701 -965.12799
32.198399 6.3693199 -965.58002
32.794102 6.56776 -965.91101
33.568901 6.8116899 -966.159
34.137501 7.02811 -966.55902
35.138802 7.5322599 -967.52002
35.610401 7.7329302 -968.00598
36.259499 7.9977598 -968.383
36.823898 8.21873 -968.755
37.2365 8.4215899 -969.20697
37.891701 8.6550598 -969.42499
37.932201 8.8189001 -970.06897
38.4146 9.0518599 -970.43903
38.7906 9.2449903 -970.87598
39.381599 9.4840298 -971.21802
39.8918 9.7097702 -971.64099
40.116798 9.9056597 -972.237
40.7089 10.1481 -972.53601
40.888199 10.3224 -973.13702
41.537998 10.6954 -974
41.960098 10.8824 -974.302
42.299599 11.0977 -974.68103
42.5159 11.2561 -975.198
43.0051 11.4803 -975.52002
43.095501 11.6605 -976.20801
43.3769 11.8733 -976.69501
44.023499 12.2797 -977.573
44.655602 12.6284 -978.328
44.9534 12.9492 -979.302
45.4086 13.3342 -980.33398
45.802898 13.7011 -981.37
46.042801 13.8827 -981.789
47.089401 14.4932 -982.74597
47.136002 14.6496 -983.31897
47.442699 14.9728 -984.27698
47.886299 15.3488 -985.22601
48.049801 15.6842 -986.37201
48.244598 16.0049 -987.39398
48.5634 16.310699 -988.211
49.1334 16.9802 -990.07599
48.8433 17.601999 -990.76202
49.5471 17.686199 -992.026
49.443501 18.5439 -993.37799
49.446098 18.889099 -994.466
49.0816 21.383101 -1004.72
48.6754 21.7738 -1006.51
31.077299 6.3919501 -964.45099
31.498699 6.5890002 -964.99402
32.2313 6.84232 -965.276
32.6483 7.0627098 -965.73297
33.493198 7.2873998 -965.89899
33.8479 7.5023198 -966.50403
34.590401 7.79913 -966.75403
35.078098 8.0019102 -967.29303
35.3703 8.1994896 -967.91302
36.1469 8.4697599 -968.18597
36.483501 8.7010899 -968.74701
36.997101 8.9144001 -969.10199
37.795399 9.3083801 -969.93903
38.301601 9.53162 -970.24701
38.923401 9.7588501 -970.54498
39.151299 9.9658203 -971.13098
39.715 10.18 -971.505
40.625599 10.6264 -972.35999
40.700298 10.7934 -973.02698
41.362499 11.1679 -973.87402
41.898899 11.3802 -974.09198
42.202202 11.5545 -974.48999
42.436298 11.7379 -975.021
42.7999 11.9557 -975.42798
43.400299 12.3523 -976.435
43.699902 12.5652 -976.92499
44.054298 12.9334 -977.96503
44.365501 13.252 -978.93597
45.217701 13.8685 -980.22601
46.092999 14.2709 -980.94202
46.410599 14.6157 -982.00702
46.680401 14.7759 -982.39899
47.178299 15.1077 -983.15302
47.153 15.2478 -983.77502
47.256199 15.5798 -984.94501
47.767502 15.9555 -985.83398
48.262699 16.504499 -987.23102
48.696201 16.9468 -988.479
48.647499 17.287201 -989.67902
49.4799 18.5336 -991.20502
49.677299 18.2236 -991.76599
49.5182 18.419901 -992.81403
31.4811 7.0927 -964.72498
31.8573 7.2906299 -965.24298
32.468601 7.5114498 -965.60199
33.1506 7.7547102 -965.87299
33.623199 7.98315 -966.37097
34.066502 8.1911497 -966.92499
34.8297 8.4476099 -967.20599
36.188999 8.9781704 -967.88
36.2925 9.15767 -968.61401
36.737202 9.3573198 -968.99597
37.4464 9.6110802 -969.22198
37.852402 9.7969999 -969.60498
38.328899 10.0053 -969.98102
38.824001 10.2166 -970.37
39.204601 10.4387 -970.841
39.485001 10.6401 -971.43701
39.8339 10.86 -971.94397
40.305401 11.0701 -972.37402
40.726799 11.2826 -972.75702
41.106098 11.443 -973.14203
41.367599 11.6539 -973.62903
41.815701 11.8493 -973.92603
41.954201 11.9913 -974.45502
42.357101 12.2096 -974.85101
42.284599 12.3808 -975.62299
42.9072 12.8192 -976.59998
44.020901 13.2621 -977.146
44.146801 13.4383 -977.69598
44.396 13.6061 -978.15698
44.830898 13.7958 -978.40698
45.044102 13.9674 -978.86102
45.240101 14.1399 -979.39502
45.561298 14.324 -979.815
45.987499 15.1871 -980.72302
46.150299 15.4116 -981.797
47.441101 15.7329 -983.409
47.549999 16.2623 -985.17401
47.879299 16.9608 -987.32599
48.9785 17.824699 -989.20398
49.291901 18.3501 -990.76801
49.752399 18.9025 -992.54401
49.5467 19.215599 -993.763
49.999699 19.5921 -994.55902
50.204399 19.892599 -995.55603
50.082802 21.002001 -997.45599
50.169701 21.2812 -998.36102
50.103001 21.4277 -998.914
49.2048 23.1703 -1005.35
48.670601 23.054001 -1007.25
48.5187 23.168699 -1007.76
48.4814 23.306499 -1008.15
45.616699 24.804199 -1014.97
31.056299 7.5416899 -964.71997
31.92 7.80302 -964.93201
32.456299 8.0093603 -965.302
33.005402 8.2548103 -965.72198
33.5243 8.4779902 -966.15399
34.162998 8.73841 -966.51599
34.7911 8.9662399 -966.97198
35.184101 9.1986504 -967.55103
35.542702 9.4163904 -968.09802
36.6604 9.8484898 -968.79901
37.091999 10.0958 -969.22302
37.662998 10.2798 -969.46802
37.9613 10.4602 -969.96301
38.895302 10.91 -970.80103
39.1665 11.1073 -971.38702
39.697102 11.3228 -971.78699
39.998199 11.5245 -972.33398
40.3549 11.7369 -972.78699
40.696999 11.9284 -973.19299
41.108101 12.1434 -973.55499
41.626099 12.3287 -973.80701
42.074501 12.5605 -974.12201
42.413898 12.769 -974.58301
42.514801 12.9454 -975.24597
42.814499 13.1655 -975.78497
43.2747 13.3651 -976.15302
43.504002 13.5721 -976.73602
43.736301 13.7353 -977.23901
44.173 13.9278 -977.53003
44.872398 14.2805 -978.23297
44.9576 14.4126 -978.78198
45.250401 14.6219 -979.198
45.3354 14.8086 -979.84302
46.1675 15.3792 -981.18597
46.7859 15.9309 -982.53302
47.4319 16.6495 -984.38702
47.730301 16.975 -985.47101
48.778 17.837799 -987.56201
48.857101 17.975401 -988.09198
49.099201 18.3181 -989.07703
49.269299 18.485399 -989.58502
49.4286 18.845301 -990.651
49.752399 19.1679 -991.48602
49.657101 19.303801 -992.08002
49.943501 19.753201 -993.38898
49.815601 19.913799 -994.02698
50.126701 20.872299 -996.95801
50.067402 21.9564 -998.789
49.981098 21.757401 -1000.08
49.6852 22.4529 -1002.6
49.548599 23.2136 -1003.44
49.444599 23.374599 -1004.02
49.181499 23.6854 -1005.22
31.511 8.3034296 -964.93799
32.278599 8.5215302 -965.125
33.773201 9.2093697 -966.52899
34.252899 9.4392004 -967.05798
35.119598 9.7118702 -967.289
35.5732 9.9411697 -967.789
36.303799 10.3476 -968.81702
36.868099 10.5425 -969.12097
37.462601 10.753 -969.36499
37.782001 10.9409 -969.867
38.339199 11.1659 -970.18103
38.7714 11.387 -970.62097
39.628799 11.868 -971.59003
39.992599 12.0953 -972.09998
40.248501 12.2894 -972.65698
40.945599 12.5173 -972.84698
41.2873 12.6896 -973.26202
41.452202 12.8735 -973.82397
41.8666 13.058 -974.164
42.265099 13.2439 -974.56598
42.490398 13.4407 -975.09198
42.861301 13.6388 -975.58502
43.331699 13.8704 -975.94299
43.420799 14.0611 -976.61603
43.855301 14.2674 -976.953
44.6105 14.6143 -977.60901
44.7551 14.8048 -978.078
45.196301 15.3212 -979.65997
45.166302 15.5078 -980.31897
46.391201 16.1415 -981.414
47.161701 17.125299 -982.646
47.358799 16.814899 -983.15198
47.593601 16.9804 -983.60498
48.0037 17.362801 -984.59198
48.444 17.712299 -985.53699
48.515099 17.867901 -986.09399
48.7061 18.047501 -986.51099
48.813801 18.213499 -986.95801
48.756699 18.3433 -987.52002
49.063702 19.035299 -987.66602
49.134701 18.681601 -988.32202
49.407799 19.033899 -989.31702
49.335098 19.698601 -989.81897
49.912201 20.4879 -992.03302
50.038601 20.291599 -993.125
50.072102 21.4568 -995.19299
50.125599 21.5009 -997.26099
50.229401 21.6653 -997.63397
49.994598 22.4548 -998.69299
50.073898 22.286301 -999.84998
49.240501 24.1805 -1005.01
49.171299 24.3536 -1005.51
48.734299 24.731001 -1007.12
44.8522 26.7232 -1016.36
30.3477 8.5129204 -964.651
31.5488 8.7995005 -964.58099
31.8605 8.9774399 -965.14502
32.639099 9.2329197 -965.39801
33.082199 9.4486198 -965.87701
34.181301 9.9212503 -966.83002
35.312698 10.3902 -967.73297
35.694401 10.5955 -968.242
36.283298 10.8278 -968.54901
36.876499 11.078 -968.84698
37.262299 11.282 -969.24103
37.740501 11.4853 -969.63098
38.291599 11.71 -969.98999
38.7477 11.927 -970.46301
39.189301 12.1647 -970.961
39.695 12.3832 -971.38898
40.021198 12.5773 -971.93903
40.599701 12.8154 -972.26898
41.548901 13.3558 -973.55701
41.6898 13.5303 -974.09601
42.069599 13.735 -974.50702
42.810902 14.1644 -975.38501
43.157001 14.3457 -975.84003
43.6991 14.6159 -976.15399
43.847 14.7772 -976.70801
44.116901 14.9556 -977.12097
45.111301 15.6888 -978.94299
45.533401 15.8874 -979.33698
45.6642 16.077 -979.95001
46.129601 16.316601 -980.323
46.406898 16.477301 -980.80701
46.5574 16.6593 -981.349
47.686401 17.6432 -984.08197
48.7136 18.568399 -986.32501
49.2201 19.209999 -988.104
49.605801 20.802401 -991.62799
50.023602 20.945 -993.54303
50.020901 21.9321 -995.05298
50.146099 21.744801 -996.15601
50.162601 22.6462 -997.34497
50.046398 23.281 -999.521
50.088402 23.453699 -999.97699
50.143501 23.5902 -1000.41
49.676998 23.983 -1002.12
49.6688 24.115101 -1002.56
49.471199 24.3762 -1003.63
49.362999 24.5427 -1004.2
49.203899 24.844299 -1005.29
47.3997 26.150101 -1010.89
30.513201 9.0172195 -964.22302
30.8951 9.2246704 -964.78101
31.6952 9.4516697 -965
32.141701 9.6874504 -965.44702
32.7141 9.8944302 -965.89899
33.632099 10.1647 -966.09497
33.844398 10.3745 -966.81598
34.806499 10.6703 -966.979
35.055901 10.9025 -967.63098
35.719398 11.1627 -967.98401
36.285 11.3991 -968.32703
36.639801 11.5828 -968.83002
37.211498 11.8169 -969.12299
37.862099 12.0124 -969.388
38.4016 12.2268 -969.755
38.820999 12.4284 -970.25598
39.031399 12.6216 -970.93298
39.533901 12.8702 -971.33899
39.921001 13.0743 -971.83002
40.824001 13.4924 -972.58698
41.245201 13.6883 -972.92297
41.202099 14.3669 -973.46802
41.776402 14.0707 -973.77399
42.3256 14.2948 -974.06897
42.479 14.4733 -974.66901
42.982601 14.7342 -975.09698
43.250999 14.9309 -975.66199
43.9086 15.147 -975.90503
43.848598 15.2743 -976.67902
44.224098 15.4476 -977.08502
44.509102 15.6503 -977.505
44.7966 15.7901 -977.88898
44.957802 15.9758 -978.40997
45.528702 16.192499 -978.60999
46.214699 16.575399 -979.45697
47.000999 17.339701 -981.43402
47.133801 17.9751 -981.76099
47.293598 17.671301 -982.34698
47.557999 18.000799 -983.37
47.7141 18.6625 -983.70801
48.2351 18.5641 -984.74799
48.355 18.7183 -985.29498
48.739399 19.1924 -986.68103
48.9697 19.366699 -987.02197
49.202099 20.150101 -987.797
49.657101 20.3874 -989.98199
49.520901 21.010599 -990.46802
50.013199 22.432899 -994.84399
50.124001 22.713499 -995.75702
50.156601 23.278799 -997.61902
50.035801 23.606701 -998.742
49.914398 23.7659 -999.37402
49.884399 23.9391 -999.90503
49.593899 24.4436 -1001.94
48.827999 25.5867 -1006.23
47.7798 26.3685 -1009.5
30.6807 9.6933298 -964.64001
31.4224 9.9067402 -964.90002
32.215302 10.1658 -965.12701
32.722099 10.3948 -965.612
33.257301 10.6533 -966.08197
33.9659 10.9472 -966.487
34.632599 11.1947 -966.90698
35.406601 11.4662 -967.24701
35.747898 11.6542 -967.82397
36.115002 11.8674 -968.29401
36.801498 12.0798 -968.56897
37.182701 12.2578 -968.97699
37.798 12.4882 -969.25598
38.311401 12.696 -969.62201
38.611099 12.904 -970.20801
39.081902 13.1294 -970.659
39.572899 13.3592 -971.06201
39.828098 13.5785 -971.66699
40.396099 13.8135 -971.96503
40.9272 14.0084 -972.26898
41.2188 14.2278 -972.815
41.708599 14.5827 -973.81
42.327801 14.7912 -974.06897
42.7925 14.9909 -974.46802
43.199001 15.1844 -974.91998
43.4911 15.3966 -975.45697
43.810501 15.5825 -975.93402
44.778599 16.160101 -977.16803
45.035801 16.3424 -977.56299
45.4925 16.6721 -978.47699
45.587101 16.8626 -979.091
46.207802 17.262501 -979.99298
46.645302 17.627199 -980.96899
47.404099 18.1611 -982.09399
47.3992 18.9247 -983.17297
48.7369 19.388901 -985.42603
48.180401 20.0156 -986.23499
48.676998 20.3391 -986.87
48.879501 20.8202 -988.40399
49.120701 21.159901 -989.42499
49.421398 21.648199 -990.84399
49.7617 21.9622 -991.55603
49.866299 22.103001 -991.97998
49.7747 22.408199 -993.14001
49.911301 22.914301 -994.69397
49.934601 23.207899 -995.67401
50.071201 23.7831 -997.42798
49.699501 24.5396 -1000.31
49.290298 25.3727 -1003.34
49.0159 25.667601 -1004.51
49.036701 25.7978 -1004.96
48.195599 26.4554 -1007.65
47.126499 27.1271 -1010.63
46.435299 27.507401 -1012.28
44.270401 28.3274 -1016.54
43.999802 28.4417 -1017.08
30.492599 10.1908 -964.48199
31.997299 10.7088 -965.05701
33.343102 11.2035 -965.84601
34.037601 11.4511 -966.29303
34.673599 11.6588 -966.73499
35.220299 11.936 -967.18701
35.851299 12.1721 -967.534
36.277599 12.367 -967.995
36.559299 12.5449 -968.526
36.998501 12.7439 -968.90503
37.5509 12.9633 -969.237
38.541 13.4315 -970.00098
39.362202 13.7223 -970.242
39.8456 13.9434 -970.73401
40.367901 14.1647 -971.185
40.7061 14.3414 -971.73102
41.2607 14.7066 -972.75598
41.616501 14.8675 -973.11298
42.044701 15.0698 -973.49103
42.294701 15.2722 -973.98499
42.794701 15.4753 -974.33197
43.195999 15.7032 -974.77802
43.441898 15.8966 -975.33899
44.564098 16.500401 -976.51703
45.108398 16.8521 -977.34497
45.055302 16.993601 -977.99402
46.1567 17.5653 -979.16699
46.504002 17.9352 -980.27502
48.7318 19.892 -985.198
48.001099 20.486799 -986.14001
48.871101 21.003799 -986.99799
48.755199 21.311199 -988.25598
49.828201 23.242701 -993.95801
49.912399 23.709299 -995.46301
48.977001 26.150801 -1004.29
47.451698 27.3536 -1009.28
43.400799 29.023001 -1017.62
35.997799 12.8659 -967.94202
37.160702 13.308 -968.59698
37.7159 13.4988 -968.97699
38.129501 13.6894 -969.50702
38.722099 13.9267 -969.91998
40.239399 14.6261 -971.21503
40.599701 14.8448 -971.68799
41.130199 15.0365 -971.98401
41.489101 15.2259 -972.42499
41.789902 15.434 -972.81
42.047901 15.5736 -973.284
42.653702 15.8195 -973.54401
42.903702 15.9847 -974.078
43.161201 16.1931 -974.64398
43.797699 16.6439 -975.61499
44.1684 16.799601 -976.03601
44.5877 17.1618 -976.979
44.9865 17.319401 -977.25598
45.1422 17.4855 -977.742
45.408298 17.6693 -978.19598
46.185799 18.036699 -978.95001
45.813801 18.2111 -979.95099
45.860699 18.5893 -981.64001
48.584999 20.8267 -986.70398
48.8731 21.6222 -987.32202
48.5896 21.761801 -988.16498
48.8549 22.1143 -989.14301
49.618198 22.587601 -991.92297
49.7892 23.401501 -994.54797
48.787201 26.633301 -1004.2
48.630699 26.7682 -1004.81
48.110802 26.796301 -1007.09
46.9272 28.0875 -1010.32
36.631302 13.5786 -968.26398
37.407799 13.8025 -968.45599
38.0345 14.0187 -968.71198
38.442001 14.2503 -969.19598
38.966 14.4561 -969.604
39.489899 14.6798 -970.02899
39.841099 14.912 -970.58002
40.186501 15.149 -971.09003
40.506599 15.3324 -971.58002
40.925301 15.5141 -971.97803
41.8773 15.9208 -972.59198
42.1591 16.1106 -973.03101
42.570599 16.305 -973.422
43.274799 16.7024 -974.37097
44.210201 17.287701 -975.802
44.4459 17.4723 -976.25702
44.703701 17.630501 -976.677
44.935299 17.8139 -977.09601
48.071301 20.9825 -985.82898
48.272202 21.7672 -986.49103
49.283798 22.6264 -990.45599
49.533901 22.9224 -991.255
49.470001 23.3636 -992.89099
49.6022 24.373899 -994.22198
49.525902 24.1789 -995.51001
49.0686 26.6668 -1002.31
48.7719 26.810801 -1003.01
48.314301 27.5385 -1005.68
48.106701 27.654301 -1006.24
47.842499 27.9011 -1007.21
47.226799 28.295099 -1008.99
36.569099 13.9045 -967.43701
36.7328 14.0678 -968.05603
37.672699 14.36 -968.08002
37.871498 14.5269 -968.70599
38.821701 14.9545 -969.56201
39.524799 15.2113 -969.85901
40.116001 15.6013 -970.99298
40.565201 15.8253 -971.38397
41.058601 16.045601 -971.71899
41.5233 16.257999 -972.03198
41.898399 16.420099 -972.39502
42.177399 16.6108 -972.85498
42.238602 16.753401 -973.51099
43.1604 17.190201 -974.263
43.462002 17.3552 -974.77502
43.917198 17.594999 -975.13397
44.080502 17.7719 -975.68402
44.2799 17.965099 -976.16498
44.000198 18.0432 -976.95801
44.762901 18.295401 -977.00098
45.026402 18.500299 -977.38
44.796902 18.6579 -978.13
45.364498 19.192301 -979.81799
46.708801 19.6014 -980.04199
46.3932 19.962799 -981.59003
47.7439 21.1483 -984.71503
47.841099 22.217199 -986.61603
48.451302 22.2586 -988.02301
49.075199 22.779301 -989.31097
49.2878 24.018101 -991.48401
49.395302 24.3374 -992.48297
49.429401 24.9776 -994.66302
49.668301 24.805901 -995.64502
49.131001 26.74 -1000.73
49.111099 27.0131 -1001.61
48.6376 27.2617 -1002.89
48.396099 27.729099 -1004.52
46.709599 29.064501 -1010.03
36.049702 14.3647 -967.64099
36.994801 14.5999 -967.711
37.4688 14.7989 -968.07703
38.525101 15.2448 -968.797
38.929501 15.4677 -969.289
39.4394 15.7071 -969.73199
39.760399 15.9075 -970.302
40.257702 16.108801 -970.711
40.726101 16.4744 -971.77399
41.201 16.665001 -972.10498
41.760399 16.8708 -972.32202
41.725399 17.028799 -972.98401
42.3293 17.254101 -973.21899
42.667301 17.4627 -973.67798
43.066299 17.677999 -974.14398
43.444698 17.8908 -974.53003
43.737801 18.0767 -975.03497
43.859699 18.2484 -975.60101
44.072701 18.448099 -976.07501
44.4958 18.6068 -976.367
44.5299 18.766001 -976.922
44.8741 18.9538 -977.25098
45.068298 19.1637 -977.71997
45.316601 19.4284 -978.28699
45.543598 19.5755 -978.625
47.215599 21.7472 -983.36603
47.915401 21.947001 -985.50598
48.122299 22.875 -986.65503
48.757801 23.5783 -988.52502
48.8326 23.910999 -989.57599
49.181198 23.730101 -990.58698
49.228901 24.8167 -992.37701
49.4384 24.6598 -993.57001
49.402599 25.3384 -993.91199
49.418201 25.4865 -994.42999
49.309502 26.1945 -996.87799
49.305401 26.650299 -998.46301
48.837299 27.504499 -1001.62
48.542999 27.7649 -1002.73
48.060799 28.5119 -1005.4
47.827 28.625099 -1005.99
44.390099 30.525299 -1014.49
34.722099 14.246 -965.987
35.408401 14.4739 -966.341
36.140499 14.6773 -966.66498
36.5438 14.9158 -967.11298
36.950401 15.1309 -967.58002
37.486801 15.3261 -967.88
37.958099 15.5389 -968.26801
38.531898 15.7408 -968.59302
38.859001 15.973 -969.15198
39.3396 16.193399 -969.60101
39.701599 16.3979 -970.125
40.198601 16.617599 -970.508
40.524502 16.806299 -970.99597
41.4035 17.225 -971.685
41.891102 17.5518 -972.59802
42.271702 17.751301 -973.00897
42.577099 17.9704 -973.48199
42.812302 18.1471 -974.04498
43.000401 18.333099 -974.64697
43.379601 18.5448 -975.05603
43.8815 19.4107 -975.70599
44.228001 19.0903 -976.31799
44.432098 19.406601 -977.35498
44.868999 19.585699 -977.646
45.232201 19.948099 -978.646
47.6633 22.0779 -984.28497
47.841202 23.208401 -986.11401
47.8083 22.7297 -986.39502
48.632198 24.0532 -988.37701
49.119499 25.301399 -992.22101
49.133999 25.6381 -993.34802
49.345001 25.9755 -994.25403
49.194698 26.522301 -996.25299
48.496101 28.267099 -1002.53
48.304298 28.7295 -1004.12
47.6842 29.250401 -1006.24
42.457901 31.557199 -1017.41
30.9083 13.3273 -963.35199
31.6597 13.5334 -963.61499
32.181499 13.7404 -964.07397
33.652599 14.2665 -964.76703
34.252102 14.5099 -965.25702
34.8423 14.7494 -965.71002
36.543499 15.433 -966.91498
36.9272 15.6269 -967.41101
37.305302 15.8339 -967.80402
37.743999 16.0191 -968.20001
38.241299 16.2265 -968.59698
38.569801 16.435699 -969.10999
39.283501 16.880301 -970.16998
39.826302 17.098801 -970.53998
40.5014 17.474701 -971.42401
41.416401 17.8654 -972.06097
41.930599 18.2164 -972.99402
42.377102 18.441601 -973.36401
42.7383 18.6493 -973.83502
42.860001 18.8363 -974.46503
43.167801 19.021299 -974.96399
43.447399 19.2323 -975.40698
44.114498 19.605 -976.14203
44.315701 19.9091 -977.172
45.249199 20.5103 -978.40601
45.2328 20.763399 -979.18298
47.734501 23.714701 -985.95398
48.2817 24.0299 -986.60699
48.091301 24.2069 -987.36499
48.731701 24.8925 -989.19
48.800701 25.3437 -990.65399
49.032799 25.1506 -991.72998
49.041901 25.7943 -992.052
48.954601 26.130199 -993.263
49.2742 26.728701 -995.02301
48.646099 28.480101 -1001.26
48.225201 29.064199 -1003.47
48.191299 29.2103 -1003.98
47.087898 30.127701 -1007.7
46.7836 30.258499 -1008.39
46.313499 30.533501 -1009.62
42.602798 31.969601 -1016.76
30.998199 13.8327 -963.09003
31.5539 14.0606 -963.50897
31.9828 14.2399 -964.02802
33.180801 14.7079 -964.93201
33.883499 14.9737 -965.35498
34.4594 15.2121 -965.81897
35.614899 15.6833 -966.61798
36.1656 15.9251 -966.93597
36.849899 16.1085 -967.18701
37.173302 16.3085 -967.64697
37.725498 16.5133 -967.96802
38.474201 16.923901 -968.91302
38.8325 17.1506 -969.47498
39.409401 17.3682 -969.79102
39.720001 17.582199 -970.34601
40.1493 17.7897 -970.75897
41.2994 18.335199 -971.88702
41.6203 18.535601 -972.28497
43.0891 19.5347 -974.76202
43.737099 19.894199 -975.56403
44.220901 20.212999 -976.41998
45.0984 20.819401 -977.72498
44.825699 21.3981 -978.24298
44.877499 21.1371 -979.211
46.859699 23.377701 -983.573
47.192299 23.5758 -983.93597
47.1451 23.858801 -985.12799
47.616402 24.191799 -985.81201
48.014198 24.683599 -987.19299
48.5126 25.219801 -988.57599
48.4977 25.6577 -990.18201
48.669998 25.9772 -991.02197
48.9916 27.8018 -996.96198
48.4935 29.1024 -1001.61
48.046001 29.7027 -1002.19
29.542999 13.8715 -962.17902
30.3971 14.0974 -962.453
30.7355 14.2956 -963.08197
31.334801 14.5366 -963.46802
32.323502 14.7953 -963.57397
32.612701 14.9906 -964.23401
33.304699 15.2557 -964.59302
33.883202 15.4808 -965.09399
34.640301 15.7369 -965.396
35.1278 15.9627 -965.89502
35.5881 16.194599 -966.37201
36.446602 16.5891 -967.20203
36.853001 16.783701 -967.612
37.4702 17.0075 -967.85901
37.837898 17.2055 -968.33301
38.1534 17.4121 -968.90399
38.625401 17.635099 -969.35901
39.664398 18.077 -970.12402
39.902802 18.2868 -970.672
40.513401 18.643 -971.57202
41.722599 19.2096 -972.63599
42.0084 19.4095 -973.13397
42.454899 19.637501 -973.54602
42.577599 19.8295 -974.15802
42.9828 20.0235 -974.57703
45.1661 21.8972 -979.34302
47.095299 24.0504 -983.77502
47.318401 24.3445 -984.74902
47.8997 25.1593 -987.02698
48.275501 25.531799 -987.92902
48.436001 26.155001 -989.99298
48.643002 26.7383 -991.90399
48.835701 27.0889 -992.88702
48.791 27.542 -994.492
48.985699 27.8372 -995.25598
48.700901 28.8815 -999.026
48.5322 29.299601 -1000.45
48.366798 29.4217 -1001.02
48.063999 30.006701 -1003.17
47.822399 30.1506 -1003.8
47.5457 30.427999 -1004.9
46.743198 31.0837 -1007.51
29.222601 14.2918 -962.21802
29.843399 15.0434 -962.39203
30.6492 14.773 -962.953
31.116301 15.0132 -963.40503
31.994301 15.2548 -963.57501
32.4977 15.4847 -964.06403
33.305698 15.7177 -964.354
33.741901 15.9673 -964.92499
34.338501 16.2234 -965.33197
34.874901 16.4596 -965.81097
35.555401 16.693501 -966.10101
36.005699 16.8759 -966.51801
36.9855 17.2915 -967.22699
37.385601 17.490601 -967.659
37.7668 17.690701 -968.12299
38.246399 17.9028 -968.56
38.424599 18.1089 -969.22198
38.816002 18.321199 -969.72699
39.4725 18.554501 -970.00702
40.2472 18.9638 -970.83099
40.4674 19.128099 -971.35303
41.1693 19.4783 -972.10699
41.705399 19.697001 -972.39697
41.859299 19.8918 -973.00098
42.275799 20.0987 -973.40698
43.120098 20.665701 -974.91602
43.1567 21.3545 -975.242
44.111099 21.362101 -976.61499
44.471901 21.7661 -977.70398
44.354698 22.321199 -978.10303
44.729 22.5424 -978.64899
46.720699 24.5061 -983.85199
47.4202 25.1409 -985.49298
48.046902 25.991301 -987.88
48.429798 26.643101 -989.74701
48.732399 27.090799 -991.03998
48.7551 27.425301 -992.14502
48.794998 28.041 -994.25201
48.044701 30.2045 -1001.97
47.712101 30.664301 -1003.66
45.719501 32.1129 -1009.79
31.1206 15.5016 -963.11102
31.5975 15.7319 -963.58197
32.369598 15.9785 -963.85797
32.955799 16.2232 -964.31097
33.544899 16.4538 -964.77802
34.2164 16.7087 -965.13397
34.784599 16.931499 -965.59399
35.804199 17.3741 -966.39801
36.268398 17.553801 -966.78802
36.796501 17.746401 -967.11401
37.201698 17.9895 -967.53003
37.648998 18.177999 -967.95099
38.1777 18.3957 -968.32397
38.218399 18.6015 -969.12
39.122101 19.017 -970.00897
40.024899 19.4263 -970.742
40.701401 19.7908 -971.547
41.732201 20.3297 -972.83099
42.1483 20.598801 -973.258
42.257599 20.7766 -973.90302
42.6758 20.9534 -974.32501
42.8908 21.160801 -974.84399
43.569599 21.501499 -975.55902
43.718899 21.6761 -976.04602
44.369202 22.066601 -976.79901
46.999802 24.8172 -984.80402
47.321999 25.641899 -985.31897
47.781601 25.482201 -986.28802
48.137699 25.8279 -987.21399
48.420399 27.262199 -990.03699
48.444599 27.441799 -990.51599
48.555199 27.593399 -990.95398
48.560699 27.740299 -991.492
48.681198 28.2292 -993.08398
48.613998 28.946301 -995.53802
47.958801 30.687401 -1001.8
46.9244 31.7841 -1006.08
46.447201 32.036098 -1007.3
45.747501 32.472198 -1009.13
30.7642 15.9805 -963.05402
31.4909 16.2094 -963.36102
31.98 16.4298 -963.87201
32.806499 16.680799 -964.12
33.4436 16.936199 -964.56299
34.994301 17.625 -965.98297
35.906502 18.0305 -966.77002
36.3666 18.2449 -967.15802
36.8256 18.4168 -967.53101
38.212399 19.091101 -968.84998
38.728001 19.2964 -969.25897
39.1026 19.504499 -969.77002
39.473099 19.717699 -970.21802
39.811798 19.907 -970.63599
40.7216 20.303801 -971.28003
40.841099 20.4608 -971.83197
41.163898 20.646 -972.276
41.937099 21.046499 -973.19299
42.8218 21.6511 -974.62701
43.077099 21.832001 -975.06403
43.461899 22.0117 -975.40698
43.583801 22.1667 -975.90302
43.765301 22.3244 -976.39001
44.336601 22.739401 -977.29999
46.700199 25.3239 -982.72101
47.504398 26.6028 -986.65002
48.036598 27.443199 -989.10199
47.843201 31.0014 -1001.18
47.689701 31.481001 -1002.74
46.991001 32.135799 -1005.41
46.718498 32.250702 -1006.01
43.855999 33.787701 -1012.88
30.3141 16.4422 -963.09003
30.899599 16.6859 -963.47498
32.428799 17.144199 -964.11798
33.217098 17.3855 -964.44
33.663898 17.628599 -964.98999
34.200298 17.858 -965.50098
34.496601 18.0842 -966.03998
35.1987 18.300301 -966.30402
36.4259 18.7393 -966.83301
36.7164 18.888599 -967.35199
37.026901 19.1203 -967.88599
37.516102 19.3256 -968.28699
38.222401 19.5672 -968.58398
38.4548 19.7791 -969.19202
38.9561 20.013599 -969.59802
39.5242 20.2131 -969.91998
39.571602 20.3853 -970.565
40.444099 20.766001 -971.224
40.941399 21.1138 -972.21698
41.484299 21.3286 -972.50897
41.719501 21.5369 -973.08398
42.078899 21.734699 -973.55298
42.301998 21.933399 -974.09302
43.028702 22.313499 -974.85797
43.4828 22.641399 -975.737
43.433201 22.806 -976.37402
44.0243 23.1947 -977.29498
44.482399 23.4011 -977.52502
44.333199 23.525101 -978.44098
46.796001 25.5166 -983.25702
46.6968 25.8188 -984.52802
47.193298 26.1315 -985.18799
47.476601 26.926001 -985.82202
47.875099 26.9578 -987.54999
48.383202 27.869301 -990.34003
48.485199 28.689501 -991.08301
48.445099 29.203501 -992.815
48.454498 29.3587 -993.32898
48.331799 29.644501 -994.36798
48.494801 29.7694 -994.69897
48.019501 31.3792 -1000.37
47.478001 32.112099 -1003.16
45.851398 33.2952 -1008.16
43.745998 34.283298 -1012.72
31.0033 17.155899 -963.117
31.614401 17.377701 -963.54401
32.306099 17.6488 -963.88599
33.065701 17.895599 -964.271
33.646 18.1194 -964.716
34.160599 18.364201 -965.19598
35.1353 18.7948 -966.07001
35.594898 18.9771 -966.47101
35.754501 19.1674 -967.06598
36.407902 19.380199 -967.29401
37.091999 19.6021 -967.55103
37.374599 19.8162 -968.13
37.731602 20.033701 -968.68298
38.4664 20.275999 -968.93201
38.6535 20.461 -969.56598
39.164799 20.6653 -969.94501
39.7537 21.048901 -970.85797
40.216599 21.2255 -971.13599
40.4916 21.398001 -971.60101
40.7369 21.589399 -972.112
41.613998 22.020399 -972.89697
42.3549 22.436399 -973.80902
42.646198 22.629 -974.23499
42.971298 22.9135 -975.28802
43.23 23.122 -975.67401
43.506901 23.308701 -976.07202
43.944599 23.4867 -976.388
43.9907 23.6618 -977.07599
44.140999 23.986601 -978.36102
44.4958 24.1987 -978.70099
45.607101 25.558701 -982.76801
47.043499 26.596399 -985.05701
47.441299 27.0903 -986.448
47.5009 27.896099 -987.37701
48.250702 28.224899 -989.70099
48.141701 28.8589 -990.06097
48.151901 29.0096 -990.56
48.2757 28.8428 -991.82599
48.1577 29.645599 -992.81201
48.375702 30.385 -995.03802
48.105999 31.121901 -999.43201
47.7486 32.1423 -1001.24
47.461498 32.456299 -1002.45
46.682201 33.101601 -1005.17
43.753601 34.775299 -1012.47
30.8022 17.618401 -962.99597
31.278 17.8302 -963.505
32.2019 18.1024 -963.71198
32.770599 18.359501 -964.22198
33.2481 18.597 -964.71698
34.0812 18.8484 -964.98901
34.5406 19.056801 -965.47803
34.912601 19.260599 -965.95898
35.590199 19.478201 -966.19397
35.970798 19.6682 -966.63397
36.3475 19.8692 -967.104
36.616199 20.052999 -967.66302
37.371201 20.314501 -967.875
37.716099 20.486799 -968.44098
38.373501 20.731199 -968.74799
38.691601 20.9484 -969.29303
39.409901 21.334299 -970.17798
39.683201 21.512199 -970.66101
40.080101 21.693701 -971.01001
40.541801 21.861799 -971.32501
40.8293 22.072599 -971.80103
41.138699 22.264799 -972.27502
41.496201 22.4853 -972.74402
41.942501 22.688 -973.146
42.3731 23.058599 -974.24103
42.927101 23.430099 -975.07001
43.242001 23.592501 -975.42102
43.444 23.764299 -975.87799
43.774399 23.950199 -976.27802
43.737202 24.126499 -977.01801
44.364399 24.561001 -977.94299
45.912899 26.211901 -982.91901
46.574902 26.7435 -984.14203
47.004501 27.0921 -984.849
47.499199 27.3888 -985.58197
47.422199 28.242901 -986.59601
47.560501 28.556999 -987.67603
47.809898 32.475601 -1000.51
47.2071 33.0877 -1002.88
46.678902 33.615299 -1004.95
46.102699 33.990898 -1006.63
42.896099 35.527199 -1013.63
30.450199 18.100201 -962.91302
31.8316 18.5833 -963.66998
32.378101 18.820999 -964.19501
34.068199 19.529301 -965.52197
34.854099 19.7616 -965.72803
35.353001 19.9657 -966.09601
35.659401 20.146799 -966.565
36.097 20.335199 -966.98401
36.466499 20.5474 -967.48401
37.031898 20.776899 -967.85999
37.5228 20.989401 -968.32202
38.067299 21.219101 -968.69598
38.4725 21.4207 -969.18298
39.223301 21.8284 -970.06201
39.463699 22.001101 -970.55103
39.929298 22.179701 -970.86401
40.251099 22.371901 -971.27399
40.625599 22.566999 -971.67401
41.030499 22.772499 -972.09302
41.346401 22.9734 -972.59497
42.483601 23.716499 -974.539
42.866402 23.9368 -974.862
43.267601 24.094801 -975.14099
43.303001 24.2624 -975.74799
43.681099 24.482599 -976.10199
43.524899 24.6049 -976.948
43.857101 24.798901 -977.28802
44.4688 25.001301 -977.64502
45.838902 26.552 -982.09802
46.2803 26.958099 -982.979
47.408501 28.9081 -986.96503
47.548302 29.2276 -988.01599
47.877499 29.993 -990.32001
47.8428 30.1374 -990.90601
48.150002 29.983 -992.02502
47.684502 32.847 -999.93701
46.881199 33.856098 -1003.77
46.6674 33.973202 -1004.34
44.7505 35.180099 -1009.49
30.9608 18.833599 -963.11499
32.205002 19.3456 -964.01801
32.9585 19.566 -964.34302
33.478802 19.781799 -964.85602
34.708401 20.268299 -965.52502
34.9384 20.4354 -966.10999
35.318501 20.625299 -966.55902
35.8027 20.798 -966.94299
36.415199 21.0492 -967.26099
37.259701 21.499599 -968.22198
37.860802 21.7276 -968.58398
38.6833 22.1257 -969.495
38.965 22.3167 -969.961
40.080299 22.8734 -971.14203
40.373501 23.069599 -971.61401
40.8853 23.27 -971.961
41.1614 23.4694 -972.48901
41.382099 23.665001 -973.07898
41.968899 24.0429 -974.03601
42.661098 24.4044 -974.77899
42.906399 25.0639 -974.92798
43.154099 24.7537 -975.61499
43.528702 25.1143 -976.69
43.8671 25.2801 -977.03003
44.180199 25.613501 -977.56097
44.291199 26.468599 -979.11499
45.260502 27.176201 -980.77802
46.1675 27.413 -982.80499
46.4314 28.240499 -983.539
47.028099 28.239799 -984.90002
47.1259 28.544901 -985.96899
47.879501 29.817699 -989.76099
48.051498 30.9683 -991.633
48.099701 31.308701 -992.67401
47.802502 33.055401 -998.77698
30.1119 19.069401 -962.54999
30.4914 19.3118 -963.15601
31.392 19.570299 -963.401
31.913099 19.787201 -963.93201
32.761902 20.038 -964.21997
33.548 20.489799 -965.354
34.157101 20.712799 -965.65002
35.083 20.937901 -965.73901
35.308998 21.1112 -966.28497
35.633999 21.2934 -966.80103
36.326801 21.5277 -967.05103
36.860802 21.766899 -967.45398
37.2654 21.973101 -967.97601
37.6898 22.194401 -968.44897
38.401699 22.589399 -969.43597
39.287998 22.986799 -970.138
39.833099 23.355101 -971.04999
40.335201 23.5516 -971.37097
40.575802 23.764799 -971.92401
40.8312 23.943501 -972.48199
41.870098 24.534901 -973.85101
42.248798 25.3617 -974.591
43.305199 25.4123 -975.896
43.2314 25.577 -976.67401
44.0494 26.032801 -977.43701
44.129799 26.1814 -977.992
46.229401 28.7267 -983.48102
46.655899 28.5452 -984.383
46.855 28.872801 -985.37
47.2005 29.879299 -986.67102
47.370499 30.361099 -988.20001
47.508499 30.805 -989.59198
47.7202 31.106701 -990.52399
47.887001 32.3661 -994.48297
47.139801 34.4221 -1001.79
46.826401 34.559399 -1002.5
46.113602 35.200699 -1005.08
45.638199 35.486099 -1006.29
43.211899 36.752701 -1011.93
31.253099 20.059799 -963.211
31.6591 20.296101 -963.82001
32.4944 20.5508 -964.11603
32.9151 20.752399 -964.70398
34.839298 21.5833 -966.35901
35.5942 21.808399 -966.53802
36.1731 22.0415 -966.89502
36.992901 22.457701 -967.91101
37.4865 22.6798 -968.32703
37.840801 22.896 -968.83899
38.621601 23.272499 -969.70898
39.227699 23.640699 -970.591
39.8083 23.859301 -970.802
40.0112 24.0375 -971.37097
40.449501 24.239201 -971.74701
41.105099 24.6401 -972.771
41.513401 24.832399 -973.17999
42.631802 25.540199 -974.87903
42.7663 25.7248 -975.40302
43.064301 26.3759 -975.58398
43.488602 26.744801 -976.59497
44.957298 27.3918 -979.414
46.144699 28.8873 -982.13397
46.212898 29.1984 -983.25098
46.609901 29.047001 -984.198
46.711899 29.985201 -985.59198
46.900501 30.336399 -986.66498
47.367802 30.962601 -988.49701
47.5993 31.426399 -989.841
47.670601 31.917801 -991.48798
47.75 32.551498 -993.44397
47.814899 32.972599 -994.81201
45.367199 36.09 -1006.7
30.985901 20.508499 -963.11401
31.3689 20.755899 -963.76001
32.190601 21.008499 -964.03601
32.780201 21.2304 -964.51599
33.811298 21.680799 -965.35498
34.423599 21.887699 -965.67102
35.098598 22.0965 -965.88397
35.2841 22.2649 -966.50897
36.3605 22.704599 -967.28601
36.812302 22.9356 -967.79401
37.565201 23.3612 -968.78497
38.283298 24.2565 -969.43402
38.818802 23.944401 -969.99298
39.66 24.3234 -970.68597
39.924301 24.5131 -971.19397
40.665401 24.9132 -972.104
41.5415 25.517099 -973.59601
42.178799 25.832399 -974.40503
43.034698 26.566601 -976.33301
43.716999 27.0333 -977.21002
43.790901 27.2239 -977.73602
43.784302 27.9182 -978.83801
46.382198 29.360201 -983.66803
46.566299 30.1427 -984.31403
46.7314 30.3442 -984.74402
46.839401 30.684999 -985.86401
47.1227 31.1737 -987.40503
47.6492 32.122299 -990.12299
47.636398 32.595901 -991.81598
47.8619 32.7477 -992.17798
47.644199 33.175301 -993.755
47.225601 34.7771 -999.37299
46.9478 35.050098 -1000.52
46.698002 35.678501 -1002.62
30.6756 20.993999 -963.01501
31.3771 21.261101 -963.46301
31.941299 21.490299 -963.93799
32.546398 21.7251 -964.38
33.6525 22.169201 -965.164
34.207699 22.368799 -965.56299
34.739799 22.578899 -965.883
35.175301 22.794001 -966.30103
35.628201 22.9828 -966.74701
36.656502 23.445801 -967.60999
37.121799 23.6584 -968.06702
37.5616 23.8407 -968.53601
37.9883 24.054399 -968.966
38.7337 24.4268 -969.79797
38.9883 24.6056 -970.24701
39.965 25.171101 -971.62097
40.4454 25.3981 -972.00403
40.8437 25.590799 -972.461
41.103298 25.814199 -972.99701
41.666401 26.1793 -973.90302
42.2313 26.502899 -974.72998
42.507801 26.694201 -975.08899
43.007099 27.057899 -976.09698
43.786999 27.606001 -977.52899
44.097698 27.781601 -977.87
45.806099 30.1513 -983.10101
46.081501 30.320499 -983.39899
46.467999 30.615601 -984.17798
46.741901 30.4944 -985.32703
46.6996 31.137899 -985.74298
46.975899 31.790199 -987.80798
47.300598 32.256699 -989.06702
47.5005 33.954102 -994.58502
47.396999 34.580399 -996.77899
47.1007 35.417198 -999.68103
46.671799 36.026001 -1001.93
41.7071 38.5714 -1013.46
30.4755 21.4879 -962.85101
30.8687 21.7064 -963.50702
32.419102 22.212 -964.18298
33.3349 22.6257 -965.13898
33.765598 22.84 -965.58698
34.416 23.052 -965.83301
34.858601 23.237801 -966.25299
35.499298 23.4585 -966.56799
35.4645 23.637501 -967.39001
36.481899 23.9051 -967.49103
37.0172 24.117901 -967.86902
37.648399 24.5315 -968.92499
38.415298 24.926201 -969.77301
38.815399 25.1036 -970.112
39.323399 25.2962 -970.42102
39.723801 25.474701 -970.81598
39.964901 25.662701 -971.38
40.677399 26.074301 -972.33002
40.883301 26.2666 -972.90198
41.221699 26.4568 -973.341
41.944901 26.829599 -974.06598
42.161301 26.995501 -974.51099
42.7747 27.3405 -975.32098
42.7029 27.5226 -976.091
46.682201 31.776199 -986.15002
46.924599 31.5026 -986.77502
46.962002 31.658701 -987.30402
47.473 32.905602 -991.17401
47.425598 33.570499 -991.53302
47.539902 33.9897 -992.93597
47.527199 34.1366 -993.39801
47.501999 34.283699 -993.88501
46.917099 35.897099 -999.63202
46.4692 36.3526 -1001.39
46.401199 36.505299 -1001.9
46.1917 36.778099 -1002.94
30.125 21.967501 -962.81201
30.848 22.2192 -963.229
31.642599 22.434299 -963.58197
32.3284 22.702 -963.97601
32.883701 22.9121 -964.39398
33.072899 23.1089 -965.03497
33.7817 23.308399 -965.28699
34.262798 23.493299 -965.68402
34.813499 23.724501 -966.01703
35.4016 23.9505 -966.36798
35.771198 24.146601 -966.88898
35.938499 24.339399 -967.61102
37.2794 24.8113 -968.211
37.617699 24.9921 -968.72302
38.3867 25.4055 -969.521
38.635601 25.565701 -970.021
39.121201 25.7698 -970.32001
39.614601 25.9667 -970.651
39.915401 26.1541 -971.14801
40.254799 26.3559 -971.66498
40.569801 26.5466 -972.15399
40.777199 26.7495 -972.74597
41.535301 27.118099 -973.50702
41.782799 27.296101 -973.95898
42.114601 27.474001 -974.30499
42.214802 27.6497 -974.84998
42.506699 27.997 -975.98499
43.162498 28.4018 -976.948
46.038101 30.937901 -983.75702
46.5616 31.2759 -984.42401
46.9538 32.151001 -987.07599
47.0728 33.344398 -989.323
47.163799 33.525902 -989.80603
47.305199 34.464401 -992.89099
47.382099 34.604 -993.28101
47.127602 35.6105 -998.54602
46.934601 36.096001 -998.45898
46.798901 36.241299 -999.02002
46.324001 36.8433 -1001.26
46.206501 36.972401 -1001.83
45.702599 37.501999 -1003.84
43.370899 38.826199 -1009.58
29.800699 22.424801 -962.74298
30.6094 22.707001 -963.10901
31.1509 22.907101 -963.63202
32.3699 23.382 -964.46503
33.408298 23.7752 -965.28497
34.088001 23.9739 -965.52899
34.641102 24.1805 -965.87
35.276402 24.438801 -966.17999
36.189499 24.8584 -967.15503
36.525398 25.0667 -967.70898
36.961498 25.2845 -968.17902
37.516701 25.5072 -968.51099
37.698898 25.6735 -969.112
38.507 26.0532 -969.83899
38.935501 26.2377 -970.21301
39.438702 26.437599 -970.53802
39.629601 26.6175 -971.13
40.061298 26.8367 -971.55402
40.4133 27.054399 -972.02502
41.099602 27.4305 -972.93402
41.3022 27.615101 -973.45001
41.615799 27.779699 -973.823
42.285 28.1437 -974.547
42.470901 28.327999 -975.07501
42.841702 28.614599 -976.09198
43.282001 28.9184 -976.58398
43.593399 29.2192 -977.539
45.283298 31.114 -983.04498
45.635601 31.893299 -983.60699
46.106201 31.6049 -983.97699
46.329498 32.268002 -986.20398
46.921001 32.750702 -987.409
47.010899 33.065899 -988.35498
47.173901 33.693699 -990.37201
47.196201 34.358601 -990.69202
47.2598 34.0583 -991.43201
47.2239 35.086498 -993.17102
47.416302 34.915298 -994.20697
47.138199 35.385101 -994.20203
47.1768 36.1735 -996.73999
46.398102 37.1469 -1000.51
46.191002 37.4711 -1001.6
45.9711 37.589699 -1002.23
44.798302 38.525002 -1005.99
42.4203 39.653801 -1011.14
41.237202 40.070999 -1013.09
30.0513 23.144899 -963.22302
31.216101 23.4051 -963.30103
31.6064 23.6136 -963.927
32.330002 23.8335 -964.237
33.722301 24.469601 -965.492
34.4743 24.665001 -965.71899
34.9034 24.905199 -966.19702
35.5336 25.1127 -966.54102
35.765598 25.320999 -967.21698
37.3251 25.98 -968.39899
37.657398 26.148899 -968.87201
38.2384 26.502899 -969.78699
39.2565 26.912399 -970.39398
39.502701 27.1059 -970.95398
39.756302 27.3078 -971.53601
40.142601 27.5 -971.98999
40.959499 27.923901 -972.79303
41.3428 28.244301 -973.78998
41.6511 28.426201 -974.15503
42.053699 28.594999 -974.47699
42.2626 28.7803 -974.99103
42.334099 28.956499 -975.65198
43.085602 29.3794 -976.48297
43.388699 29.881201 -978.14398
43.820301 30.132601 -978.92297
45.1684 30.928101 -980.31299
45.801498 31.759399 -982.92297
45.904701 32.409 -985.09198
46.1105 33.237301 -985.91699
46.669601 33.734299 -987.13098
47.0345 34.023899 -989.68701
45.532001 38.458801 -1003.52
30.2519 23.6467 -962.78998
31.441799 24.106501 -963.73602
31.780899 24.350901 -964.36902
32.6595 24.5641 -964.51703
33.578098 24.959 -965.33301
34.224899 25.174299 -965.60901
34.836399 25.3766 -965.97803
35.354198 25.612101 -966.38098
36.3004 26.039801 -967.34601
36.771301 26.2605 -967.80103
36.918201 26.443199 -968.453
37.648602 26.8256 -969.31598
38.1889 27.0212 -969.56201
38.816502 27.2101 -969.758
38.9613 27.3934 -970.35999
39.3009 27.6105 -970.85199
40.0797 28.007 -971.78802
40.638 28.387199 -972.79199
41.633099 28.937401 -973.92401
41.857601 29.0977 -974.38599
42.219898 29.2673 -974.76001
42.1716 29.437901 -975.505
42.622299 29.848301 -976.56403
44.115501 31.258699 -978.20398
44.689899 31.677099 -979.53601
45.3391 31.944401 -981.935
45.410198 32.8853 -983.30701
45.7146 33.372398 -984.76599
45.875999 33.722198 -985.86902
46.7812 33.8829 -987.56702
46.920502 35.501202 -990.992
47.195099 36.864799 -995.26001
47.075001 37.023201 -995.87299
46.488499 37.695 -998.54602
46.1119 38.304298 -1000.74
45.660198 38.713902 -1002.4
45.0131 39.236698 -1004.49
38.290699 41.698299 -1016.47
30.644699 24.3715 -963.10199
31.8326 24.838301 -963.99402
32.3442 25.051001 -964.41699
33.0201 25.2363 -964.72198
33.473598 25.4547 -965.112
34.0867 25.646799 -965.43903
34.4991 25.868601 -965.94
35.314701 26.2913 -966.99298
35.618801 26.493099 -967.58301
36.397301 26.732599 -967.79999
37.025799 27.1278 -968.80402
37.5602 27.323601 -969.13
38.210201 27.527201 -969.28302
38.681599 27.8633 -970.31403
39.1992 28.0819 -970.664
39.650902 28.3022 -971.08002
40.4272 28.8675 -972.685
40.877399 29.068701 -973.01001
41.117599 29.2384 -973.44098
41.861599 29.577299 -974.12799
42.892899 30.505899 -976.75299
43.3592 30.9214 -977.659
44.2733 32.0257 -979.12799
45.254398 33.373299 -983.18402
45.528 33.8638 -984.68298
45.963402 34.222198 -985.53601
46.4095 35.003101 -987.87598
46.776699 35.005299 -989.39697
46.727402 35.662201 -989.78699
46.734001 35.820599 -990.32599
46.7827 35.9939 -990.84698
46.7864 36.445599 -992.31897
46.918201 36.7257 -993.12598
46.336899 38.077999 -997.94397
45.3792 38.559101 -998.01898
46.1562 38.3605 -998.96503
45.988998 38.652599 -1000.06
45.751598 38.946201 -1001.18
44.605801 39.727798 -1002.19
45.109501 39.511299 -1003.3
40.7612 41.553101 -1012.72
30.1255 24.8218 -963.20099
31.000401 25.084801 -963.47198
31.8489 25.327299 -963.74799
32.5588 25.714899 -964.76599
33.325901 25.914801 -964.96002
33.705502 26.1432 -965.43701
34.4282 26.350599 -965.70203
34.663101 26.552999 -966.34399
35.403801 26.7962 -966.64899
35.77 27.0203 -967.19202
37.196201 27.629499 -968.39801
37.440701 27.7957 -968.927
38.223801 28.1819 -969.66901
39.3997 28.766001 -971.021
39.721699 29.4783 -971.263
40.2388 29.1849 -971.862
41.3736 29.892099 -973.60797
41.809799 30.233101 -974.58301
42.066399 30.4506 -975.06897
42.358799 31.144899 -975.27899
42.530701 30.807699 -976.11798
43.352402 31.3783 -977.43298
43.347 32.092201 -978.36603
45.1768 34.0298 -983.51398
45.687599 34.3932 -984.27802
45.886002 34.9086 -985.914
46.2481 35.2225 -986.70001
46.300999 36.532799 -990.85999
46.528 36.957199 -992.14099
46.282299 37.0891 -992.758
45.941399 37.584202 -994.36102
45.5256 37.893501 -995.69
45.623798 38.3223 -997.00201
45.8046 38.452301 -997.28101
45.662701 38.842499 -998.61798
44.987099 38.978199 -999.66199
44.517601 39.4067 -1001.45
44.1707 39.966 -1003.36
43.930199 40.1082 -1003.92
43.718899 40.2299 -1004.6
42.933498 40.524799 -1006.13
42.7855 40.9921 -1007.5
39.762901 42.178398 -1011.6
30.181299 25.3393 -962.84802
31.4293 25.8102 -963.72803
32.506802 26.216499 -964.526
32.7756 26.4011 -965.03998
34.152302 26.8459 -965.63202
34.987202 27.292101 -966.677
35.706699 27.4834 -966.96802
36.152199 27.723801 -967.44202
36.460499 27.9025 -967.974
37.795502 28.484699 -969.04401
38.200199 28.6632 -969.42999
38.335499 28.841499 -970.04797
38.704201 29.049801 -970.50897
39.150299 29.246901 -970.93597
40.066002 29.8594 -972.41803
40.419701 30.045 -972.80499
40.894501 30.860399 -973.448
41.608501 30.572201 -973.81598
41.629799 31.3815 -974.88898
42.5909 31.6656 -977.09802
44.403099 33.464699 -979.74103
45.0411 34.090801 -981.70203
45.191898 34.531399 -983.16901
45.456299 34.892799 -984.09003
46.290798 35.375599 -987.16602
46.303398 35.667999 -988.15503
46.5392 35.999001 -989.026
43.220699 39.143501 -999.703
42.3503 39.798401 -1002.08
41.542198 40.260201 -1004.43
41.993401 41.633598 -1008.01
39.6703 41.837002 -1010.74
39.230801 41.974602 -1011.48
39.1143 42.647499 -1013.35
29.6719 25.7932 -962.93103
30.318899 26.0203 -963.39001
31.2061 26.2651 -963.59497
32.090302 26.6765 -964.55798
32.856201 26.9 -964.73401
33.170502 27.0765 -965.27802
33.998001 27.316601 -965.46997
34.2803 27.5161 -966.06897
34.8148 27.726101 -966.547
35.536098 27.967899 -966.83197
35.848999 28.163799 -967.39697
36.2341 28.3866 -967.85101
36.961102 28.771601 -968.74402
37.9692 29.1646 -969.31598
38.197399 29.3006 -969.87701
38.4832 29.518101 -970.409
41.5406 31.226 -974.26099
42.5112 32.1847 -976.90198
43.087502 32.509899 -977.63898
43.274899 32.697201 -978.091
43.306099 32.8848 -978.66101
43.763199 33.546101 -978.61499
44.415199 33.6045 -980.40503
43.668598 34.123199 -980.552
45.317501 34.386002 -982.53302
42.155102 38.462898 -998.38098
39.7911 40.300098 -1003.39
39.091 40.9879 -1005.9
36.547798 43.438499 -1015.6
34.690201 43.122002 -1016.33
30.1971 26.512199 -963.17902
30.8235 26.761999 -963.586
32.039101 27.1875 -964.29498
32.718899 27.3848 -964.573
33.153702 27.5613 -964.99902
33.7953 27.801901 -965.34302
34.1292 28.002501 -965.89502
34.730202 28.2187 -966.323
35.643799 28.6539 -967.258
36.559502 29.078501 -968.05798
36.666 29.738199 -968.435
37.349899 29.434299 -968.83899
37.6166 29.6285 -969.32001
38.016399 29.8188 -969.75201
38.4547 30.073 -970.16302
38.692501 30.262199 -970.74402
38.9767 30.4811 -971.258
39.564499 30.656799 -971.59497
39.914101 30.870199 -972.02399
39.884998 30.987 -972.71997
40.342098 31.652399 -972.76001
40.868698 31.399599 -973.146
41.437401 31.7335 -974.08801
42.317799 32.474998 -976.21698
43.983898 33.948601 -979.70001
42.681301 34.508598 -982.86798
37.7146 40.105099 -1002.13
39.163898 40.146801 -1003.35
37.822601 41.300301 -1008.02
33.556801 43.503601 -1015.94
33.923801 44.127602 -1017.49
30.078199 27.0193 -962.96399
30.814199 27.237499 -963.28998
31.2103 27.4317 -963.83301
31.704 27.6346 -964.24701
32.367199 27.8391 -964.52301
32.7794 28.0392 -964.98999
33.562401 28.268299 -965.22601
34.123501 28.508101 -965.64099
34.602699 28.7199 -966.14001
34.903599 28.927 -966.71399
35.279598 29.120899 -967.26898
36.023102 29.3617 -967.47998
36.1591 29.5355 -968.09399
37.319099 29.9758 -968.62201
38.389198 30.539101 -969.89203
39.0359 30.850201 -970.961
39.312099 31.058201 -971.49298
40.061298 31.476299 -972.28601
40.604 31.8342 -973.151
40.637501 32.670601 -973.92902
41.216702 32.401299 -974.63501
41.646099 32.580299 -975.01599
41.808498 32.795502 -975.591
