# .PCD v0.7 - Point Cloud Data file format
VERSION 0.7
FIELDS x y z
SIZE 4 4 4
TYPE F F F
COUNT 1 1 1
WIDTH 1725
HEIGHT 1
VIEWPOINT 0 0 0 1 0 0 0
POINTS 1725
DATA ascii
-25.930201 3.6363201 -1027.37
-26.4643 3.87848 -1026.9
-26.4237 3.4267299 -1026.3
-27.7351 3.6636 -1025.08
-27.7645 3.07428 -1023.89
-28.695999 3.1295199 -1022.78
-29.4266 3.0764501 -1022.44
-29.257 2.9418001 -1021.83
-29.6756 2.71207 -1020.8
-30.9804 2.8308401 -1019.3
-31.174601 2.4216299 -1018.18
-31.528799 2.4762001 -1017.38
-32.504299 2.40942 -1015.76
-33.458599 1.34518 -1012.49
-33.857201 1.17664 -1011.49
-33.931 0.63147002 -1009.86
-34.563702 0.72668499 -1008.72
-34.452301 -0.311676 -1006.88
-34.939602 -0.62747198 -1004.81
-35.185101 -1.58206 -1001.61
13.631 -2.2567101 -1047.72
11.9641 -1.96301 -1047.52
10.0935 -1.4151 -1047.3101
8.6263399 -0.97543299 -1047.22
6.85675 -0.0169678 -1047.1899
5.2665401 0.224915 -1047.0699
4.2902799 0.28121901 -1046.86
2.6359899 1.10544 -1046.61
1.80981 1.0367399 -1046.22
0.87695301 1.04361 -1045.92
-1.1593 1.73981 -1045.3
-3.20294 2.4616101 -1044.8199
-6.1763301 2.9012799 -1043.65
-7.5096402 3.2709401 -1042.8101
-19.932899 4.4119301 -1034.21
-24.6168 4.0956702 -1028.96
-25.2841 4.2720599 -1028.22
-26.3619 4.30966 -1026.6899
-27.5341 4.0366802 -1024.78
-28.5341 4.1922898 -1023.61
-29.5298 3.6623199 -1021.22
-30.0061 3.2858 -1020.43
-30.467899 3.13309 -1019.49
-31.1203 2.9421999 -1018.11
-31.8703 2.625 -1016.36
-32.835899 2.54391 -1014.73
-33.361 1.83875 -1012.39
-33.983898 1.74124 -1011.76
-33.464699 0.76611298 -1009.21
-34.7202 -0.133057 -1005.01
-34.874298 -0.62420702 -1002.95
14.353 -2.1691599 -1047.3199
7.8977699 -0.170166 -1047.28
5.9087501 0.64294398 -1046.88
4.4109502 0.77227801 -1046.65
2.7149701 1.61703 -1046.42
1.76434 1.6568 -1046.16
0.84204102 1.89529 -1045.99
-1.27325 2.4354601 -1045.42
-3.0200801 2.79181 -1044.5
-4.0261202 2.7753601 -1044.1
-4.63696 2.89627 -1044.09
-5.4558101 3.2646501 -1043.47
-5.9538002 3.2444201 -1043.22
-6.96277 3.5924101 -1043.12
-8.0611 3.55637 -1042.04
-23.002199 4.83743 -1030.65
-24.085899 4.7351398 -1029.23
-25.0284 4.8999 -1028.2
-25.3409 4.5859098 -1027.48
-25.9083 4.5141602 -1027.2
-27.644199 4.7002301 -1024.76
-28.237101 4.0584998 -1022.89
-28.6458 4.1820402 -1022.5
-30.522301 3.7089801 -1019.89
-30.660299 3.6540501 -1018.99
-31.158501 3.4417701 -1018.06
-32.0984 3.4116499 -1016.48
-32.310799 2.86292 -1015.41
-32.5807 2.6835301 -1014.15
-33.265202 2.33481 -1012.25
-33.785801 2.0381801 -1010.81
-34.163799 1.3341399 -1008.18
-34.300701 0.594208 -1006.43
-34.824799 -0.18585201 -1002.91
-35.038799 -0.76092499 -1000.83
14.3599 -1.40201 -1047.28
12.3989 -0.94784498 -1047.22
10.2087 -0.086822502 -1047.0601
8.81567 0.15212999 -1046.9
6.0867901 0.83657801 -1046.38
4.4763799 1.48523 -1046.5699
3.5255699 1.87848 -1046.1
1.80035 2.1826501 -1046.02
1.08276 2.02759 -1045.51
-0.040649399 2.6733699 -1045.28
-0.60272199 2.76193 -1045.22
-1.85236 2.8768301 -1044.5601
-2.7341299 3.1219499 -1044.33
-3.7598901 3.51898 -1044.34
-4.5535898 3.87042 -1043.79
-4.8761601 3.6987 -1043.46
-6.5478501 3.83267 -1042.6899
-9.3212299 4.12988 -1041.66
-13.9536 5.1646099 -1038.6899
-20.163 5.7399602 -1033.33
-22.0432 5.2276902 -1031.78
-22.386801 5.5236802 -1031.17
-23.3862 5.4168401 -1030.1899
-25.108999 4.9846802 -1027.2
-26.026899 4.7925401 -1025.8199
-26.680901 4.76685 -1024.92
-28.174999 4.8875999 -1023.61
-28.4522 4.6307402 -1022.17
-29.6989 4.3345599 -1021.25
-29.7444 4.2388902 -1020.09
-30.663799 3.97598 -1018.28
-30.855301 3.77826 -1017.65
-31.4736 3.8797901 -1017.04
-32.192799 3.4365799 -1015.03
-32.5583 3.2720599 -1014.09
-33.006302 2.93314 -1012.62
-33.833099 2.2827101 -1009.63
-33.507301 1.86652 -1008.98
-34.188099 2.00266 -1007.91
-34.3321 1.40939 -1006.5
-34.488998 0.77490199 -1004.47
17.917601 -2.3942299 -1046.62
15.2092 -1.5017101 -1046.66
12.1637 -0.35388201 -1047.26
6.9057002 1.10107 -1046.9
5.4057002 1.82346 -1046.58
4.5004902 1.8357199 -1046.3
3.6511199 2.3192699 -1045.85
1.84918 2.67188 -1045.86
-1.29767 3.4556301 -1045.21
-2.9630101 3.78021 -1044.1899
-4.7515302 4.1412001 -1043.23
-5.9320698 4.26932 -1043.0601
-21.4457 5.7877498 -1031.95
-22.3706 5.8397799 -1030.78
-23.8055 5.71631 -1028.96
-24.750099 5.7883601 -1027.7
-26.056 5.7697101 -1026.65
-26.4911 5.5000901 -1025.51
-28.077499 5.3927302 -1023.45
-29.542999 5.24191 -1021.38
-30.140301 4.92627 -1019.81
-30.594801 4.7753901 -1018.89
-30.931999 4.5415602 -1017.86
-31.509001 4.2434702 -1016.33
-32.959999 3.27829 -1011.88
-33.898602 2.70032 -1009.07
-34.243198 2.60446 -1007.85
-34.381302 1.73456 -1006.22
-34.1208 1.00735 -1003.84
-34.8004 0.78772002 -1002.24
13.8643 -0.178802 -1047.01
10.8186 0.74819899 -1046.88
8.7240601 1.25568 -1046.65
7.12573 1.99121 -1046.47
5.4087501 2.3179901 -1046.47
5.0828199 2.2493601 -1046.2
3.5906999 2.8982799 -1045.8
1.93365 3.1291201 -1045.66
1.5912499 3.2408099 -1045.27
0.322083 3.6507599 -1045.2
-2.9187601 4.2797899 -1044.04
-3.7734399 4.7117901 -1043.45
-4.70929 4.6602802 -1043.0699
-5.88135 4.8038001 -1042.91
-6.15063 5.1736102 -1042.38
-6.8909898 5.3414602 -1042.46
-16.004 6.2142301 -1036.55
-20.064199 6.1863699 -1033.12
-20.441799 6.5252099 -1032.52
-22.762199 6.4430199 -1030.33
-23.7141 6.25528 -1028.84
-24.6019 6.1944299 -1027.42
-25.575399 6.4506202 -1026.38
-26.546801 6.0830998 -1025.4301
-27.389601 6.1862798 -1024.15
-28.653299 5.4058499 -1022.27
-30.457899 5.2923002 -1018.71
-31.533501 4.8597698 -1016.36
-31.995199 4.2308002 -1014.72
-32.1129 4.0769701 -1013.43
-32.451099 4.0936599 -1012.27
-33.099701 3.85532 -1011.59
-33.327702 3.64432 -1010.79
-33.604099 3.06229 -1008.73
-33.608002 2.6819501 -1007.05
-34.178501 2.47803 -1006.3
-34.473 1.72464 -1003.61
-34.6577 1.1048599 -1001.5
17.658001 -1.04196 -1046.8
11.4113 1.27985 -1046.61
8.7913198 1.70895 -1046.48
7.29285 2.41241 -1046.2
6.50775 2.51126 -1046.0699
5.2590899 3.15628 -1045.8199
3.6814001 3.3053899 -1045.6
3.0229499 3.4918799 -1045.6899
1.8057899 3.7188101 -1045.0699
0.45483401 4.2276602 -1045.09
-3.24896 5.0147099 -1043.8199
-4.3350201 5.3368802 -1043.26
-4.5128198 5.1010399 -1042.88
-5.4888902 5.3816199 -1042.7
-24.0364 6.8682599 -1028.74
-24.7369 6.8201299 -1027.54
-26.408899 6.5477901 -1025.16
-26.811399 6.4584999 -1024.28
-27.680099 6.3895602 -1023.24
-28.370199 6.28476 -1021.7
-28.611401 5.9558101 -1021.01
-28.929001 5.69278 -1019.86
-29.8104 6.0141902 -1019.75
-30.5853 5.8700299 -1018.18
-30.560101 5.1760898 -1016.96
-31.4044 5.1528902 -1015.51
-31.823299 4.9882798 -1014.57
-32.3871 4.7438998 -1013.21
-33.039101 4.3626699 -1011.37
-33.788898 3.3559301 -1007.06
-34.308998 2.82986 -1005.86
20.002199 -1.58304 -1045.41
15.8077 0.26776099 -1046.58
11.4743 1.72949 -1046.45
9.9130201 1.98901 -1046.08
7.8220201 2.8355701 -1046.12
6.5696998 3.15411 -1046.23
5.2522001 3.6668401 -1045.7
4.1696801 3.7241499 -1045.47
2.82617 4.1701002 -1045.4301
1.97137 4.2720599 -1044.96
0.82098401 4.6175499 -1044.73
-1.32965 5.06601 -1044.03
-2.7028201 5.19238 -1043.5601
-3.5728099 5.67242 -1042.99
-4.6315899 5.7185702 -1042.77
-6.1503301 5.7270498 -1042.27
-22.048 7.4559598 -1030.38
-25.1502 7.1944299 -1026.37
-25.6248 6.9516902 -1025.3199
-26.799 7.0496502 -1024.25
-27.1556 7.1368399 -1023.65
-27.3834 7.2192702 -1022.7
-27.885099 7.0150499 -1022.17
-28.794201 6.2190199 -1019.69
-29.5079 6.3484502 -1019.36
-29.4799 5.9503198 -1018.27
-30.5063 6.0668302 -1017.34
-30.8864 5.7852502 -1015.82
-31.2941 5.40555 -1014.97
-32.633999 5.3154302 -1012.14
-33.025002 4.8867502 -1011.24
-33.405399 3.95715 -1007.85
-33.9076 4.0332899 -1007
-34.788502 3.3011799 -1004.15
-34.4468 2.3721001 -1001.8
9.3966103 2.6126101 -1046.21
8.49652 2.9819901 -1045.78
6.82513 3.4647501 -1045.87
5.6847501 4.2543302 -1045.75
4.2278399 4.3496699 -1045.46
3.03772 4.5859699 -1045.1899
2.29932 4.9910002 -1044.84
0.67510998 5.1495099 -1044.63
-1.67181 5.8045001 -1043.88
-2.5838001 5.67102 -1043.3199
-3.5515101 6.23001 -1042.85
-4.4243798 6.12112 -1042.4301
-5.4114399 6.5671401 -1042.64
-6.8945899 6.8170199 -1041.9399
-13.7327 7.7170401 -1037.9301
-19.0313 7.9293199 -1033.41
-19.4394 8.3189402 -1032.87
-23.841999 7.8958402 -1028.1
-25.0499 7.7545199 -1026.5699
-25.5455 7.5941801 -1026.13
-25.235399 7.17661 -1024.87
-26.772499 7.6263099 -1024.2
-27.1297 7.6250601 -1023.48
-28.307301 7.2818599 -1021.42
-28.671801 6.9129601 -1020.66
-29.4807 6.8023701 -1019.19
-30.396 6.50208 -1017.18
-31.4125 6.07657 -1014.75
-31.617599 5.7446899 -1013.61
-32.0453 5.6389499 -1012.79
-32.5368 5.8519301 -1011.94
-32.887501 5.4198298 -1009.77
-34.107201 3.8022799 -1004.8
13.5898 2.38571 -1046.2
11.7041 2.6198399 -1045.98
8.3544903 3.8264799 -1045.9
7.1926298 3.9015801 -1045.5601
5.7446899 4.7544899 -1045.5699
4.2944298 4.8456998 -1045.42
3.1795001 5.01437 -1045.1899
1.38385 5.3554401 -1044.13
-0.442871 5.92239 -1044.35
-1.21997 6.0879798 -1043.85
-1.60193 6.3340502 -1043.71
-2.5936899 6.2518301 -1043.21
-4.1033902 6.6009498 -1042.48
-5.0016499 6.7839098 -1042.21
-5.9393301 7.0798302 -1042.04
-6.5495601 7.10812 -1041.6
-7.4237099 7.20398 -1041.14
-9.04706 7.3650198 -1039.85
-10.5446 7.7684898 -1040.01
-22.523199 8.3955698 -1029.6899
-23.605499 8.23172 -1027.92
-24.7929 8.0940905 -1026.17
-25.8444 7.6641798 -1023.94
-27.3895 7.7561598 -1022.59
-28.680201 7.1922302 -1019.53
-29.4417 7.33917 -1019.06
-29.940701 7.2367201 -1018.07
-30.0494 7.1311002 -1017.27
-30.7393 6.9541001 -1015.65
-32.236 6.1136198 -1012.32
-32.7384 6.0736399 -1011.03
-33.9324 4.6027498 -1005.77
15.9124 1.8186001 -1046.01
13.5998 2.93243 -1046.0601
11.6149 3.2472799 -1045.95
6.1272602 4.6240802 -1045.15
4.2698398 5.43753 -1045.1801
3.4017899 5.4730802 -1044.87
2.2420001 5.8056302 -1044.65
-0.45715299 6.4363999 -1044.17
-1.90527 6.7586398 -1043.45
-2.5722699 6.85922 -1043.12
-3.1496 6.8776598 -1043.03
-5.0255699 7.34973 -1042.12
-5.7315698 7.4658499 -1041.85
-6.5249 7.64078 -1041.5601
-7.3606601 7.6886001 -1040.98
-8.7416401 8.1696196 -1040.27
-9.3594999 8.2608004 -1040.1899
-10.3077 8.1326303 -1039.73
-11.48 8.4464703 -1039.04
-14.5714 8.5379896 -1036.97
-18.330601 8.9833097 -1033.28
-20.6984 9.0039396 -1031.39
-22.8444 8.7128296 -1028.99
-23.181299 8.79214 -1028.21
-24.6257 8.7128296 -1026.5601
-24.8922 8.7188396 -1026.17
-25.7822 8.1472502 -1023.89
-26.7169 8.4296904 -1023.42
-27.3538 8.23596 -1022.42
-28.4184 8.3994799 -1021.55
-28.8915 8.1642799 -1020.7
-30.3594 7.52106 -1016.97
-30.7463 7.5546598 -1016.63
-31.1208 7.2916298 -1015.01
15.9808 2.3426199 -1045.83
14.3574 2.66254 -1045.85
12.6631 3.15732 -1045.49
10.126 3.9781201 -1045.6899
8.5030499 4.8229098 -1045.5
7.64923 4.7593398 -1045.21
5.89819 5.20505 -1045.33
4.3316698 5.9664001 -1045.01
3.37854 6.1107798 -1044.88
0.365906 6.98456 -1044.39
-1.32227 7.2048998 -1043.71
-2.0706799 7.3793898 -1043.4
-2.70245 7.4467201 -1043.02
-4.12292 7.6770902 -1042.36
-4.8312402 7.7916598 -1041.95
-6.4511099 8.4086304 -1041.47
-7.27075 8.26752 -1040.9
-8.24121 8.1921396 -1040.47
-13.5377 8.64569 -1037.5
-19.6761 9.4272804 -1032.02
-22.042801 9.34863 -1029.51
-23.5487 9.2618999 -1027.62
-24.276199 9.28757 -1027.03
-24.762899 9.1189003 -1025.9
-25.6733 8.6096802 -1023.72
-26.942101 9.1359901 -1023.63
-26.9366 9.04984 -1022.94
-27.373501 8.7963896 -1022.32
-26.975401 8.3031597 -1021.38
-28.2453 8.1710796 -1019.87
-29.1383 8.3888903 -1019.23
-29.3263 8.2403297 -1018.6
-31.113501 8.0413799 -1016.15
-31.7927 7.6110201 -1014.09
-32.011799 7.7137499 -1013.15
-32.2206 7.03125 -1011.99
-32.555199 6.8382301 -1010.97
-32.973301 6.6814899 -1010.11
-33.285999 6.0390902 -1008.57
-33.584999 5.9507098 -1007.14
-33.954899 5.5954599 -1005.65
-34.3624 5.2663002 -1004.19
16.4617 2.74628 -1045.78
12.999 3.5989101 -1045.28
10.8127 4.3136601 -1045.41
8.5378399 5.3552198 -1045.34
7.5043302 5.5142498 -1045.26
5.1203599 6.3013902 -1044.7
3.2801499 6.6295199 -1044.63
1.6140701 7.0987902 -1044.61
0.515625 7.4285598 -1044.12
-1.69043 7.5974398 -1043.71
-2.12463 7.9254498 -1043.3
-3.06793 7.9974399 -1042.97
-3.5922899 8.1664104 -1042.6
-4.3021202 8.3201303 -1042.27
-5.4260898 8.4423504 -1041.83
-5.8801298 8.5561199 -1041.5601
-6.8471699 8.9110699 -1041.28
-7.3793302 8.7797499 -1040.75
-8.3141499 9.0306101 -1040.59
-9.2490196 9.2895803 -1040.11
-11.3754 9.5672598 -1038.9301
-12.5391 9.4038095 -1038.11
-16.536301 10.0274 -1034.5601
-18.2234 10.0417 -1032.9301
-21.823999 9.8035603 -1029.28
-22.970301 9.8741102 -1027.8199
-25.525801 9.6487398 -1024.49
-25.8964 9.3757 -1023.9
-26.5494 9.8944397 -1023.44
-27.225 9.2272596 -1022.04
-28.5518 8.9913597 -1020.09
-31.42 8.65485 -1015.78
-30.9354 8.2976999 -1014.58
-31.763901 8.1885405 -1014.09
-32.100201 7.5236201 -1011.82
-32.961201 7.53128 -1010.78
-32.818298 7.1676898 -1009.94
-33.114899 6.7620802 -1008.41
-33.604 6.3456101 -1006.53
-33.921001 6.18539 -1005.26
-34.143902 5.7435899 -1004
-34.163898 4.8327899 -1001.22
16.6005 3.3524201 -1045.61
14.9172 3.6441 -1045.55
9.6149902 5.2469201 -1044.99
7.8800001 5.8046298 -1044.97
6.8048701 5.9706998 -1044.74
4.4461098 6.9635901 -1044.95
3.2341299 7.0512099 -1044.39
1.77838 7.5616102 -1044.38
-0.165466 7.9892001 -1043.72
-1.7687401 8.72437 -1043.65
-2.14417 8.5250196 -1043.25
-3.0102501 8.5531301 -1042.91
-3.94293 9.0268602 -1042.45
-4.3209801 8.7911396 -1042.08
-5.2429199 8.8471098 -1041.6899
-6.6413002 9.2324495 -1041.05
-7.9826002 9.13025 -1040.22
-10.1382 10.2053 -1039.16
-19.630301 10.2853 -1031.73
-22.0896 10.2476 -1028.6801
-23.878099 10.5733 -1026.6899
-23.988199 9.9615202 -1025.89
-25.362101 10.0771 -1024.21
-27.334801 9.5136404 -1021.04
-28.304399 9.36621 -1019.64
-28.6968 9.2114601 -1018.78
-29.0679 8.8958101 -1017.53
-29.9491 9.4547701 -1016.94
-30.347601 9.1582603 -1016.25
-30.759899 8.8471403 -1015.56
-31.1343 8.9539804 -1014.53
-31.7547 8.0372 -1012.69
-32.222401 7.9953299 -1011.3
-32.7785 7.9780898 -1010.59
-33.039501 7.3276401 -1007.7
-33.233398 6.5683298 -1006.24
-33.933201 6.6570101 -1004.99
-34.044498 5.3460999 -1001.1
13.6745 4.3849201 -1044.7
9.4202299 6.1947598 -1044.87
7.6950102 6.5165401 -1044.91
3.3791499 7.5592999 -1044.17
1.65466 8.3211403 -1044.55
0.88678002 8.3503103 -1043.9399
0.171082 8.3558702 -1043.64
-0.95050001 8.4518099 -1043.4301
-1.88239 8.9627399 -1042.97
-3.02844 9.1061096 -1042.86
-4.02106 9.6556997 -1042.46
-6.7666001 9.9470501 -1041.16
-14.1861 10.462 -1036.1
-19.515699 10.6771 -1031.48
-19.8627 10.9668 -1030.85
-21.1649 11.0312 -1029.47
-21.963499 10.6523 -1028.51
-22.950001 10.6525 -1027.14
-24.573 10.5655 -1025.35
-25.510401 10.7459 -1024.23
-25.923599 10.4756 -1023.66
-26.0476 10.5573 -1022.61
-26.6838 10.4764 -1022.25
-27.3174 10.1176 -1021.03
-28.410801 10.203 -1020.01
-29.507099 9.6874704 -1017.54
-30.617201 9.2168303 -1015.16
-31.488899 9.0746803 -1013.5
-31.851101 9.1400499 -1012.47
-32.4753 8.6111498 -1010.2
-32.8395 8.1946096 -1009.34
-33.151402 7.9734201 -1007.73
-33.7094 6.4014001 -1002.96
-33.943001 4.4624 -996.55499
14.5011 5.5237699 -1045.3199
11.1958 5.9569702 -1044.79
8.8266001 6.9198599 -1044.95
7.1232901 7.2677302 -1045
5.7210102 7.6934199 -1044.8101
4.7073998 7.8095398 -1044.25
1.9596601 8.9368601 -1044.1899
1.16943 8.8047199 -1043.72
0.068847701 9.1598501 -1043.6
-0.61340302 9.22122 -1042.8101
-1.9057 9.6073599 -1043.02
-2.6522801 9.7133198 -1042.6
-3.07025 9.8054504 -1041.98
-4.0363798 9.8141804 -1041.66
-4.90204 10.0259 -1041.42
-12.733 11.2468 -1037.29
-13.6963 11.1651 -1036.4
-17.272699 11.3481 -1033.08
-21.1509 11.5452 -1029.3199
-23.078699 11.0599 -1026.48
-23.7216 10.9687 -1026.38
-24.592199 11.1 -1025.23
-26.860701 10.5959 -1021.24
-27.252501 10.8908 -1020.45
-28.3519 10.5164 -1019.39
-28.598 10.1107 -1018.58
-29.292299 9.9827299 -1017.03
-29.680599 10.1779 -1016.26
-30.355801 10.1268 -1015.9
-30.577101 9.6936998 -1014.96
-30.676901 9.6283302 -1014.29
-31.266001 9.6344299 -1013.55
-32.0947 9.11584 -1011.13
-32.691101 8.4991503 -1008.82
-33.1026 8.1576204 -1007.13
-33.5536 7.50424 -1004.55
18.277 4.0458999 -1044.36
12.4008 6.3978901 -1045.22
9.8635302 7.3361802 -1045.03
8.2620201 7.6188002 -1044.97
7.21802 7.74719 -1044.88
3.2035501 8.9775696 -1044.1899
2.2533 9.1818199 -1043.92
1.04889 9.44174 -1043.74
0.0130615 9.5607595 -1043.52
-0.68945301 9.8110704 -1042.74
-1.69165 10.0963 -1042.89
-2.2288799 10.0722 -1042.27
-4.1967201 10.6103 -1041.92
-5.3732901 10.6319 -1041.59
-5.7005 11.0452 -1041.08
-6.2171001 11.0564 -1040.9301
-11.3457 11.6599 -1037.96
-13.0613 11.6974 -1036.4301
-14.4712 11.8697 -1035.24
-21.500299 11.662 -1028.1
-22.6339 11.624 -1026.79
-23.5993 11.4668 -1025.37
-24.4897 11.5995 -1024.99
-24.7388 11.2422 -1024.26
-25.370199 11.4243 -1023.36
-26.1224 11.1954 -1022.54
-26.773899 11.1649 -1021.14
-27.3888 11.5274 -1020.46
-27.5313 11.0434 -1019.51
-29.2826 10.8224 -1017.32
-30.492201 10.7744 -1014.74
-30.686899 10.2652 -1014.29
-31.472099 9.9282799 -1011.81
-31.808901 9.3810997 -1010.77
-32.651199 9.0203199 -1008.41
-33.1702 8.1462698 -1005.77
-32.946499 7.51331 -1003.52
-34.010399 5.6525002 -995.89001
17.9895 5.1845698 -1044.9399
12.5642 6.6862798 -1044.8
8.8883696 7.9822698 -1044.8
7.4685702 8.4003 -1044.64
4.1918898 9.1789198 -1044.37
3.1104701 9.8737497 -1044.11
1.30646 10.0539 -1043.66
0.75390601 10.0013 -1043.04
-0.41992199 10.509 -1043
-1.3111 10.5423 -1042.6
-1.6236 10.2671 -1041.71
-2.9481201 10.7696 -1041.55
-3.6608901 10.9897 -1041.65
-4.6473999 11.1675 -1041.3101
-6.25494 11.4755 -1040.64
-16.606501 12.2498 -1033.22
-21.0746 12.2937 -1028.47
-23.8601 12.3172 -1025.66
-24.476299 12.2735 -1024.91
-27.606899 11.6374 -1019.47
-28.427 11.505 -1018.5
-29.1194 11.3042 -1017.15
-28.636999 10.6281 -1015.84
-30.238701 11.0408 -1015.21
-30.689301 10.678 -1013.64
-31.562901 10.1609 -1011.18
-31.988899 10.0132 -1010.29
-32.212799 9.7196703 -1009.18
-32.848499 9.1850901 -1006.78
-33.2491 8.8176298 -1005.77
-32.900799 9.1064501 -1005.24
-33.341801 6.2670298 -997.10999
18.5774 5.4085102 -1044.53
12.0616 7.4502001 -1044.9399
8.8224497 8.5690899 -1044.75
5.2520099 9.6166401 -1044.37
4.5955801 9.7744799 -1044.4399
2.2904699 10.3445 -1043.58
1.94165 10.2289 -1043.25
-0.116638 10.7379 -1042.6899
-1.21149 10.9507 -1042.39
-2.0770299 10.9017 -1042.01
-3.11993 11.4851 -1041.5699
-3.6719999 11.5134 -1041.55
-4.29004 11.4868 -1040.98
-4.9500699 11.9547 -1040.73
-5.8392301 11.7823 -1040.28
-6.6135898 11.9294 -1039.98
-10.2845 12.5292 -1037.85
-10.997 12.5816 -1037.5699
-12.3452 12.5479 -1036.12
-13.7188 12.7002 -1034.98
-20.3486 12.9296 -1029.38
-21.6378 12.6779 -1027.37
-22.516899 12.4308 -1025.83
-23.479401 13.0144 -1025.5601
-23.9429 12.728 -1025.05
-24.8661 12.5565 -1023.73
-25.4713 12.3885 -1022.59
-26.388 12.4404 -1021.37
-26.9699 12.283 -1020.62
-27.1049 12.3604 -1019.91
-27.5611 12.0879 -1019.29
-27.601999 11.6611 -1018.31
-28.4426 12.0703 -1017.88
-29.0767 11.8311 -1017.1
-29.371799 10.9637 -1015.52
-30.2992 11.1126 -1014.42
-30.677601 11.1969 -1013.32
-31.2223 11.1324 -1012.73
-32.220402 10.6939 -1009.49
-32.448502 10.0037 -1008.12
-33.1259 5.48248 -993.11499
10.4529 8.7967196 -1044.6
9.52069 8.8680696 -1044.42
7.30408 9.3579702 -1044.58
5.9040499 9.9997902 -1044.1899
4.7094698 10.2253 -1044.2
3.4992099 10.5809 -1043.9
2.25879 10.9013 -1043.5
1.86304 10.7737 -1043.0699
1.0956399 10.6047 -1042.62
-0.172668 11.4518 -1042.49
-0.74127197 11.3044 -1042.16
-2.8067601 11.7885 -1041.11
-3.62378 12.0541 -1041.3101
-4.2932701 12.1005 -1041.02
-7.7946801 12.6741 -1039.28
-8.38556 12.7463 -1038.9
-15.0326 13.4774 -1033.74
-20.107201 13.3096 -1029.12
-21.141399 13.2301 -1027.89
-22.9286 13.1106 -1025.9301
-24.184401 13.0333 -1024.22
-26.742399 12.6298 -1020.34
-27.1196 12.8832 -1019.8
-27.462601 12.5211 -1019.05
-28.563 12.0482 -1016.74
-30.071899 12.2569 -1015.67
-30.2997 11.9488 -1014.57
-30.4568 11.5814 -1012.96
-31.5228 10.8245 -1010.05
-32.474499 10.3633 -1007.5
-32.613499 10.2632 -1007.05
-32.9109 9.6877098 -1004.91
-33.335602 8.2901897 -1001.27
16.7019 7.0104399 -1044.16
12.6035 8.4392996 -1044.66
11.6922 8.5483398 -1044.15
10.0732 9.0215101 -1044.02
7.36237 9.8556805 -1044.4301
6.3811598 10.1806 -1044
5.0510302 10.6079 -1043.88
3.7990699 10.9665 -1043.72
2.8549199 11.3621 -1043.36
1.80444 11.4182 -1043.1
-1.06616 11.9354 -1041.9399
-1.40271 11.8214 -1041.64
-2.60413 12.5853 -1041.46
-3.5332601 12.5247 -1041.09
-3.81494 12.3702 -1040.71
-7.2339501 12.7465 -1039.26
-11.7896 13.6012 -1036.14
-18.186001 13.6315 -1030.47
-20.430901 13.7825 -1028.62
-21.1243 13.7072 -1027.67
-22.678801 13.6563 -1026.02
-23.7204 13.7151 -1024.5699
-24.289801 13.5896 -1023.1
-25.049 13.6205 -1022.89
-25.7978 13.5817 -1021.51
-26.094801 13.2474 -1020.83
-27.4951 13.0569 -1018.95
-28.1245 12.92 -1017.34
-28.8873 12.6864 -1016.61
-28.913 12.478 -1016.13
-29.753401 12.302 -1014.67
-31.5618 11.7061 -1011.64
-31.438999 11.8947 -1009.68
-32.001499 11.4052 -1009.54
-32.378101 10.6946 -1005.96
-33.238098 10.5664 -1005.31
-32.974499 8.8786898 -1000.17
11.9515 8.9435101 -1043.9301
7.46387 10.3311 -1044.1801
6.8234301 10.5027 -1043.6899
5.5977802 10.844 -1043.52
3.1444099 11.4616 -1043.0601
2.13428 11.7647 -1042.71
0.97399902 11.9186 -1042.6
0.0012207 12.4588 -1042.14
-0.19207799 12.1855 -1041.6
-1.28174 12.2672 -1041.39
-2.09973 12.5698 -1041.22
-2.76208 12.7805 -1040.8
-3.7476201 12.796 -1040.53
-4.6911602 12.7967 -1040.22
-6.04913 13.1768 -1039.38
-9.5874004 13.9734 -1037.61
-12.3719 14.1215 -1035.8
-15.1133 14.2467 -1033.55
-15.2128 14.2503 -1032.86
-19.3701 14.1582 -1029.2
-21.0383 14.2578 -1027.51
-22.636801 13.9182 -1025.33
-23.2887 14.1226 -1025.05
-24.127899 13.8045 -1023.55
-25.8652 14.1887 -1021.49
-26.074699 13.7464 -1020.67
-26.610399 13.631 -1020.2
-26.8979 13.226 -1019.42
-27.2645 13.4479 -1018.57
-27.327801 13.1034 -1018
-28.7122 13.4582 -1016.97
-28.963699 12.9745 -1015.9
-29.3979 12.8014 -1015.54
-30.386499 12.7346 -1013.93
-30.169701 12.4344 -1012.99
-31.2847 12.3028 -1011.37
-31.3804 12.1842 -1010.86
-32.174702 11.4372 -1007.76
-33.052601 10.2869 -1003.25
-33.408298 9.5931101 -1000.19
14.4411 8.9497099 -1044.01
11.825 9.45963 -1044.08
10.4226 10.0215 -1043.88
7.2010498 10.9617 -1043.54
5.4874902 11.5675 -1043.48
3.41693 11.9784 -1042.99
2.07166 12.3372 -1042.61
0.97637898 12.5023 -1042.53
-1.20972 12.9817 -1041.55
-1.78564 12.8954 -1040.89
-2.6781001 13.25 -1040.64
-3.88062 13.5827 -1040.72
-4.2761798 13.3874 -1039.95
-4.9274902 13.6134 -1039.51
-8.1915302 14.1316 -1038.3199
-11.6266 14.6194 -1036.29
-12.0481 14.5859 -1035.84
-14.4501 14.7328 -1033.76
-16.5369 15.0529 -1031.54
-18.9202 15.0802 -1029.6899
-20.1514 14.739 -1028.3199
-22.122299 14.7174 -1026.25
-22.795601 14.3337 -1024.5
-24.751301 13.8118 -1021.15
-27.545799 13.914 -1018.29
-28.116301 13.7149 -1017.23
-28.823601 13.7513 -1016.55
-29.496799 13.2291 -1013.95
-30.747299 12.917 -1011.8
-31.4006 12.3706 -1009.37
-31.8638 12.2097 -1008.71
-32.078201 10.8719 -1005.3
-32.811001 11.0638 -1004.17
-32.883701 10.555 -1002.52
-32.871399 9.5086699 -999.20801
12.3953 9.84161 -1043.86
11.1002 10.2341 -1043.34
8.5680504 11.1617 -1043.77
7.59656 11.3041 -1043.71
5.21454 11.9955 -1042.89
3.72717 12.5303 -1042.49
2.66254 12.621 -1042.46
1.41614 13.0073 -1042.3
0.59185803 13.4256 -1042.03
-0.91064501 13.3383 -1041.22
-2.6461201 13.7461 -1040.48
-3.5490699 13.9405 -1040.37
-4.2257099 14.3185 -1040.01
-6.0096998 14.4366 -1039.47
-6.5897799 14.4621 -1039.02
-14.0304 15.2463 -1033.88
-21.3888 15.0234 -1026.6899
-21.7693 15.3404 -1026.05
-22.475901 14.9937 -1025.12
-23.4844 14.9462 -1023.87
-24.210699 14.5493 -1022.73
-24.4858 15.309 -1022.89
-24.633801 14.8531 -1022.04
-26.074301 14.7819 -1020.37
-27.6549 13.951 -1016.82
-27.9722 14.4341 -1016.62
-28.472799 14.2629 -1016.19
-29.625099 13.9348 -1014.02
-30.690201 13.423 -1011.51
-31.878099 12.5673 -1008.43
19.499599 7.8523898 -1042.5
15.7587 9.5853596 -1043.33
10.4166 11.27 -1043.46
9.5287504 11.2309 -1043.26
7.8007798 12.0562 -1043.02
7.4498901 12.0002 -1042.77
5.71667 12.322 -1042.78
4.56671 12.6124 -1042.46
3.51758 12.8008 -1042.04
0.89782703 13.5353 -1041.64
-0.16369601 13.7743 -1041.3199
-0.86779797 13.8866 -1041.15
-1.51685 14.1301 -1040.52
-2.4834599 14.244 -1040.51
-3.3234899 14.3717 -1040.1801
-8.0180702 15.064 -1037.7
-12.6384 15.5847 -1034.67
-13.2158 15.6088 -1033.6801
-17.2437 15.6225 -1030.39
-18.948799 15.6329 -1028.61
-21.2241 15.9323 -1026.24
-21.9902 15.4833 -1025.3
-23.013599 15.7774 -1024.25
-23.734301 15.2636 -1023.1
-25.7714 15.1514 -1021.07
-26.7188 14.6895 -1018.76
-26.709801 14.3708 -1017.33
-27.7302 14.7108 -1017.04
-28.2113 14.5417 -1015.6
-28.503799 14.6571 -1014.65
-28.996 14.0111 -1014.4
-29.424 14.3475 -1013.67
-29.921 14.0643 -1012.82
-30.3943 14.1729 -1012.52
-30.497999 13.7287 -1011.29
-31.126301 13.5285 -1009.99
-31.2938 13.2727 -1008.94
-31.614901 13.0538 -1007.93
-31.428101 13.0868 -1007.36
-31.6821 12.6849 -1006.73
-32.137199 12.1824 -1004.77
16.998199 9.7586098 -1042.97
9.3566904 11.8995 -1043.23
9.10114 11.8621 -1042.62
7.5942402 12.3779 -1042.46
6.4815102 12.5591 -1042.39
4.91467 13.1973 -1042.39
4.0093398 13.2277 -1041.79
2.83307 13.4769 -1041.62
0.15722699 14.2561 -1041.17
-0.783081 14.494 -1041.03
-1.37604 14.5251 -1040.55
-2.21838 14.6596 -1040.28
-6.8575401 15.5467 -1038.04
-14.1024 15.9447 -1032.85
-20.4921 16.195 -1027.03
-21.423599 16.1063 -1025.39
-22.0497 16.0599 -1025.11
-23.7813 15.8263 -1022.97
-24.393999 15.7426 -1021.5
-25.7094 15.0379 -1018.52
-27.4792 15.136 -1016.97
-29.7234 14.9873 -1013.91
-29.970501 14.2793 -1011.25
-30.685699 14.2916 -1010.86
-30.697599 14.0381 -1009.48
-31.211599 13.8028 -1008.78
-31.5842 13.6311 -1007.3
-31.6127 12.8437 -1005.77
-32.106899 12.2069 -1002.99
-32.485298 10.2142 -996.20001
12.6973 11.6798 -1042.87
10.0327 12.1895 -1042.9399
9.1199303 12.6823 -1042.5
8.0457201 12.8699 -1042.42
6.7930899 13.0754 -1042.0601
5.6733398 13.3107 -1041.79
4.4541602 13.761 -1041.77
3.21667 13.9468 -1041.36
2.086 14.1583 -1041.1
-0.49823001 14.9875 -1040.87
-0.94970697 15.1421 -1040.3101
-1.99677 15.2146 -1040.13
-10.4111 16.562099 -1036.0601
-17.643101 16.5362 -1029.64
-18.6597 16.691099 -1028.48
-21.4443 16.617599 -1025.26
-22.3419 16.834299 -1024.1801
-23.734699 16.8939 -1022.62
-24.023701 16.5467 -1021.94
-25.013201 16.252501 -1020.99
-26.297199 15.8879 -1018.42
-27.260099 15.5305 -1016.62
-27.4767 15.5975 -1015.54
-28.138 15.3077 -1014.67
-28.8608 15.4503 -1013.7
-30.509899 14.5925 -1010.05
-30.615999 14.4374 -1009.12
-31.2374 13.8062 -1006.9
-31.635401 13.6902 -1006.12
-31.733299 12.9577 -1003.82
-32.416901 12.7579 -1002.23
-32.3018 11.7006 -998.61603
16.5609 10.8256 -1042.66
14.2839 11.3513 -1042.86
13.2846 11.7678 -1042.4
11.1531 12.382 -1042.67
9.8773203 12.7985 -1042.21
8.0841703 13.3231 -1042.24
5.4008198 14.1918 -1041.85
4.3558302 14.3541 -1041.72
3.5424199 14.4237 -1041.17
2.0654299 14.9283 -1040.91
1.0542001 14.96 -1040.7
0.32952899 15.7436 -1040.65
-0.83276403 15.4972 -1040.1801
-1.99481 15.7878 -1039.99
-2.9007599 15.7159 -1039.62
-4.7859502 16.255501 -1038.71
-5.32581 16.277 -1038.2
-6.0808101 16.4396 -1037.58
-6.7119098 16.554199 -1037.59
-17.582001 17.5417 -1029.29
-19.976299 17.073999 -1026.51
-20.9664 17.323099 -1025.51
-21.689899 17.165899 -1025
-22.7686 17.2246 -1023.54
-24.5341 16.6465 -1020.95
-25.370701 17.0313 -1020.02
-25.997299 16.567301 -1018.84
-26.6141 16.532101 -1018.04
-27.1929 15.9667 -1016.37
-27.2577 15.9606 -1015.79
-27.7663 15.6793 -1014.58
-29.063101 15.7406 -1013.22
-29.5688 15.1399 -1011.84
-30.0952 15.3641 -1011.01
-30.5065 15.0281 -1009.45
-30.903299 14.8561 -1008.55
-30.9764 14.6768 -1007.97
-30.986099 14.0499 -1006.1
-31.386999 13.4783 -1004.78
-32.002602 11.1156 -995.69
16.008699 11.3872 -1042.02
11.5535 12.8975 -1042.37
10.4109 13.0768 -1041.8
8.6191998 13.7853 -1042.14
7.1198702 13.9377 -1041.91
5.6160302 14.5835 -1041.49
4.9332299 14.6285 -1041.29
3.51898 14.8331 -1041.26
1.97229 15.5327 -1040.86
1.12018 15.4801 -1040.46
-0.60729998 16.254999 -1040.17
-1.7615401 16.1721 -1039.6
-3.0639 16.383101 -1039.05
-4.2720299 16.573099 -1038.41
-5.0371699 16.7041 -1038.08
-6.0247202 16.930599 -1037.35
-6.4756498 16.855801 -1037.21
-7.0531602 16.871401 -1036.77
-7.9010601 16.789499 -1036.5
-8.3241596 17.041201 -1036.02
-15.3991 17.6313 -1031.29
-20.408199 17.4151 -1025.85
-21.0084 17.9016 -1025.42
-26.768499 16.7701 -1016.89
-27.143101 16.925699 -1015.98
-28.4541 16.0417 -1013.28
-29.3766 16.0436 -1011.29
-29.9879 15.8711 -1010.88
-30.2258 15.4014 -1009.18
-30.6061 15.3443 -1008.44
-30.819599 14.9786 -1007.25
-31.337 13.9409 -1004.36
-31.929001 13.1424 -1000.45
-31.7789 12.224 -997.33197
17.848801 11.4297 -1042.13
15.9919 12.0743 -1042.23
12.8358 13.102 -1042.33
8.8518105 14.1569 -1041.78
7.2041001 14.3956 -1041.6899
6.37677 14.7283 -1041.36
3.9814501 15.3285 -1040.85
2.9906001 15.502 -1040.46
0.82916301 15.9176 -1039.98
-2.2207601 16.7085 -1039.28
-3.12744 16.712299 -1038.34
-3.9902999 16.960199 -1038.21
-4.3685298 16.680599 -1037.52
-5.5156898 16.8923 -1037.4399
-5.8643799 17.2661 -1037.01
-7.6954298 17.600201 -1036.58
-13.2751 18.115101 -1032.67
-18.206699 18.1436 -1028.08
-20.064899 17.940901 -1025.77
-20.971701 18.4314 -1025.21
-22.4319 17.9902 -1023.49
-23.031401 17.969601 -1022.51
-23.371599 17.6765 -1021.92
-25.882299 17.266899 -1018.15
-26.5403 17.030001 -1016.45
-27.4405 17.0422 -1015.02
-28.6763 16.839001 -1013.09
-29.8978 16.3055 -1010.45
-30.2297 15.5601 -1007.83
-31.0688 15.0728 -1005.62
-31.0982 14.211 -1003.78
-31.378201 14.0609 -1002.27
-31.728001 12.5613 -997.06702
18.4077 11.8664 -1041.9301
13.5002 13.4297 -1042.0601
11.8351 13.7516 -1042.08
10.2773 13.9945 -1041.98
8.9557505 14.6178 -1041.51
7.7660499 14.901 -1041.51
6.5808101 15.1654 -1041.21
5.3586402 15.5103 -1040.98
4.16888 15.758 -1040.87
1.9137599 16.320601 -1039.97
1.16113 16.4053 -1039.79
0.382568 16.4328 -1039.67
-1.1303101 17.0298 -1039.2
-3.2739899 17.1497 -1037.6899
-4.24792 17.106701 -1037.23
-5.27179 17.6229 -1037.37
-5.7820401 17.6423 -1036.71
-7.7603102 17.874701 -1035.78
-9.8360004 18.3148 -1034.9301
-10.6254 17.7771 -1034.29
-11.4969 18.3974 -1033.7
-14.6111 18.513399 -1030.98
-16.415501 18.656 -1029.45
-17.690201 18.779301 -1028.12
-19.7255 18.2442 -1025.42
-21.163 18.6127 -1024.34
-22.077801 18.3447 -1023.14
-26.681999 17.686001 -1016.47
-28.183701 17.0418 -1013.55
-28.746099 16.981701 -1012.32
-29.122601 16.960899 -1011.93
-29.4186 16.672001 -1011.25
-29.7428 16.553499 -1009.99
-29.919001 16.2335 -1008.89
-31.094801 15.0222 -1003.84
14.6968 13.6721 -1041.71
13.0124 13.874 -1041.48
10.9535 14.5772 -1041.7
9.6137104 14.7861 -1041.3199
7.9049101 15.302 -1041.27
6.7827802 15.648 -1041.09
5.35779 16.1143 -1040.76
4.2697802 16.252001 -1040.64
3.27777 16.3402 -1040.47
1.20471 17.036699 -1039.9399
0.32830799 17.1297 -1039.47
-2.63586 17.9293 -1038.26
-5.6564898 18.047899 -1036.41
-19.4988 18.963301 -1026.0601
-20.747999 18.8083 -1024.8199
-21.930901 19.0117 -1023.73
-23.325399 18.688801 -1021.6
-25.8915 17.8871 -1016.49
-26.6068 18.152901 -1016.24
-27.8069 17.7969 -1013.97
-29.8967 16.760799 -1008.84
-30.5569 15.961 -1006.04
-31.028299 15.4889 -1003.76
-31.304899 14.9519 -1001.63
-31.4352 13.0792 -995.66302
11.2312 15.0063 -1041.47
9.4352999 15.6345 -1041.27
8.5921001 15.6423 -1040.98
7.30896 15.9586 -1040.76
5.3787799 16.6451 -1040.59
4.7255902 16.622101 -1040.3101
3.6735799 16.8423 -1040.11
2.2937 17.3484 -1039.86
1.62744 17.3195 -1039.5
0.39208999 17.4774 -1039.4
-0.37676999 17.780001 -1039.04
-0.84246802 17.7892 -1038.63
-1.8504601 18.0972 -1038.46
-3.3284299 18.209101 -1037.42
-4.5042701 18.3363 -1036.78
-18.884501 19.3708 -1026.47
-20.002501 19.308201 -1024.9301
-21.198601 19.365101 -1023.85
-21.469299 19.3325 -1023.45
-25.783701 18.7239 -1017.54
-26.573 18.5404 -1015.84
-27.1075 18.376301 -1014.13
-27.7887 18.223101 -1013.66
-27.9751 17.7906 -1012.75
-27.980301 17.545401 -1011.63
-28.9058 17.7139 -1011
-29.0961 17.692101 -1010.65
-29.9594 17.2012 -1008.27
-30.6301 16.2325 -1004.62
-30.937099 15.8258 -1003.08
-30.7535 15.809 -1002.31
-31.273899 14.3177 -997.77502
15.5138 14.4396 -1041.13
9.9175997 16.1113 -1041.17
8.5769701 16.1542 -1040.86
7.4235802 16.5471 -1040.76
6.2908902 16.728001 -1040.3
4.4345102 17.169399 -1040.25
4.0197101 17.275101 -1039.9
3.21594 17.8829 -1040.04
1.02924 17.8694 -1038.89
0.109131 18.3167 -1038.8
-2.01105 18.7665 -1037.86
-3.2755699 18.648199 -1037.23
-4.42871 18.9091 -1036.76
-4.7330899 18.7013 -1036
-11.2487 20.040199 -1032.66
-17.373699 20.100401 -1027.33
-20.955 19.9501 -1023.69
-21.476101 19.712299 -1022.56
-22.8379 19.816999 -1021.73
-26.372601 19.0429 -1015.61
-26.8876 18.8321 -1015.03
-27.9944 18.479401 -1012.48
-27.9893 18.287701 -1011.19
-28.8083 18.2362 -1010.97
-28.952499 17.809999 -1010.06
-29.1493 17.7533 -1008.72
-29.382999 17.3451 -1007.74
-29.924 17.160999 -1006.41
-30.1945 16.624399 -1005.1
-31.064199 16.547001 -1002.43
13.7662 15.3078 -1041.02
10.7328 16.3414 -1040.83
9.0441904 16.6576 -1040.8101
5.19135 17.5795 -1040.0601
4.2713599 17.769501 -1039.76
3.38306 17.791901 -1038.96
1.08417 18.5686 -1038.99
0.15014599 18.7796 -1038.5699
-0.590271 18.8251 -1038.39
-3.83868 19.2792 -1037.02
-5.8467999 19.767099 -1036.12
-17.7997 20.471399 -1026.79
-19.750299 20.5399 -1025.1801
-20.6465 20.2187 -1024.28
-21.8939 20.123501 -1022.64
-22.642 20.1642 -1021.34
-25.1966 19.4312 -1016.54
-25.9014 19.468399 -1015.83
-26.590799 19.169701 -1014.53
-27.1931 18.8731 -1012.66
-27.7115 18.6667 -1012
-28.787001 18.594999 -1010.27
-29.512199 18.4389 -1008.74
-29.1376 17.8286 -1007.56
-29.6702 17.950399 -1005.54
-30.018801 16.9834 -1004.76
-30.2906 16.678301 -1002.96
-30.731899 15.8279 -998.86102
17.1024 14.7482 -1040.54
8.49683 17.126101 -1039.95
6.74652 17.7395 -1040
5.1124301 18.008499 -1039.89
4.8459501 18.367399 -1039.37
2.6851201 18.7472 -1039.1
0.66955602 19.1852 -1038.4301
-0.13006601 19.112499 -1037.99
-0.73236102 19.2493 -1037.63
-1.48077 19.4723 -1037.08
-2.3944099 19.5917 -1037.05
-3.1121199 19.577101 -1036.78
-12.2102 21.0373 -1031.83
-15.1877 20.7323 -1029.21
-17.2194 20.9666 -1026.89
-18.4568 20.944099 -1025.9
-21.3857 20.265499 -1020.93
-22.4156 20.540899 -1020.94
-23.0753 20.6635 -1020.31
-25.502001 20.6276 -1016.5
-25.9534 20.1259 -1015.92
-26.7418 19.493601 -1013.24
-28.83 19.0721 -1009.12
-29.602501 18.1952 -1007.1
-29.808399 17.4697 -1003.53
-30.4772 16.934799 -1001.45
-30.1029 15.7599 -997.78601
-30.856899 15.4597 -996.24701
16.3041 15.5777 -1040.25
14.7891 15.7493 -1039.71
11.4185 17.1085 -1040.3101
9.7947998 17.4093 -1040.38
9.0178804 17.848101 -1039.88
7.2206998 18.1255 -1039.71
4.0339999 18.907301 -1039.0699
2.7353499 18.9806 -1038.72
2.40607 18.882401 -1038.41
1.20471 19.613199 -1038.24
0.235168 19.678699 -1037.86
-1.07367 20.0637 -1037.1899
-2.2132599 19.861401 -1036.36
-2.8064001 20.097 -1036.4
-15.9579 21.603001 -1028.38
-16.8356 21.679399 -1027.1899
-19.2474 21.215599 -1024.23
-19.763599 21.5938 -1023.8
-21.3972 21.4512 -1022.49
-22.043301 21.3293 -1021.36
-21.7582 20.6933 -1020.38
-24.8909 20.7626 -1016.91
-25.239799 20.4454 -1015.9
-26.5096 20.152399 -1014.06
-26.832001 20.2451 -1013.08
-27.517401 19.9863 -1012.02
-27.3463 19.586599 -1011.08
-27.684401 19.625299 -1010.77
-28.234301 19.286501 -1009.68
-28.936001 19.2236 -1008.14
-28.853901 18.924101 -1007.38
-29.186701 18.7402 -1006.45
-30.0457 17.554399 -1001.8
-30.1528 17.400999 -1001.26
-30.494801 16.542801 -998.15997
26.444599 12.7137 -1038.41
16.9382 15.8345 -1039.8
15.088 16.2901 -1039.61
8.4798002 18.4478 -1039.67
7.3997202 18.620199 -1039.6
5.8347802 18.825701 -1039.46
5.3681002 19.362 -1039.1801
4.3209801 19.422001 -1038.88
3.5725701 19.719999 -1038.15
2.43768 19.9266 -1038.0699
1.45593 19.957899 -1037.83
0.40875199 20.031601 -1037.63
-0.57452399 20.0429 -1037.33
-1.8340501 20.4886 -1036.61
-2.47382 20.5284 -1036.16
-3.1303699 20.8624 -1035.6801
-4.1487398 20.9035 -1035.4
-6.77777 20.8901 -1034.48
-11.2808 21.862499 -1031.79
-12.8649 21.998699 -1030.65
-17.6049 21.841801 -1026.12
-18.484301 22.075899 -1025.13
-20.0968 21.873899 -1023.06
-20.851601 21.885401 -1022.65
-21.276899 21.672199 -1021.73
-24.871201 21.255199 -1016.74
-25.5805 21.1122 -1015.12
-25.8785 20.722601 -1014.36
-26.0704 20.468599 -1013.25
-26.7572 20.643999 -1012.82
-27.3696 20.509199 -1011.88
-28.0933 19.883499 -1009.22
-28.3589 19.534901 -1007.92
-28.799601 19.164499 -1007.04
-29.180901 19.183001 -1005.83
-29.0942 19.5434 -1005.25
-29.319901 18.8363 -1004.73
-29.622299 18.456301 -1003.23
-29.946699 17.8864 -1001.11
-30.263201 17.355 -999.07202
-30.4652 16.600901 -996.41302
15.5127 16.682699 -1039.36
10.5283 18.221201 -1039.91
9.0440102 18.8074 -1039.73
7.9525099 18.895201 -1039.23
5.9373202 19.2628 -1039.23
5.3831201 19.855101 -1039.01
3.58026 20.0786 -1038.52
1.46735 20.493999 -1037.64
0.893677 20.5702 -1037.59
0.186707 20.567301 -1037.01
-0.76293898 20.7743 -1036.75
-1.26227 20.9261 -1036.4
-2.2595799 20.969801 -1035.97
-3.2742901 21.5123 -1035.64
-6.32092 21.878099 -1034.74
-9.4069204 22.1845 -1032.83
-12.176 22.063601 -1030.5601
-16.655199 22.5884 -1026.6801
-18.4349 22.576401 -1024.91
-23.048599 22.120199 -1018.93
-25.3785 21.5005 -1015.35
-26.004101 21.262199 -1013.92
-26.322399 21.008801 -1012.85
-27.2563 20.987301 -1011.79
-27.2969 20.7561 -1010.58
-27.764999 20.4741 -1009.85
-28.0096 20.151501 -1008.51
-28.4055 20.0007 -1007.59
-28.804899 19.878 -1006.71
-29.2292 19.125601 -1004.02
-29.431499 18.9109 -1003.05
-29.5916 18.6131 -1001.98
-30.1234 17.8557 -998.92798
15.3224 17.2453 -1039.66
10.6087 18.6763 -1039.66
9.0276499 19.428101 -1039.4
8.1272001 19.403 -1039.1801
6.5218501 19.7125 -1039.0601
5.6954298 19.969801 -1038.73
5.0991201 20.282801 -1038.4301
3.8848901 20.452499 -1038.25
2.44049 20.462799 -1037.9
1.07074 20.9734 -1037.25
0.167419 20.938801 -1036.9
-1.07428 21.1525 -1035.9399
-2.07318 21.367201 -1035.78
-4.5316801 22.226 -1034.55
-5.8604102 22.429701 -1034.63
-10.9121 22.778299 -1031.49
-11.5856 22.5238 -1030.5699
-15.6168 22.713499 -1027.28
-16.167299 22.6619 -1027.02
-19.948999 22.853001 -1022.56
-20.2435 22.5669 -1022.09
-22.173 22.5217 -1019.97
-25.718399 21.5756 -1013.81
-26.5548 21.500299 -1012.22
-26.945999 21.1597 -1011.41
-27.8036 20.780701 -1008.96
-28.3561 20.5327 -1007.49
-28.798401 19.7757 -1004.65
-29.5488 19.131399 -1001.97
-29.0665 19.308599 -1001.3
-29.646999 18.864 -1000.17
-29.6835 17.929399 -998.35303
-29.9939 17.739 -997.09698
16.535101 17.4007 -1039.29
12.2281 18.753401 -1039.26
10.0478 19.306499 -1038.95
8.1605797 19.9883 -1038.97
7.0468102 20.174801 -1038.9399
5.9770498 20.3946 -1038.5601
5.1974502 20.564699 -1038.22
4.6718102 20.714399 -1037.97
3.05902 21.405899 -1037.58
1.74286 21.1208 -1036.86
0.67657501 21.434099 -1036.86
-1.20947 21.919901 -1036.0601
-2.7859499 21.9844 -1035.6801
-5.3660302 22.311701 -1033.87
-6.46106 22.7199 -1033.97
-14.2842 23.420799 -1028.5699
-19.258699 23.268 -1023.49
-20.885099 23.063101 -1021.51
-21.644501 23.101801 -1020.22
-24.7845 22.4471 -1015.51
-24.5581 21.8636 -1014.75
-25.284201 22.339001 -1014.58
-25.6971 22.0763 -1013.61
-26.184601 21.9904 -1012.74
-26.6434 22.116699 -1012.16
-26.7584 21.530399 -1011.05
-27.413 21.269199 -1009.21
-27.700199 21.007299 -1008.21
-28.4718 20.4949 -1005.77
-28.705099 20.250999 -1004.34
-29.1703 19.998501 -1003.41
-29.5338 18.2136 -997.88898
-29.555201 17.5224 -995.33002
-29.9911 17.216801 -993.73901
20.423 16.539301 -1038.25
12.4171 19.203899 -1038.91
10.0657 19.958599 -1039.12
8.7219801 20.4634 -1038.83
7.3695698 20.6259 -1038.64
6.1118798 20.762199 -1038.54
5.7838702 21.1325 -1038.03
4.27704 21.1924 -1037.58
3.75018 21.242901 -1037.35
2.69751 21.5539 -1037.21
1.91479 21.603701 -1036.72
1.05518 21.746901 -1036.33
-0.30706799 21.9478 -1036.4399
-1.12073 22.3295 -1035.8199
-1.68286 22.399401 -1035.72
-2.4530599 22.465099 -1035.21
-3.97491 22.7549 -1034.59
-7.2698998 23.475901 -1032.73
-10.5565 23.653299 -1030.71
-13.3633 23.768801 -1028.85
-16.616301 23.6411 -1026.29
-18.814301 23.5023 -1023.02
-20.2672 23.5865 -1021.64
-21.756901 23.649599 -1020.18
-22.3232 23.532301 -1018.64
-24.4042 22.7138 -1015.09
-25.2558 22.883801 -1014.07
-25.416 22.376101 -1013.09
-25.913099 22.641899 -1012.28
-27.004999 22.219101 -1011.08
-27.0634 21.5809 -1009.91
-27.007 22.069599 -1009.6
-27.324499 21.6668 -1008.74
-27.936399 21.432699 -1008.07
-28.0879 21.1996 -1006.64
-28.218 20.6791 -1005.35
-28.6896 20.6959 -1004.01
-29.02 20.243799 -1002.64
-29.4063 19.744699 -1000.61
-29.6071 19.4639 -999.59698
-29.719999 18.8547 -997.41199
17.2481 18.2076 -1038.75
14.666 19.219101 -1038.59
13.418 19.3529 -1038.5699
8.7973604 20.9221 -1038.59
7.1662598 21.1565 -1038.5
6.70227 21.248199 -1038.14
4.9099698 21.513599 -1037.39
3.8218999 21.6805 -1037.29
2.8706701 22.1978 -1036.87
1.9201699 22.217899 -1036.58
1.1381201 22.3298 -1036.35
0.39032 22.7759 -1036.0699
-0.60241699 22.6546 -1035.77
-1.55994 22.7843 -1035.45
-2.30914 22.994301 -1035.14
-3.0437 23.2934 -1034.8101
-4.5292401 23.242399 -1034.23
-14.1199 24.1124 -1027.54
-16.827299 24.378099 -1025.35
-18.372299 24.112499 -1023.43
-19.061899 24.0056 -1022.55
-19.810801 24.241699 -1021.91
-20.205601 24.034901 -1021.42
-24.4615 23.3724 -1015.18
-25.197201 22.657101 -1012.37
-26.6385 22.4172 -1010.49
-26.965 22.5872 -1009.37
-27.7523 22.022301 -1007.65
-28.6106 20.9373 -1003.44
-28.8323 20.474701 -1002.37
-29.0051 20.443899 -1001.44
-28.997499 19.279699 -998.92902
-29.678499 19.4032 -997.396
13.5139 20.038099 -1038.51
11.5414 20.2822 -1038.37
8.08148 21.499001 -1038.34
7.1307402 21.614 -1037.9301
6.4744902 21.879101 -1037.52
4.8804302 22.0501 -1037.27
4.33215 22.179399 -1037
3.27545 22.419201 -1036.77
2.3986199 22.652399 -1036.5601
0.84063703 22.770599 -1036.23
-1.98712 23.3678 -1034.88
-7.2499399 24.3494 -1032.85
-7.8938599 24.1432 -1032.38
-9.5994902 24.5322 -1031.21
-12.6348 24.660601 -1028.8101
-15.7513 24.4942 -1025.9
-18.943501 24.530199 -1022.46
-19.7854 24.744101 -1021.73
-20.198999 24.548401 -1021.21
-22.3962 24.0977 -1018.57
-24.2687 23.7603 -1014.99
-24.847799 23.6408 -1014.55
-24.521099 23.215099 -1013.06
-25.218901 23.536301 -1013.17
-25.7554 23.5697 -1011.7
-26.382601 23.2057 -1010.92
-26.576099 22.851299 -1009.7
-27.0606 22.4811 -1008.03
-27.816999 21.9543 -1005.72
-28.2197 21.690901 -1004.81
-28.6213 21.5138 -1003.48
-28.7325 21.2134 -1002.38
-28.773199 21.3118 -1001.84
-29.1269 20.6793 -1000.34
-29.471701 19.6675 -996.61902
-29.5439 19.008801 -994.40601
-29.351299 17.732 -990.52301
14.2543 20.251801 -1038.2
12.6177 20.612 -1038.02
9.0381498 21.6129 -1037.91
7.4635 21.8283 -1037.79
6.3425899 22.4354 -1037.46
5.4429302 22.441401 -1037.15
2.5485799 23.057301 -1036.28
1.60016 23.054899 -1035.97
0.45440701 23.7202 -1035.6801
-0.32580599 23.5938 -1035.1899
-0.85107398 23.650499 -1035.0699
-1.7099 23.823099 -1034.6899
-2.90942 24.241199 -1034.37
-16.309999 25.4263 -1025.34
-17.549601 24.948099 -1024.05
-17.4312 25.350201 -1023.75
-18.347401 24.9676 -1022.66
-19.1061 24.7237 -1021.96
-20.0268 24.8843 -1020.89
-24.6056 23.9692 -1014.05
-25.316999 24.2327 -1013.32
-27.2747 22.839701 -1007.16
-27.199301 22.858601 -1006.37
-28.0837 22.1257 -1004.16
-28.457899 22.0282 -1003.32
-28.415199 22.417 -1002.79
-28.6595 20.330601 -997.58301
-29.7101 20.505501 -996.23999
17.4175 19.6978 -1037.52
12.6838 21.0226 -1037.99
11.2253 21.678499 -1037.66
8.1277504 22.6021 -1037.26
7.1478901 22.618799 -1037.16
5.54388 22.861099 -1036.88
3.5316801 23.529699 -1036.36
2.57495 23.584999 -1036.08
1.16388 24.091999 -1035.46
0.260254 24.0089 -1035.11
-0.68652302 24.214399 -1034.92
-1.88605 24.222601 -1034.65
-9.4791298 25.3081 -1030.65
-12.3389 25.7194 -1028.6
-14.0146 25.5532 -1026.65
-16.7048 25.7556 -1024.74
-17.7484 25.4681 -1022.88
-19.000401 25.6495 -1021.5
-20.190901 25.2782 -1019.79
-21.257401 25.347 -1018.61
-22.139099 25.444401 -1017.74
-24.077 24.9196 -1014.87
-24.9904 24.598801 -1012.97
-25.188499 24.240999 -1011.79
-25.637199 23.967501 -1011.28
-26.01 24.125299 -1010.57
-26.086 23.551399 -1009.22
-27.1373 23.320101 -1007.03
-27.3592 23.473301 -1006.34
-27.5501 22.820499 -1005.12
-28.0707 22.535 -1003.53
-27.7673 22.4974 -1001.98
-28.243799 21.8927 -1000.72
-28.3943 21.5767 -998.87701
-29.0495 20.915701 -997.37097
18.333401 20.2195 -1037.35
14.9485 21.0161 -1037.6801
13.3157 21.8514 -1037.5601
9.6932402 22.381901 -1037.38
9.0669603 22.5755 -1036.91
7.1322598 23.204 -1036.9
6.2597699 23.385201 -1036.79
4.9974399 23.740801 -1036.6899
3.26074 23.9557 -1035.9
2.0880699 24.3253 -1035.8
1.24438 24.5508 -1035.1899
-0.68505901 24.588699 -1034.59
-2.18683 25.1444 -1033.95
-2.6940899 25.1369 -1033.8199
-4.4647198 25.500999 -1033.34
-15.4571 26.2372 -1024.99
-17.59 26.037399 -1022.76
-18.333099 25.942101 -1021.87
-19.4305 25.9869 -1020.83
-19.8365 25.912399 -1020.4
-20.678499 26.019899 -1019.71
-22.604401 25.7946 -1016.99
-22.7521 25.6411 -1016.45
-23.6429 25.446199 -1014.82
-24.4846 24.9368 -1013.54
-25.2253 24.7733 -1011.85
-25.869499 24.599701 -1010.05
-26.5623 24.316999 -1008.17
-27.928101 23.695999 -1005.43
-28.676201 22.5928 -999.565
11.82 22.5471 -1037.29
10.1739 22.851101 -1037.27
8.6429396 23.0613 -1037.12
7.8206201 23.521099 -1036.63
6.8204298 23.5996 -1036.47
5.8201299 24.2047 -1036.12
4.3056598 24.3372 -1035.85
1.78058 25.0522 -1035.13
1.0332 24.809099 -1034.58
-0.046203598 25.1555 -1034.46
-1.0592 25.3757 -1034.27
-1.55231 25.5672 -1033.79
-12.9124 26.500799 -1027.41
-13.578 26.582399 -1026.28
-15.0352 26.875401 -1025.1899
-16.6738 26.805 -1023.35
-17.933599 26.320101 -1021.52
-19.848499 26.3395 -1020.19
-20.3113 26.7206 -1019.53
-20.541401 26.1241 -1018.66
-22.6085 26.188999 -1016.31
-23.250999 25.6926 -1014.22
-24.1618 25.830799 -1014.13
-24.7001 25.398399 -1011.93
-25.485701 25.541401 -1010.94
-25.711599 25.1126 -1010.14
-26.1826 24.7372 -1009.11
-27.136499 24.545601 -1006.9
-27.545601 24.172001 -1005.35
-28.296801 23.6759 -1002.95
-28.4156 23.358601 -1001.85
-28.335699 23.362 -1001.13
16.819401 21.582899 -1037.01
14.6599 22.162399 -1037.01
9.4109497 23.304399 -1036.76
8.4224195 23.8279 -1036.4
7.1484399 24.1541 -1036.24
4.18536 24.9839 -1035.8101
2.8699999 24.9478 -1035.3
1.89587 25.485001 -1034.85
1.05774 25.422501 -1034.63
-0.159973 25.611401 -1034.36
-0.57580602 25.675501 -1033.91
-1.4784499 26.0126 -1033.58
-2.2061801 25.945101 -1033.3
-3.5120201 26.051201 -1032.98
-4.5493202 26.5916 -1032.5
-14.1237 27.0975 -1025.91
-17.0646 27.117599 -1022.7
-17.5439 27.0193 -1022.34
-18.600599 26.7787 -1020.59
-19.9198 26.999901 -1019.03
-21.2698 26.833401 -1017.87
-22.8225 26.593 -1015.68
-23.02 26.7281 -1015.2
-23.3228 26.405399 -1014.7
-23.7794 26.185301 -1013.66
-24.399401 26.1602 -1012.88
-24.5369 26.110201 -1012.33
-24.6157 25.792601 -1011.7
-26.1455 25.454901 -1009.08
-27.0679 25.0154 -1006.75
-27.6724 24.5728 -1004.77
-28.1726 24.128099 -1002.76
-28.766001 23.121401 -999.10901
-28.821899 23.003799 -998.57202
-28.622 22.769199 -997.33099
27.615801 18.4963 -1035.01
15.2214 22.3351 -1036.91
12.4248 22.940599 -1037.0601
9.9790602 23.998301 -1036.54
7.6875 24.3878 -1035.87
6.2516499 24.8615 -1035.88
4.4838901 25.2994 -1035.34
3.0167201 25.3606 -1034.97
1.46649 25.977501 -1034.48
0.55462599 25.964199 -1034.05
-0.42059299 26.143 -1033.8199
-1.76807 26.2376 -1032.9399
-3.69189 26.808901 -1032.78
-4.84448 26.9177 -1031.99
-6.3225698 27.1227 -1031.23
-7.336 27.320801 -1030.8101
-16.739901 27.457899 -1022.79
-18.310699 27.826401 -1021.12
-19.041599 27.3839 -1020.04
-19.8167 27.389799 -1019.43
-20.928301 27.3297 -1018.17
-21.691 27.2642 -1017.41
-21.971201 27.199301 -1016.96
-23.950199 26.808701 -1013.77
-25.353901 26.3934 -1011.06
-25.723301 26.183201 -1010.04
-25.972601 25.888399 -1008.88
-26.633101 25.695999 -1007.61
-26.9916 25.5061 -1006.68
-27.775101 24.8009 -1003.59
-27.8594 24.432699 -1002.03
-28.2864 24.1637 -1001.07
-28.951799 21.627199 -992.03497
13.157 23.7691 -1036.51
11.6058 23.995501 -1036.4301
9.0073204 24.8748 -1036.0601
7.5095801 25.0154 -1035.84
5.4713702 25.754801 -1035.37
4.57269 25.736401 -1035.08
2.9751 25.9056 -1034.84
1.52258 26.2819 -1034.3101
0.639099 26.443199 -1034.03
0.0322266 26.431 -1033.47
-0.976807 26.9785 -1033.42
-1.72833 26.799801 -1032.83
-2.9433601 26.9883 -1032.72
-11.3621 28.118999 -1027.67
-13.7739 28.117001 -1025.77
-16.371201 28.0637 -1023.24
-20.3085 27.8659 -1019.08
-21.2535 28.116501 -1017.35
-22.369101 27.695101 -1016.58
