# .PCD v0.7 - Point Cloud Data file format
VERSION 0.7
FIELDS x y z
SIZE 4 4 4
TYPE F F F
COUNT 1 1 1
WIDTH 1692
HEIGHT 1
VIEWPOINT 0 0 0 1 0 0 0
POINTS 1692
DATA ascii
43.867699 0.65328997 -1030.42
42.797699 0.85894799 -1031.01
41.800499 1.69174 -1032.84
41.624802 1.93353 -1033.26
40.507999 2.3248301 -1033.95
40.1054 2.4400301 -1034.66
39.276901 3.0678999 -1035.29
37.5042 3.5450101 -1036.11
36.397701 3.32092 -1036.77
35.645302 3.5415299 -1037.6
34.258598 3.9809599 -1038.13
31.6329 4.50702 -1039.85
30.1043 4.9795198 -1040.9301
29.117599 5.3710899 -1041.76
47.085701 -24.0639 -984.20398
48.259201 -22.7089 -986.53101
50.799599 -19.856899 -990.99402
51.372299 -19.3888 -991.65198
51.570999 -19.0525 -992.98602
51.914398 -18.191401 -993.84003
52.5135 -16.944599 -995.99799
52.861801 -16.344101 -996.995
52.8447 -15.8279 -997.93701
53.104099 -15.2719 -998.89001
53.448101 -14.6751 -999.85303
52.5093 -8.0329599 -1012.31
50.511902 -3.8292799 -1019.99
49.4608 -2.9432399 -1021.85
48.198799 -2.0998199 -1023.67
47.999901 -1.86725 -1024.11
47.453098 -1.16803 -1025.4399
46.797001 -0.87951702 -1025.61
45.999699 -0.448944 -1027.0601
45.084999 -0.093200698 -1028.02
44.398899 0.762146 -1029.4399
43.3354 0.68164098 -1029.6899
43.5532 1.36768 -1030.26
42.908699 1.67117 -1031.35
41.0214 2.42978 -1033.22
40.369099 3.1649201 -1034.67
38.819199 3.53192 -1035.26
35.346401 3.9598401 -1037.14
31.823099 4.9213901 -1039.6801
31.234301 5.1089201 -1039.91
30.5005 5.34619 -1040.47
26.5602 6.14505 -1042.61
22.1528 6.3283401 -1043.87
48.112301 -23.065901 -984.302
48.560501 -21.7955 -986.547
50.849499 -19.3936 -990.396
51.234299 -18.9734 -991.302
51.672798 -17.6507 -993.59198
52.1409 -17.1278 -994.61298
52.333698 -16.2216 -995.70898
52.7701 -15.8494 -996.76703
52.8629 -15.3615 -998.18298
53.091999 -14.7906 -998.64801
53.3022 -14.2362 -999.54999
53.5741 -13.7111 -1000.44
53.5714 -8.8860798 -1009.21
53.007099 -6.8513498 -1012.93
49.464802 -2.7644 -1021.12
48.296501 -1.27988 -1023.96
47.816799 -1.397 -1024.64
47.1852 -0.16922 -1026.12
46.035 0.368622 -1027.3101
44.8596 1.11655 -1028.39
42.4352 2.0030799 -1031.0601
42.058201 2.74628 -1031.9
40.953098 2.67746 -1032.5
40.321201 2.72086 -1033.1899
40.3834 3.2439001 -1033.67
39.658199 3.5644801 -1034.59
38.509499 4.0881 -1035.2
37.388 4.08395 -1035.8
36.259102 4.4825401 -1036.71
35.571201 4.55722 -1037.22
33.8293 5.0755601 -1038.64
30.7955 5.91397 -1040.45
28.9067 5.8594398 -1041.64
47.924301 -21.783899 -985.88898
50.728001 -19.569901 -989.95203
51.253399 -18.164 -992.11603
51.843102 -17.0308 -993.45801
52.023399 -16.697399 -994.38501
52.476002 -15.3636 -996.46002
52.824501 -14.8192 -998.00403
53.196701 -13.8005 -999.29303
53.240501 -13.3405 -1000.15
53.4641 -12.826 -1000.99
53.3685 -12.4408 -1001.74
53.929699 -11.8472 -1002.66
53.249802 -8.09793 -1009.53
51.723801 -4.4605098 -1016.52
51.512798 -4.1738601 -1017.04
49.0751 -1.80621 -1021.9
47.616299 -0.57611102 -1024.29
47.456699 -0.418457 -1024.9399
46.973099 0.148132 -1025.33
45.492699 1.20193 -1027.9301
44.409801 1.69183 -1029.04
43.736 1.7746 -1029.4301
43.346901 1.90659 -1030.03
42.948898 2.55405 -1030.55
42.180401 2.55936 -1031.14
40.282398 3.64502 -1033.36
39.4203 4.1539602 -1034.4399
36.3302 4.9765301 -1036.53
35.237099 5.1331801 -1037.09
27.836399 6.6447101 -1041.1801
24.6161 6.9900198 -1042.45
48.9035 -21.002899 -985.83502
49.1609 -20.111601 -987.51202
50.6604 -18.201799 -990.57501
51.2388 -17.5518 -991.802
51.485001 -16.9254 -992.961
52.4011 -14.9173 -996.297
53.081902 -14.3129 -997.26801
53.024899 -13.6557 -998.23999
53.0378 -13.3688 -999.138
53.226299 -13.0454 -1000.08
53.2542 -12.4296 -1000.7
53.649101 -8.5444002 -1007.61
53.3022 -7.6182899 -1009.43
52.2276 -4.44208 -1015.34
49.105801 -0.982391 -1022.21
48.215801 -0.76962298 -1023.18
48.155499 -0.37860101 -1023.53
46.1591 0.73696899 -1026
46.3116 1.0757101 -1026.51
45.067001 1.5252399 -1027.48
44.619598 1.61917 -1028.16
44.590599 2.2256801 -1028.89
44.16 2.5204799 -1029.35
42.913101 2.80988 -1030.34
41.504501 3.4465599 -1031.75
41.180901 3.8452101 -1032.21
40.325802 4.1276598 -1033.17
39.7117 3.93295 -1033.66
34.214699 6.1219201 -1038.4399
31.959999 6.4186401 -1039.1899
30.430901 6.8938599 -1040.0699
25.8566 7.7346802 -1042.13
47.5364 -21.0546 -985.17999
48.364799 -20.020599 -986.97302
50.705898 -18.498501 -989.01801
50.5756 -17.692699 -990.38501
51.301701 -17.094 -991.81
51.653702 -16.0646 -993.07599
52.251801 -15.63 -993.90399
52.1409 -14.9272 -994.77802
52.751598 -14.4756 -995.98901
53.1045 -13.8412 -997.03198
52.965 -13.2308 -998.08698
53.060299 -12.2164 -999.77301
53.395802 -11.908 -1000.48
53.514801 -11.4395 -1001.34
53.706402 -10.1285 -1003.67
53.462502 -9.5800505 -1004.43
53.876598 -9.2539701 -1005.21
53.6437 -8.9453402 -1005.88
53.494801 -8.5827599 -1006.55
53.937099 -8.0366802 -1007.38
53.6511 -7.69907 -1008.02
51.990398 -3.3759799 -1016.23
49.933201 -1.88345 -1019.75
49.930401 -1.50699 -1020.1
47.5839 0.47845501 -1024.17
46.862999 1.15002 -1025.45
46.222698 1.51068 -1026.29
46.080101 1.75098 -1026.72
45.471901 2.14063 -1027.53
44.5718 2.39923 -1028.26
42.257099 3.7068501 -1030.8199
40.213402 4.5511498 -1032.9399
39.129902 5.1498399 -1034.08
38.137798 5.5707402 -1035.16
37.6693 6.1010699 -1035.74
35.547401 5.9345102 -1036.4301
34.557701 6.60782 -1037.71
34.261101 6.7155199 -1038.27
31.9806 6.9844098 -1039.05
29.5201 7.3885798 -1040.16
28.3298 7.8986802 -1040.86
47.063202 -21.7218 -982.72601
48.417702 -20.283199 -985.63898
48.759998 -19.400299 -986.724
50.155499 -18.2064 -988.57397
51.2794 -16.5923 -991.65002
51.796001 -15.8548 -992.49597
51.7766 -15.4177 -993.422
52.491001 -14.0907 -995.60101
52.974701 -12.8958 -997.659
53.027199 -12.4708 -998.51599
53.127201 -11.9729 -999.40601
53.614101 -11.367 -1000.33
53.3988 -10.6344 -1001.84
53.111099 -10.1248 -1002.92
53.591099 -9.70755 -1003.4
53.781502 -9.2172499 -1004.23
53.7197 -8.7712698 -1005.03
53.478901 -8.2031603 -1006.77
54.151199 -7.3799701 -1007.44
53.632198 -7.1820698 -1008.07
54.066002 -6.3011198 -1009.5
53.555302 -6.0707402 -1009.85
52.717098 -3.8745699 -1014.18
51.4884 -2.71033 -1016.49
48.720001 0.24456801 -1022.31
45.595501 2.64661 -1027.34
44.422401 3.10431 -1028.4399
43.578999 3.38901 -1029.17
43.113998 3.52002 -1029.52
42.845901 3.6515801 -1030.14
41.6422 4.2175298 -1031.3199
40.355801 5.0891099 -1032.77
38.8353 5.5217299 -1034.49
38.2416 6.07727 -1035.03
34.607399 7.1824999 -1037.55
34.047199 7.2266798 -1038.01
29.9736 7.9435401 -1039.63
47.436501 -20.410299 -984.06702
50.336498 -16.945601 -989.66498
50.9324 -16.3773 -990.99298
51.433498 -15.5196 -991.85699
51.805199 -14.9976 -993.302
52.108299 -14.0314 -994.5
52.4827 -13.586 -995.43201
52.661701 -13.0128 -996.44397
53.043499 -12.4092 -997.38599
53.084499 -11.9725 -998.72699
53.528301 -10.8876 -1000.06
53.410198 -9.7358398 -1001.77
53.6945 -9.4905996 -1002.35
53.596298 -9.1140099 -1003.3
53.861599 -8.5713501 -1004.23
53.884399 -7.7247601 -1005.87
53.602299 -4.4509602 -1011.77
52.8978 -3.2915599 -1014.03
51.910999 -2.6068101 -1015.69
48.875801 0.68572998 -1022.03
47.892799 1.2796299 -1023.33
47.8004 1.5273401 -1023.8
47.620701 1.77991 -1024.22
43.679001 3.927 -1028.95
42.6744 4.4457698 -1030.0699
41.963001 4.5380201 -1030.47
41.431801 5.07938 -1030.99
40.8965 5.2184801 -1031.83
40.219799 5.5064101 -1032.52
39.962799 6.09442 -1033.83
38.0406 6.5514202 -1034.88
37.318001 6.7736502 -1035.3199
36.576698 6.77881 -1035.54
36.0424 7.02988 -1036.21
33.778 7.6776099 -1037.73
29.7635 8.4451599 -1039.39
27.820101 8.8761301 -1040.5
47.670898 -19.7173 -984.367
49.8666 -17.015699 -988.19202
51.4524 -15.5334 -990.76501
51.432999 -15.0479 -991.711
52.151299 -13.5179 -994.34698
52.680901 -12.5461 -996.18298
52.999298 -11.9476 -997.146
52.832001 -11.5539 -997.98999
53.23 -11.2585 -999.04901
53.2314 -10.4295 -999.80701
53.540401 -10.009 -1000.72
54.063599 -9.2828999 -1001.68
54.135601 -8.8300505 -1002.55
53.802898 -8.5389404 -1003.45
53.965801 -8.2019701 -1004.43
53.684101 -7.66541 -1004.97
53.982498 -7.1831999 -1005.74
54.258701 -6.9324999 -1006.39
53 -2.9814799 -1013.53
51.390099 -1.41132 -1016.56
50.728001 -0.725586 -1018.06
49.776199 0.356628 -1019.68
48.1884 1.53693 -1022.68
46.9655 2.6108999 -1024.84
46.2253 2.9668901 -1025.64
45.4548 3.5722001 -1026.86
44.582199 3.5759001 -1027.17
44.8773 3.8766201 -1027.55
44.359402 4.0761099 -1027.99
43.5811 4.3769498 -1028.72
42.9175 4.7290602 -1029.48
42.2271 5.32095 -1030.65
39.273899 5.6526198 -1032.96
40.1614 6.6990099 -1033.6899
38.8437 7.0891099 -1034.1
37.709801 7.12082 -1034.8101
35.931 7.5639 -1036
35.407001 7.6905799 -1036.72
34.340401 8.2465496 -1037.28
29.3167 8.7829905 -1039.49
25.3223 9.3197002 -1041.7
46.971001 -19.444201 -983.63202
49.529499 -16.799 -987.53302
51.0825 -15.7464 -989.17902
51.0923 -14.7795 -991.02899
51.443699 -14.4011 -992.00098
52.318199 -13.7169 -992.85999
52.613499 -13.0406 -993.96997
52.3867 -12.6433 -995.12799
52.8894 -11.479 -996.883
53.325699 -10.2675 -998.06897
53.150101 -10.5438 -999.242
53.874298 -9.5693398 -999.987
53.662498 -9.3351402 -1000.96
53.974899 -8.3421898 -1002.47
53.968899 -7.9525099 -1003.23
54.267502 -6.7576299 -1005.08
54.234699 -6.5780602 -1005.59
51.343102 -0.57211298 -1017.08
50.7901 -0.18185399 -1017.89
48.147202 2.0150101 -1022.45
47.662498 2.4614601 -1023.31
46.399899 3.51053 -1025.46
45.733799 4.1575899 -1026.72
43.739201 4.9067702 -1028.53
41.872299 5.7091098 -1030.38
41.402199 6.0556002 -1030.6899
40.880001 6.19559 -1031.4
39.188999 6.7308002 -1032.65
38.740101 7.1445599 -1033.62
38.269901 7.5163298 -1033.9301
37.917301 7.6272302 -1034.64
36.631901 7.4794898 -1035.1899
35.451401 8.2847605 -1036.53
34.141499 8.8263903 -1037.22
49.967201 -15.766 -988.73901
50.649799 -15.1583 -990.07599
51.5896 -14.0232 -991.32202
51.7463 -13.4315 -992.42102
52.261501 -12.2385 -994.46301
52.945999 -11.3751 -995.836
53.212502 -10.5815 -997.14099
53.572201 -9.6369305 -999.08899
53.756001 -8.9114399 -1000.22
53.690601 -8.7404804 -1000.7
53.938202 -8.39044 -1001.83
53.897301 -7.8248301 -1002.28
54.104698 -7.3359699 -1003.12
54.074699 -6.92377 -1003.89
53.959301 -4.3292499 -1008.24
50.6912 0.30001801 -1017.75
49.965 0.923401 -1019.01
49.417999 1.3767101 -1019.95
47.712299 3.23422 -1023.59
47.058201 3.6060801 -1024.4301
46.1492 4.1893902 -1025.67
45.007401 4.1385798 -1025.9301
44.705101 4.7522302 -1027.23
43.503601 5.0501699 -1027.85
43.847198 5.4260898 -1028.34
43.116901 6.0459599 -1029.54
41.647301 5.90765 -1029.96
41.1115 6.4791298 -1030.83
40.3311 6.8175702 -1031.99
37.573299 7.7376699 -1033.91
37.732399 8.2267199 -1034.53
35.718102 8.1038198 -1035.74
35.732101 8.9481802 -1036.42
33.458099 9.2674303 -1037.33
33.075802 9.4131203 -1037.98
31.065599 9.6797504 -1038.75
48.349899 -17.2798 -985.10199
48.521099 -16.420099 -986.49701
49.924301 -15.2894 -988.23798
51.060299 -14.2697 -989.758
51.790199 -13.4729 -991.07397
51.726601 -12.9603 -992.11499
52.075001 -11.9459 -993.34198
52.2612 -11.5467 -994.62402
53.332802 -10.1467 -997.07098
53.686501 -9.5432701 -998.32397
52.639 -1.12515 -1013.64
51.085098 0.65652502 -1017.21
50.745701 0.84185803 -1017.62
50.4478 1.22562 -1018.03
49.794601 1.35202 -1018.77
49.392502 1.8511 -1019.72
48.735199 2.5622599 -1021.13
47.351299 3.3233299 -1022.82
47.210899 3.7446899 -1023.54
45.959202 4.1735802 -1024.47
46.264301 4.4491601 -1025.01
44.5644 5.3038602 -1026.95
44.083302 5.9829998 -1028.1801
42.839401 6.1696501 -1028.83
42.845501 6.4267001 -1029.27
41.9757 6.7095299 -1029.95
40.231899 7.19876 -1031.27
38.856899 7.8218699 -1032.62
35.863998 8.6886301 -1035.59
33.833099 9.6405296 -1036.85
32.751202 9.7662697 -1037.6801
50.553299 -14.611 -988.112
51.696899 -12.984 -990.74597
51.331299 -12.6181 -991.92102
52.760601 -11.384 -993.672
53.306 -10.5945 -994.99902
53.333302 -10.3494 -995.94299
53.665699 -9.0639 -997.84003
54.246799 -5.5191002 -1004.15
53.498699 -2.42612 -1009.96
52.669899 -0.938995 -1012.83
51.6166 0.69220001 -1016.06
51.533199 1.0014 -1016.6
48.0863 3.4314599 -1021.78
47.474899 4.11096 -1023.08
46.8759 4.5246 -1023.95
44.938801 5.0540199 -1026.38
42.653702 6.29636 -1028.49
41.750999 6.83813 -1029.28
41.978401 7.1931801 -1029.75
41.281898 7.1603699 -1030.3199
41.0098 7.6640601 -1030.79
39.622101 8.0158701 -1031.76
39.174099 8.1764803 -1032.08
38.2556 8.6524696 -1033.09
37.567699 8.9699097 -1033.78
36.6768 9.5194702 -1034.91
35.7257 9.9547396 -1035.92
33.956699 10.1713 -1036.6899
33.054798 10.3839 -1037.54
31.9688 10.8118 -1038.41
50.405102 -14.1571 -987.79303
50.7911 -13.4296 -989.10199
51.403099 -11.9062 -992.02197
52.721401 -10.833 -993.63501
52.935101 -10.193 -994.72198
53.0569 -9.7227802 -995.68701
53.663799 -8.9021902 -996.65698
53.827099 -8.08078 -998.44598
53.664501 -7.7141099 -999.18799
53.5812 -7.3419199 -1000.23
52.582199 -0.18508901 -1013.17
51.197899 1.32593 -1016.31
50.738602 2.1348 -1017.78
50.441399 2.3210399 -1018.2
48.6385 3.4828801 -1020.68
47.6269 4.6300001 -1022.93
46.9953 5.0127001 -1023.76
46.179001 5.3528399 -1024.5699
45.100899 5.3766198 -1025.48
44.968498 6.1359901 -1026.08
43.6436 6.1528001 -1027.25
43.858002 6.8752398 -1027.72
42.8386 7.1030302 -1028.41
42.719101 7.32724 -1028.83
41.9277 7.6325102 -1029.53
39.170601 8.8474703 -1032.29
38.484901 9.2062702 -1032.96
37.0886 9.6000996 -1034
36.401798 9.6575899 -1034.41
36.099899 10.0718 -1035.14
35.655201 10.4147 -1035.72
34.451401 10.8432 -1036.54
32.1619 11.0261 -1037.53
31.5371 11.1874 -1038.17
30.859301 11.3628 -1038.41
19.638901 12.4769 -1042.45
47.9664 -15.2548 -985.41498
50.499802 -12.8338 -987.92999
50.866299 -12.9 -988.979
52.473099 -10.2676 -993.15698
53.0527 -9.6875 -994.46002
53.2281 -9.1660805 -995.45398
53.6012 -8.58041 -996.44702
53.801998 -8.0934801 -997.35498
53.186199 -7.8372502 -998.02002
53.9016 -7.1435499 -999.01898
53.661999 -6.82724 -999.75
53.406601 -4.4128098 -1003.16
54.043098 -3.53723 -1005.63
51.273499 2.1566801 -1016.62
49.7635 3.2732799 -1018.48
49.650101 3.3927 -1019.21
48.8512 3.7254901 -1020.05
48.2136 4.4320102 -1021.38
47.3629 4.8173199 -1021.87
47.5149 5.0539899 -1022.69
46.180302 5.7919598 -1024.33
45.451 6.4396701 -1025.58
44.589298 6.8095102 -1026.59
43.569599 7.5246601 -1027.65
41.771099 8.04422 -1029.29
41.0327 8.3477802 -1029.97
40.4874 8.31427 -1030.71
40.141998 9.0240202 -1031.29
39.267899 9.36868 -1032.1
36.181 10.5779 -1034.95
35.802898 10.8899 -1035.64
32.0145 11.4623 -1037.3101
46.2714 -17.0902 -981.401
47.824699 -15.3119 -983.95502
49.503799 -14.2789 -985.46899
50.858002 -12.3752 -989.19397
51.313702 -11.3966 -990.40802
51.852798 -10.8889 -991.45099
52.1353 -10.078 -992.88397
52.913898 -9.2456398 -994.42902
53.107201 -8.2977304 -996.03198
53.334 -7.81879 -997.21997
53.562599 -7.0205102 -998.03101
53.799702 -6.7404799 -998.77399
54.035301 -6.4460101 -999.55701
54.116501 -5.38727 -1001.13
53.7742 -4.7729201 -1002.4
53.740799 -4.0029602 -1004.17
53.685501 -3.8841901 -1004.66
53.987499 -3.1314099 -1005.28
53.459499 -1.03128 -1009.28
51.581299 2.0509901 -1015.35
50.491299 3.30124 -1017.95
49.633801 3.8740799 -1019.08
49.055401 3.9776299 -1019.45
48.780499 4.46558 -1020.31
47.712898 4.54459 -1020.67
47.343399 5.4895301 -1022.43
47.001801 5.9361601 -1023.33
44.613602 7.45825 -1026.5601
43.203098 7.9596601 -1027.38
42.765598 8.2723999 -1028.4
41.840099 8.5403404 -1029.09
41.0695 8.8215303 -1029.77
40.215801 9.3306904 -1030.84
39.501701 9.96381 -1031.99
38.495602 10.2164 -1032.9399
37.935902 10.3293 -1033.64
36.789398 10.6346 -1034.12
35.461899 11.3084 -1035.37
33.572601 11.7035 -1036.4301
31.033899 12.3131 -1037.98
29.629299 12.689 -1038.77
48.5569 -14.1881 -985.10602
48.736698 -13.2394 -986.89502
50.747101 -11.935 -988.97498
50.804001 -11.287 -989.85699
51.6194 -10.5265 -991.263
52.571499 -9.052 -993.79498
52.798401 -8.2248201 -994.67102
53.215302 -7.6794701 -996.146
53.465099 -7.3324599 -997.11401
53.414902 -6.5724502 -997.83197
53.618801 -6.3095999 -998.427
53.591499 -5.1163602 -1000.75
53.6973 -4.6826801 -1001.48
53.572201 -4.00635 -1002.73
53.184101 -3.2771299 -1004.29
53.394199 -2.1316199 -1006.51
53.1703 0.0683899 -1010.26
52.679401 0.50448602 -1011.26
49.507599 4.3362398 -1018.85
48.638599 4.8941698 -1020.1
47.604 5.7196999 -1021.82
47.5793 6.02911 -1022.25
46.8162 6.37112 -1023.07
45.984501 6.3190298 -1023.87
44.970402 7.0184002 -1024.9399
43.8251 8.2542105 -1027.08
42.9916 8.6495705 -1027.88
41.314201 9.0874004 -1029.21
38.903 10.5471 -1032.28
38.551701 10.7141 -1032.64
37.2631 11.0438 -1033.48
36.5807 11.3556 -1034.21
36.0397 11.7071 -1034.55
35.0924 11.6837 -1035.4
34.782299 12.1839 -1035.23
33.856899 12.2703 -1036.29
30.120399 12.7192 -1037.89
28.8906 13.0555 -1038.7
19.0214 13.9148 -1041.98
46.110199 -16.1901 -980.052
50.835602 -12.0009 -987.12903
51.325699 -10.6675 -989.62598
51.705898 -9.3283997 -991.90802
52.882801 -7.4028001 -995.474
53.2491 -6.8342299 -996.36798
53.270401 -6.3488798 -997.32898
53.4146 -5.9401598 -998.11902
53.4772 -5.53616 -998.77399
53.002998 -4.97861 -999.51703
53.276901 -4.7258 -1000.29
53.535702 -4.2811298 -1001.07
53.578999 -3.5069001 -1002.44
53.514 -2.7207 -1003.96
51.902199 1.90637 -1013.66
51.438999 2.9063399 -1014.69
51.286301 3.1852701 -1015.21
50.202202 3.73965 -1016.03
50.607899 3.90994 -1016.73
50.287201 4.1359601 -1017.17
49.233101 4.7249498 -1018.53
46.773102 6.8208899 -1022.81
46.106098 7.48669 -1024.12
45.088402 7.48593 -1024.4399
44.688499 7.7363 -1025.49
44.520699 8.3875704 -1026.11
43.811298 8.7319899 -1026.84
42.9575 9.1551199 -1027.73
41.701698 9.6974802 -1028.87
40.158798 9.7277803 -1030.17
39.189098 11.0912 -1031.85
38.1688 11.303 -1033.4399
36.847599 11.7114 -1033.9
35.5807 12.0187 -1034.45
33.687199 12.701 -1036.02
33.374401 12.9941 -1036.79
30.955601 13.4373 -1037.74
28.6763 13.7494 -1038.63
21.719299 14.085 -1040.7
47.213699 -14.2315 -982.625
48.105801 -13.0655 -984.21399
49.234402 -12.0049 -986.42603
50.395 -10.8148 -988.10602
50.968102 -9.9795504 -990.43298
51.947601 -8.9411297 -991.57202
51.790798 -8.5385399 -992.625
52.539299 -7.7034898 -993.75098
53.019501 -7.05231 -994.89801
52.878399 -6.4601402 -995.95099
53.223801 -5.6549401 -997.01501
53.003101 -5.5784302 -997.70099
53.505001 -5.0717502 -998.45099
53.4189 -5.0205698 -999.09302
53.120701 -4.2137098 -999.92902
53.255699 -3.94028 -1000.64
53.066399 -0.95526099 -1006.2
52.552898 1.44199 -1010.61
49.996899 4.8266602 -1017.4
49.466499 5.9266701 -1019.35
48.879398 5.9681101 -1019.67
48.2285 6.3113999 -1020.51
47.561501 6.71878 -1021.35
46.043701 7.2204299 -1022.89
46.061199 7.9776902 -1023.9
44.701302 8.6616802 -1025.47
44.543598 8.8782701 -1025.86
42.634201 9.6929598 -1027.74
41.849701 9.9850798 -1028.4301
41.171902 10.0027 -1028.61
41.117599 10.2902 -1029.13
40.061199 11.3685 -1030.33
38.951401 11.5201 -1031.7
38.414101 11.6239 -1032.5
37.547298 12.0898 -1033.0699
36.681599 12.2307 -1033.76
33.434898 13.0818 -1035.73
46.321602 -14.4066 -981.42401
48.189602 -12.5825 -984.10303
50.1273 -10.492 -987.49799
50.476002 -10.0161 -988.823
51.4207 -9.1222496 -990.10498
52.716301 -6.2397199 -995.422
53.582901 -4.6524701 -997.93298
53.005699 -3.9723201 -999.45099
53.407001 -3.3914499 -1000.33
53.361301 -3.0949399 -1001.26
52.9673 -0.368622 -1006.98
53.420799 0.81839001 -1008.19
50.930401 3.9606299 -1014.25
50.2397 5.0675001 -1016.67
49.501801 5.7095299 -1018.13
48.894001 6.1144099 -1018.95
47.7164 6.9581599 -1020.68
46.689899 7.7753 -1022.37
45.7799 8.3531199 -1023.6
44.962002 8.38342 -1023.75
44.1674 9.3463402 -1025.71
43.123199 9.6764803 -1026.11
43.8965 9.75354 -1026.4301
42.626301 9.7726097 -1026.72
42.6371 10.1761 -1027.5
40.882301 10.9359 -1029.26
40.0938 11.1479 -1029.6801
39.478802 11.6927 -1030.9301
38.669399 11.9778 -1031.58
37.751598 11.9806 -1032.3101
37.192001 12.6515 -1032.86
36.386799 12.7619 -1033.42
35.0513 13.0513 -1034.22
34.3195 13.3413 -1034.85
31.3297 13.8365 -1036.4
24.897301 14.7553 -1039.14
50.377201 -9.7673998 -987.81201
50.323799 -9.5847797 -988.448
51.2281 -8.2055397 -990.79999
51.666401 -7.5359802 -991.87402
52.558601 -6.2865601 -994.09601
52.605999 -5.7897902 -995.02301
53.180801 -5.0478802 -996.28101
53.1241 -4.2723098 -997.72498
52.976898 -3.9168701 -998.38501
53.000401 -3.2756 -999.08099
53.064098 -2.96841 -1000.1
53.344501 -2.5649099 -1000.86
53.260399 -0.25912499 -1005.12
52.8424 1.74692 -1009.24
50.049099 5.7028499 -1016.63
49.2756 6.1859698 -1017.78
48.446701 6.5637798 -1018.79
48.1353 6.99084 -1019.58
48.033001 7.2195401 -1019.95
47.312698 7.8586402 -1021.3
46.652199 8.0455904 -1021.4
46.9617 8.32547 -1022.15
45.5205 9.3425903 -1024.27
44.5989 9.33813 -1024.54
44.383801 9.8125601 -1025.39
43.687099 10.1511 -1026.16
42.9347 10.7448 -1027.33
41.046001 10.9667 -1028.26
41.071999 11.4952 -1029.09
40.457802 11.79 -1029.47
39.834801 12.0458 -1030.86
39.3027 12.3228 -1031.01
38.740002 12.6853 -1031.66
37.526199 12.5584 -1031.83
36.7341 13.0957 -1032.91
36.599499 13.3567 -1033.48
34.424301 13.612 -1034.3
32.9907 14.1089 -1035.42
31.4846 14.2979 -1036.4
48.091202 -12.0995 -982.80603
48.543201 -11.1641 -984.664
50.855701 -8.9375296 -988.28003
51.5182 -8.2039499 -989.52698
51.7006 -7.0241098 -991.724
52.337101 -5.6249399 -993.89099
52.513302 -5.26196 -994.91602
52.651699 -4.8191199 -995.71802
53.597301 -3.2168601 -998.29102
52.3018 2.78619 -1009.82
50.9855 4.9874001 -1014.19
50.1502 5.98386 -1016.23
49.8657 6.80685 -1017.69
48.927399 6.5286298 -1018.17
48.618698 7.2628498 -1018.82
47.252201 8.0591698 -1020.91
46.553299 9.2709398 -1022.89
45.7537 9.2831697 -1023.12
44.935101 9.9037199 -1024.4301
44.420799 10.3091 -1025.17
43.384899 10.523 -1025.15
42.8904 10.9336 -1026.66
42.938599 11.2139 -1027.1
41.559898 11.3946 -1027.51
41.244598 11.7554 -1028.5
40.799702 12.2147 -1029.4399
39.888802 12.3436 -1029.91
38.715401 13.1945 -1031.37
37.259899 13.0167 -1031.9301
36.686298 13.5406 -1032.67
36.623199 13.9212 -1033.35
32.634998 14.8377 -1035.45
31.2873 14.791 -1036.27
30.044701 15.1118 -1036.72
28.5823 15.2993 -1037.23
47.2043 -11.9815 -982.08899
48.513 -10.014 -985.67999
50.0438 -8.7446899 -987.71802
51.492599 -7.7395 -989.19202
51.148201 -7.04703 -990.12097
51.708302 -6.59164 -991.15399
51.966801 -6.1381798 -992.46002
52.062698 -5.4642901 -993.45599
52.413799 -4.76157 -994.75897
52.6432 -4.5433998 -995.26898
52.758801 -3.48773 -996.93298
52.887501 -2.98596 -997.89301
52.972198 -2.5549901 -998.69299
52.114899 3.5589299 -1010.14
51.349701 4.6047702 -1012.32
51.135899 4.88412 -1012.84
49.851002 6.6671801 -1016.47
48.943699 7.5939298 -1018.23
48.190399 8.24716 -1019.57
46.537998 9.1646404 -1021.76
44.618599 10.5775 -1024.58
43.935699 11.1832 -1025.74
43.035301 11.4245 -1026.4
41.963299 11.9377 -1027.5699
40.981899 12.0543 -1027.99
40.4786 12.2943 -1028.65
40.282799 12.7957 -1029.49
39.175098 13.2738 -1030.52
37.165001 13.9125 -1032.14
36.582401 13.9702 -1032.39
35.624401 14.4276 -1033.28
34.397701 14.1849 -1033.83
34.2701 14.7551 -1034.16
33.376202 14.9334 -1034.67
32.3274 15.2328 -1035.3199
48.175598 -10.257 -983.875
51.304699 -6.18887 -990.888
52.018799 -5.4981399 -992.23602
52.159801 -4.9774199 -993.21503
52.5284 -3.4863 -995.94202
52.9063 -2.8180201 -997.28497
53.185699 -2.0116 -998.52802
52.5438 -1.81836 -999.14801
53.0037 -1.2724 -999.99902
52.372101 3.3742099 -1008.75
50.6021 6.1861601 -1014.24
50.119099 6.9300499 -1015.79
48.9608 7.7754202 -1017.52
48.1077 8.3856802 -1018.88
47.5336 8.7767296 -1019.72
47.307598 9.0078402 -1020.14
47.299301 9.2614698 -1020.58
46.763302 9.3642597 -1021.06
46.367199 9.9429302 -1021.92
46.1614 10.1112 -1022.34
45.594299 10.1821 -1022.68
45.267799 10.6552 -1023.53
44.791302 10.8153 -1023.94
43.844898 11.622 -1025.51
42.678699 11.7992 -1026.21
42.992199 12.1885 -1026.66
40.462101 12.6976 -1028.46
39.154301 13.6201 -1030.41
37.482601 13.9513 -1031.15
36.881401 14.2846 -1031.83
36.251598 14.9127 -1033.05
34.247299 15.1267 -1033.52
32.369801 15.7093 -1035.1801
30.5557 16.0429 -1036.05
25.162001 16.8141 -1038.5601
43.2673 -14.4687 -975.93402
47.3339 -10.322 -983.06799
51.000801 -7.5180402 -987.42999
50.5952 -7.0926199 -988.48901
50.979698 -6.7026401 -989.45898
51.236301 -5.7550702 -990.73401
51.557999 -5.2099299 -991.85999
52.150101 -4.0458102 -993.90302
52.156898 -3.1963799 -995.521
52.682201 -2.59201 -996.70801
52.529202 -1.90704 -997.45801
52.8993 -1.66763 -998.00201
53.102699 -0.70748901 -999.78601
49.720001 7.5676899 -1015.96
49.402802 8.0239601 -1016.8
48.745098 8.7067003 -1018.23
42.9697 11.7526 -1025.5
43.060101 12.3493 -1026.05
41.992802 12.8718 -1027.12
41.028301 13.0953 -1027.79
40.7388 13.5172 -1028.5699
40.2645 13.6989 -1028.99
39.8218 13.5617 -1029.65
39.193501 14.1665 -1030.09
37.6474 14.7857 -1031.63
35.771301 15.1614 -1032.59
36.154099 15.3714 -1032.98
31.785 16.077101 -1034.99
42.807301 -14.0364 -975.67499
44.471699 -12.3484 -977.96997
47.740002 -9.41434 -983.08002
50.382999 -7.2536302 -986.91498
51.6017 -5.24054 -990.52899
51.460602 -4.7597399 -991.586
51.866901 -3.99933 -992.74701
52.271301 -3.5785799 -993.604
52.334499 -2.7305 -995.172
51.8661 -1.53922 -997.64398
49.9674 7.3711901 -1014.88
49.596298 8.0687599 -1015.91
48.679001 8.6672697 -1016.85
48.687302 9.1656799 -1017.98
47.627201 9.7653503 -1019.31
47.376202 9.9435101 -1019.72
46.563999 10.5817 -1020.93
46.021099 11.0094 -1021.84
44.002399 11.5924 -1024.21
43.392899 12.3848 -1024.97
42.891602 12.283 -1025.33
42.6236 12.9715 -1026.17
39.5536 14.2335 -1029.15
39.1465 14.6306 -1029.89
38.2005 14.6942 -1030.85
37.916401 15.0126 -1030.8
37.3526 15.2137 -1031.49
34.374001 16.0882 -1033.36
33.351101 16.123501 -1034.1899
31.881701 16.540199 -1034.8101
29.8613 16.886 -1035.78
29.0429 17.0807 -1036.65
48.449299 -8.3360901 -984.31799
51.148602 -5.9776902 -987.953
50.952301 -5.3193998 -989.07001
51.367599 -4.9092102 -990.06799
52.314499 -4.0038099 -991.547
51.921001 -3.5343001 -992.64502
52.190201 -3.3037701 -993.17798
51.7686 -2.5589299 -994.03601
52.415199 -2.24915 -994.83398
52.452301 -1.81985 -995.633
52.442001 -0.99410999 -996.75201
52.847198 -0.31661999 -998.68903
52.772499 0.081146203 -999.24799
53.065102 0.57589698 -1000.09
52.7318 3.6087999 -1005.73
51.477501 6.5274 -1011.4
49.345001 8.9450397 -1016.33
48.423302 9.3167105 -1017.33
47.495899 10.175 -1019.04
46.372101 10.9365 -1020.71
46.392601 11.2641 -1021.25
43.9813 12.7715 -1024.49
42.026501 13.7967 -1026.6899
40.9263 14.2333 -1027.73
39.837299 14.1516 -1027.97
38.963902 14.9776 -1029.55
38.052101 15.5418 -1030.58
36.794701 15.6168 -1031.09
36.3368 16.079399 -1031.99
35.389702 15.9739 -1032.0699
34.3493 16.621901 -1033.3199
33.1465 16.7267 -1033.8199
31.7526 17.057199 -1034.7
28.683701 17.701099 -1036.38
43.320599 -12.5318 -976.42999
45.706402 -10.4244 -979.328
47.268002 -8.8367596 -981.98297
49.759201 -5.7480798 -987.034
50.520302 -5.1133699 -988.47101
51.3447 -4.3896499 -989.85199
51.508801 -3.53632 -991.06799
52.006302 -3.0871601 -992.06403
52.0341 -2.7768199 -993.06
51.8979 -1.84808 -994.40698
52.236099 -1.40942 -995.29303
52.275101 -0.180756 -997.46802
52.425701 0.0704346 -998.07202
52.9077 0.413818 -999.05103
52.755199 1.24692 -999.88
53.014599 1.38879 -1000.4
52.669399 1.66959 -1001.3
52.5466 2.1033599 -1001.9
52.876202 2.55722 -1002.65
51.339199 7.2441101 -1011.65
49.574799 8.8720102 -1015.07
48.6287 9.77948 -1017
47.266102 11.1012 -1019.68
45.810299 11.8212 -1021.36
44.911098 12.7064 -1023.07
42.778301 13.6787 -1025.33
40.0704 14.9801 -1028.17
38.844799 14.8925 -1028.34
38.4347 15.4319 -1029.83
35.775501 15.9647 -1030.9301
34.090199 17.0397 -1033.04
33.177299 17.1429 -1033.84
31.3549 17.597099 -1034.61
29.1492 18.3395 -1036.4301
48.373199 -7.4885302 -983.27002
51.437698 -3.8776901 -989.49799
51.613098 -2.5444901 -992.34198
51.3979 -1.72272 -993.17902
51.612301 -1.5705301 -993.99597
52.307701 -0.92202801 -995.02399
51.971401 -0.69238299 -996.04901
52.1404 -0.149689 -996.65802
52.403099 0.53997803 -997.83698
52.537498 0.89559901 -998.80103
52.609501 1.3421299 -999.31598
52.579399 2.5507801 -1001.59
52.827499 3.3620901 -1003.02
51.002602 7.59271 -1011.33
49.726601 9.0866404 -1014.3
49.414001 9.31287 -1014.77
49.063 9.8024597 -1015.78
48.2509 10.4485 -1017.19
47.451199 11.0978 -1018.56
46.987301 11.4963 -1019.37
46.402599 11.7312 -1019.83
44.2677 12.3212 -1022.47
43.0252 13.9505 -1024.71
42.5882 14.3936 -1025.5
41.700199 14.6653 -1026.1801
40.8452 15.1564 -1027.17
38.219501 15.6005 -1028.92
36.751598 16.5005 -1030.48
34.161598 16.619301 -1031.34
35.3578 17.186501 -1032.28
33.945202 17.7066 -1032.9
32.797001 18.237101 -1033.66
29.6082 18.0819 -1035.4
43.077 -11.5506 -975.47101
46.847801 -7.6136198 -982.48102
48.0854 -6.5950599 -983.72699
49.091999 -5.76859 -985.64398
49.562302 -4.7165499 -986.76801
50.417198 -3.9514799 -988.68201
51.4874 -2.1321101 -991.74597
52.030399 -0.65390003 -994.15997
51.946499 -0.40310699 -995.02301
52.2719 -0.053985599 -995.53497
51.819698 0.50704998 -996.18402
52.402199 0.97140503 -997.271
52.276199 1.0727201 -997.72803
52.2034 1.64923 -998.83398
52.357601 2.5502601 -1000.53
52.4263 3.62991 -1002.34
52.244202 3.9363101 -1003.13
51.921101 6.80197 -1008.48
50.515999 8.0970201 -1011.76
49.910599 9.3329496 -1013.57
47.975201 11.4537 -1017.91
47.0424 11.7155 -1018.72
46.578201 12.4311 -1020.09
46.3368 12.5976 -1020.57
43.843102 14.181 -1023.73
42.433998 14.8971 -1025.29
41.6693 15.1413 -1025.92
40.998699 15.4204 -1026.3101
38.8857 16.4098 -1028.73
37.1507 16.9592 -1030.38
35.3293 17.316099 -1030.72
35.5159 17.646799 -1031.49
35.1241 17.684 -1032.13
30.712601 18.861099 -1034.73
30.120399 18.771799 -1035.1899
28.893101 18.815399 -1036.1
43.5798 -10.0229 -977.11798
47.4907 -7.1135898 -982.39801
48.938202 -5.7916598 -984.06201
48.804298 -4.62146 -986.58301
50.5425 -3.4570601 -988.22699
50.958698 -2.26355 -990.51398
51.212399 -1.61905 -991.60101
51.484402 -1.1315 -992.46503
51.425999 -0.443573 -993.375
51.824501 -0.143951 -994.27899
51.873199 0.25174001 -995.28497
52.4711 1.96207 -998.64398
52.471901 2.59039 -999.29797
52.188499 2.87802 -999.99701
52.118 3.23154 -1000.73
52.483002 3.9003 -1001.79
52.175701 4.7277198 -1003.52
52.3465 6.3124099 -1006.3
50.053299 9.4641705 -1012.62
49.802898 9.7598896 -1013.3
49.670101 10.0095 -1013.81
49.011398 10.7268 -1015.29
47.8694 11.5935 -1017.14
43.584301 15.1287 -1024.35
42.7215 15.2444 -1024.5
42.224499 15.3263 -1025.12
41.848 15.6418 -1025.75
40.771702 15.873 -1026.13
39.167999 16.191 -1028.2
38.330101 16.755501 -1028.78
37.450901 17.184299 -1029.4
35.194901 18.062401 -1031.45
34.638401 18.205299 -1031.96
31.989901 18.6187 -1033.52
31.084999 19.202499 -1034.23
45.549 -7.9959698 -979.11401
47.972 -5.4927402 -983.409
48.877701 -4.7584801 -984.98499
50.128399 -2.8773501 -988.31299
50.355701 -2.6547501 -988.82202
50.596199 -1.6474299 -990.047
50.9366 -1.32196 -991.09302
51.162498 -0.79464698 -992.09003
51.3811 -0.608154 -992.88202
51.438301 0.19842499 -993.86499
51.6492 0.68063402 -994.82098
51.82 1.1720001 -995.65601
52.336201 4.7981901 -1002.73
52.058201 6.4840698 -1005.4
51.8871 7.6409898 -1007.84
51.697899 7.92026 -1008.41
50.257099 9.7362099 -1012.06
49.0718 10.9087 -1014.53
48.534801 11.6916 -1015.99
47.5233 12.2666 -1017.32
45.1693 14.6911 -1022.18
41.860401 16.117901 -1025.51
40.8139 16.3312 -1026.15
40.028198 16.465401 -1026.64
39.871498 16.654699 -1027.39
39.441002 16.983299 -1027.54
38.873901 17.052099 -1027.84
37.171001 17.9084 -1029.24
36.5191 17.9846 -1030.03
33.8638 18.562599 -1031.58
33.0923 18.787001 -1032.1
31.193199 19.471001 -1033.5601
30.814899 19.858101 -1034.39
46.965 -6.28543 -981.19
48.026901 -4.5947599 -984.34399
49.561501 -3.5619199 -986.47101
49.693802 -2.8227799 -987.29199
50.450199 -2.01752 -988.64099
50.5984 -1.44968 -989.64502
50.729698 -0.81005901 -990.76099
51.417198 0.217224 -992.71399
51.544601 0.77935803 -993.612
51.667999 1.09229 -994.54303
51.562302 1.7921799 -995.24597
51.907001 2.3292201 -996.76398
52.018902 2.9591999 -997.84399
52.3088 6.3027601 -1004.54
51.292198 8.26999 -1007.79
51.2458 8.5611897 -1008.51
50.5956 9.3420696 -1010.16
50.380699 9.93433 -1011.27
48.908798 11.3431 -1014.23
48.7216 11.605 -1014.73
48.711899 11.896 -1015.25
47.540699 12.5436 -1016.9
46.270599 13.4352 -1019.17
45.344398 14.3169 -1020.59
45.476799 14.6555 -1021.09
43.1838 15.9603 -1023.79
41.369301 16.1549 -1024.66
41.012199 16.617201 -1025.5601
40.940899 16.8528 -1025.95
38.484001 17.682501 -1027.9301
37.730701 17.961201 -1028.59
36.117699 18.7269 -1030.1899
35.278599 18.952 -1030.83
34.025799 19.2617 -1032.01
32.711601 19.631399 -1032.49
30.7824 20.357 -1034.14
30.4119 20.407801 -1034.74
29.733999 20.503099 -1034.7
43.296299 -8.9334097 -975.65601
48.151699 -4.7367201 -982.62299
49.0769 -3.3166201 -985.81201
50.509201 -2.10391 -987.20599
51.095798 0.109406 -991.50201
51.223 1.13553 -993.40302
51.6078 1.58777 -994.20398
51.861599 2.5211501 -995.94397
51.676998 2.8800001 -996.67401
51.8643 3.38077 -997.539
52.1745 5.7685499 -1002.01
50.493801 10.12 -1010.46
47.811199 12.8831 -1016.21
47.488201 13.1677 -1016.86
47.4664 13.4662 -1017.37
46.8088 13.5646 -1017.69
45.943901 14.4746 -1019.46
45.051201 15.6038 -1021.68
43.030399 16.3524 -1023.53
42.570702 16.483 -1023.88
41.244499 16.930799 -1025.23
39.624901 17.7696 -1027.08
38.9118 18.251101 -1027.79
38.022301 18.403099 -1028.34
37.7281 18.6082 -1029.23
36.544498 18.8078 -1029.28
36.433102 19.134899 -1029.78
34.9277 19.3155 -1030.5
33.677399 19.6618 -1031.38
33.251999 19.570601 -1031.8
31.890301 19.938601 -1032.37
43.6404 -8.2822905 -975.52698
45.811798 -5.9611201 -979.52502
48.132 -3.54004 -983.86102
49.444401 -2.0394299 -986.59802
50.093102 -1.27502 -987.88
50.6931 -0.54418898 -989.09802
50.2948 -0.217041 -989.96399
50.968102 0.48062101 -991.45398
50.9445 1.21106 -992.255
51.320801 1.9251699 -993.83398
51.692501 2.72296 -995.052
51.698898 2.9074099 -995.61603
51.915298 3.43063 -996.49799
51.7257 4.01373 -997.367
52.016201 7.6683698 -1004.42
51.844398 7.9634399 -1005.07
51.084099 9.4068899 -1007.96
50.840099 9.9977999 -1009.13
50.132 10.7701 -1010.74
49.586899 11.4639 -1011.94
49.172401 12.015 -1013.3
48.318802 12.687 -1014.72
47.440201 13.6112 -1016.6
46.6423 14.0634 -1017.75
46.695999 14.2771 -1018.4
46.1217 14.9258 -1019.34
43.697201 16.1903 -1022.05
41.559399 17.377001 -1024.45
40.435699 17.521799 -1025.67
39.516201 18.045799 -1026.15
39.2771 18.326401 -1026.83
37.732201 18.864401 -1028.13
36.1968 19.5529 -1029.63
33.651699 20.1091 -1031.15
30.935699 21.184799 -1033.64
30.3174 21.346701 -1034.54
43.209202 -7.9654799 -974.97198
48.609798 -3.10941 -983.44098
48.5168 -2.66925 -984.63599
49.4258 -1.41241 -986.33197
50.1124 -0.82421899 -987.56897
50.112 -0.11026 -988.58099
50.4188 0.36224401 -989.89099
50.9786 0.97448701 -990.80499
51.0117 1.561 -991.69299
51.331501 1.96347 -992.66699
51.301102 2.2019 -993.65802
51.539501 3.18015 -994.88702
51.907101 3.4553499 -995.38702
51.2962 3.6788599 -996.04901
52.127899 4.3600798 -997.06097
52.098701 7.7670002 -1003.5
51.604698 8.9691496 -1005.85
49.6035 12.0198 -1012.05
47.620998 13.8554 -1015.9
46.762901 14.4515 -1017.22
46.390301 15.2555 -1018.05
45.774399 15.2483 -1018.57
46.150799 15.4785 -1019.06
44.333698 16.5923 -1021.5
43.001999 16.888599 -1021.77
42.800499 17.2078 -1023.05
42.083698 17.8866 -1023.7
40.836601 17.956699 -1024.88
39.188202 18.7201 -1026.58
38.635101 19.386299 -1027.37
37.6712 19.316099 -1027.9
36.798698 19.398399 -1028.8199
36.504002 19.691601 -1028.84
36.034599 20.003201 -1029.52
35.0154 20.0214 -1030.25
34.598301 20.375601 -1030.37
33.860001 20.417801 -1030.88
33.248501 20.988899 -1031.54
31.9454 21.247601 -1032.39
30.946501 21.7003 -1033.47
28.7139 22.1444 -1034.39
43.406799 -7.3706398 -974.87799
43.739399 -6.7494798 -976.375
46.648899 -4.2291298 -980.95898
48.2267 -2.81375 -982.90198
48.834202 -1.95819 -984.40802
49.208401 -1.04559 -986.15997
49.9473 0.078948997 -988.25201
50.650902 1.16644 -990.69202
50.605701 1.93771 -991.45599
51.459499 2.44907 -992.42499
50.860699 2.7253101 -993.12201
51.699799 3.8294699 -995.04498
51.16 4.0907302 -995.71002
51.2505 4.9342699 -997.35699
52.433201 5.7217999 -998.41803
51.824299 8.1628399 -1003.21
49.498402 12.4323 -1011.8
49.396099 12.7035 -1012.31
49.067402 12.9148 -1012.78
46.7589 15.1682 -1017.43
41.641998 18.383101 -1024.3
40.929298 18.547001 -1024.78
40.715801 18.853901 -1025.39
39.858398 19.2411 -1025.99
38.840099 19.3603 -1026.6899
38.041302 19.620899 -1027.36
37.1717 19.865499 -1027.96
36.804298 20.396601 -1028.62
35.2906 20.540501 -1029.51
34.282799 20.743999 -1030.08
33.485001 20.978201 -1030.66
33.1758 21.555901 -1031.4301
31.2549 21.810499 -1032.61
30.472099 22.0902 -1033.23
43.694801 -5.9184299 -976.00299
47.303101 -2.75845 -982.052
49.542599 -0.233826 -986.97998
49.8563 0.537323 -987.89398
50.1021 1.11169 -989.16803
50.873501 2.7708099 -991.948
50.973099 3.24683 -992.81201
51.032799 3.67154 -993.73401
51.379902 4.2505202 -994.56299
51.3843 4.6343398 -995.47498
51.291901 5.3615398 -996.33002
52.0616 6.8738098 -999.49103
51.067902 10.4797 -1006.59
47.999599 14.6086 -1014.98
47.255798 14.9596 -1015.83
46.654202 15.0834 -1016.24
46.683102 15.6042 -1017.21
45.2728 16.663401 -1019.44
43.562698 17.381901 -1021.03
42.744499 18.1299 -1022.56
41.827801 18.377899 -1023.52
39.1036 19.663401 -1026.09
38.757599 19.8176 -1026.4301
36.422901 20.7451 -1028.46
35.857899 21.440001 -1029.17
34.6688 21.4006 -1029.89
32.417 21.827999 -1031.27
30.616501 22.776501 -1033.26
26.6563 23.115299 -1034.89
25.6959 23.457899 -1034.73
43.2439 -5.75244 -975.27502
48.229198 -0.96472198 -983.69202
48.766102 -0.44335899 -984.99402
49.437401 0.85235602 -987.43597
49.922798 1.4509 -988.57397
50.4328 2.01703 -989.94598
50.641998 2.65381 -990.69
50.872398 3.2521701 -991.72101
50.6535 3.5715899 -992.47699
50.602798 3.9999399 -993.289
51.370399 4.6941199 -994.36603
51.161999 5.0334201 -995.30701
51.353001 5.5084801 -995.995
51.5574 5.9886498 -996.86798
51.491699 6.3652601 -997.58801
51.683498 7.7062101 -1000.06
49.3022 13.6443 -1011.78
47.855301 15.0272 -1014.68
47.033501 15.3844 -1015.54
46.6581 16.483601 -1017.49
45.293701 16.8267 -1018.04
45.3606 17.0459 -1018.68
42.036201 18.912701 -1023.04
40.715 19.315599 -1024.09
40.396301 19.4587 -1024.4399
39.418499 19.716299 -1025.0699
39.643398 20.0455 -1025.52
38.487701 20.475599 -1026.5601
38.042801 20.1766 -1027.0699
33.766499 21.7749 -1029.88
32.953999 22.0159 -1030.4399
32.631699 22.547501 -1031.1
31.200399 23.0021 -1032.5601
43.539001 -5.34235 -975.21503
47.801498 -0.69543499 -983.03802
48.358501 -0.182953 -984.38
50.0909 1.51309 -987.23199
49.755402 1.90176 -988.17297
50.310398 2.5720201 -989.35498
50.217098 3.34583 -990.47699
50.7379 3.6008899 -991.26703
50.723301 4.0451002 -992.172
51.001099 4.4285598 -993.46399
50.868198 4.9689298 -993.935
51.618301 5.6686101 -994.95801
51.4706 6.0252099 -995.73499
51.354698 6.6172199 -996.57898
48.680401 14.5495 -1012.47
46.4744 16.818399 -1017.23
44.471699 16.970301 -1019.13
45.103199 17.7848 -1019.29
43.359699 18.379801 -1020.77
42.976398 18.812201 -1021.63
42.660999 18.9974 -1022.04
41.8633 19.351801 -1022.77
41.486301 19.766001 -1023.56
40.384201 19.860201 -1024.34
39.453999 20.4583 -1025.25
38.808601 20.5082 -1025.55
38.026501 21.063101 -1026.6
37.468102 21.142799 -1026.9
37.002701 21.6926 -1027.42
35.5331 21.7981 -1028.46
34.185398 22.429899 -1029.62
32.841499 22.459801 -1030.16
31.549999 22.8277 -1030.77
31.7115 23.113899 -1031.54
31.4247 23.330299 -1032.29
43.164501 -4.9179702 -974.84198
43.671799 -4.3455501 -976.099
46.581402 -1.66632 -980.71399
47.6656 -0.60034198 -982.40302
48.470299 0.44653299 -984.28802
48.6511 0.729065 -985.08899
49.691799 2.3352101 -987.79797
50.180099 2.9275501 -989.17401
50.1161 3.1661401 -990.034
50.447102 4.2654099 -991.32703
50.927601 4.5882602 -991.92798
50.869999 4.8077698 -992.85901
51.0228 5.9444599 -994.53601
51.491402 6.50806 -995.41699
51.226601 7.06918 -996.42102
51.4697 10.6574 -1003.37
49.236401 14.5719 -1011.26
47.626301 16.5147 -1015.2
46.5952 16.748301 -1015.96
45.149799 17.8638 -1018.05
44.295502 18.934401 -1020.32
42.642502 19.317699 -1021.14
42.121601 19.619801 -1022.13
41.460899 20.220699 -1023.32
40.883202 20.2362 -1023.64
40.2271 20.629499 -1024.3199
39.584 20.8461 -1024.72
37.892799 21.6975 -1026.78
36.777 21.902201 -1027.3101
35.465401 22.261 -1028.2
34.827301 22.560801 -1028.84
33.7841 22.7381 -1029.39
33.266399 23.0373 -1030.24
31.7127 23.5846 -1031.3199
31.059799 23.797701 -1032.0601
26.737499 24.393999 -1033.29
24.9293 24.917299 -1034.6
43.671902 -3.70749 -976.271
44.118301 -2.88394 -977.79999
46.920799 -0.76681501 -981.435
48.022301 1.15555 -984.776
49.1283 1.84576 -986.31897
49.451199 2.8819301 -987.617
50.0984 3.4431801 -988.60699
50.337502 3.9379001 -989.65302
50.159698 4.5707102 -990.65698
50.576 4.9194899 -991.49902
50.6605 5.39957 -992.36499
50.745098 6.0731802 -993.435
51.105499 6.4058499 -994.21198
51.071499 6.8101802 -995.04498
51.194599 7.2499099 -995.86603
51.5089 8.0812702 -997.81201
51.122299 10.9125 -1004.02
49.398499 14.7907 -1010.47
46.708302 16.965599 -1015.58
45.9431 17.624901 -1016.6
44.321499 19.126101 -1019.61
42.592701 20.0403 -1021.82
41.459202 20.7029 -1023.06
40.355598 20.649401 -1023.28
39.5308 21.4235 -1024.78
38.587502 21.6364 -1025.4301
38.379299 21.8538 -1025.79
36.8839 22.1322 -1026.72
35.754398 22.886 -1027.9399
33.4608 23.3596 -1029.46
33.016102 23.5487 -1030.09
31.4401 23.7307 -1030.58
31.521999 24.295401 -1031.55
23.875299 25.113001 -1034.3101
43.259499 -3.5051899 -975.185
44.1245 -2.7774701 -976.95001
45.722801 -1.14755 -979.146
48.453701 1.76465 -984.50098
49.033401 2.3491499 -986.172
49.491001 3.2037001 -987.07001
49.753502 3.7751501 -988.39899
49.9823 4.1114802 -989.26501
50.287399 5.21136 -991.03699
50.4333 5.7569599 -991.99597
50.998199 6.3888202 -993.05402
50.849899 6.9931302 -994.71997
51.1679 7.7004399 -995.547
51.148899 8.1218004 -996.349
50.6315 12.6783 -1005.17
48.943802 15.4031 -1010.68
47.646599 16.8468 -1013.64
47.0313 17.1684 -1014.23
46.390301 17.3578 -1014.93
46.4841 17.682501 -1015.43
45.701302 18.273199 -1016.69
45.187599 18.964899 -1018.13
43.757301 19.651199 -1019.71
42.209999 20.460699 -1021.6
40.328999 21.6029 -1023.85
39.594101 21.660801 -1024.14
38.858002 21.929501 -1024.84
38.536499 22.0856 -1025.1801
36.958099 22.6471 -1026.48
37.027302 22.9034 -1027.22
34.784199 23.492201 -1028.36
33.783901 24.0529 -1029.21
31.257 24.706699 -1031.22
27.9354 24.983601 -1032.29
25.9105 25.2637 -1033.1801
43.315701 -2.1136799 -975.78601
47.2528 1.17944 -982.50403
48.3465 2.1164601 -984.10199
48.645302 2.6331501 -985.50201
49.004002 3.5287199 -986.35101
49.909401 4.2526598 -987.87701
50.284302 5.2839398 -989.87402
50.351299 5.7333999 -990.79901
50.601299 6.7878098 -992.74902
50.787601 7.1057701 -993.67102
50.642799 7.57864 -994.34302
51.069199 8.1230202 -995.25598
51.113998 9.3615103 -997.37
51.338402 11.2762 -1001.17
51.136799 12.2691 -1003.14
50.331799 13.5302 -1005.56
49.949799 14.2523 -1007.22
48.0793 16.828699 -1012.41
47.311298 17.062401 -1013.68
47.1049 17.438999 -1013.82
46.209 18.476 -1015.82
45.367599 18.906099 -1016.2
45.581501 19.0396 -1016.97
45.063801 19.160801 -1017.38
44.669701 19.277599 -1017.98
43.920601 19.805201 -1018.34
43.469501 20.297701 -1019.83
43.364399 20.5907 -1020.32
42.092201 20.9568 -1021.45
41.443298 21.346701 -1022.16
40.921001 21.687799 -1022.57
40.445999 21.8442 -1023.24
38.752998 22.3445 -1024.5601
37.020699 23.1224 -1026.26
36.3438 23.302601 -1027
35.385101 23.6077 -1027.48
33.081299 24.385099 -1029
32.220798 24.4307 -1029.79
31.5485 25.0072 -1030.35
25.2351 25.7458 -1033.13
23.356899 26.172501 -1034.49
46.668098 0.66445899 -980.42297
47.580601 1.69556 -982.17401
48.0728 2.5980201 -984.02802
49.080399 4.1466699 -986.70398
49.2155 4.3041701 -987.20599
49.4865 4.76828 -988.50201
49.7444 5.5537701 -989.38
49.901199 5.8709402 -990.26398
50.334801 6.6244502 -991.36499
50.741501 7.2375498 -992.37097
50.7271 8.0446796 -994.06
51.169998 8.6250601 -994.98798
50.8965 8.8777504 -995.849
50.867599 9.3061199 -996.466
51.272499 10.1997 -998.03497
49.887501 15.0128 -1007.56
49.398998 15.5182 -1008.9
46.780899 18.262899 -1014.59
43.416698 20.7318 -1019.6
42.571899 21.045099 -1020.33
40.529099 22.4046 -1023.1
39.847801 22.398899 -1023.69
38.291 22.92 -1024.67
38.000702 23.204399 -1025.5699
36.810101 23.510599 -1025.97
36.0135 23.760099 -1026.8101
34.383801 24.461 -1028.33
32.584999 24.9436 -1029.3
32.1931 24.9816 -1029.71
30.9158 25.181101 -1030.16
30.2736 25.428101 -1030.6801
27.752899 25.7195 -1032
27.3204 26.232 -1032
46.785198 2.0678699 -981.57599
47.7286 2.7711201 -983.12701
48.662201 4.1756001 -985.612
49.2467 4.7659302 -987.099
49.9384 5.58499 -988.20599
50.052299 6.5448899 -990.10101
50.454201 7.1344299 -991.08002
50.593399 7.63623 -992.05298
50.704102 8.05264 -992.90698
50.732101 9.0623503 -994.68597
50.8717 9.3890696 -995.73401
50.880402 9.5666199 -996.22803
50.975101 12.0656 -1000.52
50.551601 14.0085 -1004.38
48.596802 16.9599 -1010.4
47.6362 17.906601 -1012.39
47.2948 18.382 -1013.36
46.108898 19.226299 -1014.9
45.9464 19.381901 -1015.54
45.3293 19.6434 -1016.74
45.285099 20.115299 -1016.93
44.657299 20.2722 -1017.23
43.294701 21.438101 -1019.84
42.0919 21.888201 -1020.43
41.872601 22.071699 -1021.16
41.714401 22.3214 -1021.76
40.605499 22.5354 -1022.38
40.118 22.8564 -1022.89
38.7966 23.284201 -1024.12
38.339699 23.6119 -1024.74
37.276402 23.5683 -1025.27
36.511101 24.1129 -1026.0699
36.1194 24.2516 -1026.38
35.252701 24.386101 -1027.55
34.499001 24.735201 -1027.61
34.282101 24.9296 -1027.9399
33.648701 24.9876 -1028.21
32.8451 25.2696 -1028.83
26.7609 26.433701 -1032.01
37.546001 -4.8598299 -969.17603
45.438 0.937958 -978.93903
45.948898 1.9649 -980.867
47.984901 3.5871899 -984.18402
48.763901 4.7824101 -985.96198
49.035301 5.0583801 -986.49402
49.393101 6.1824002 -988.133
49.641899 6.3847399 -988.72699
49.9062 6.8621802 -990.02502
49.714699 7.48804 -990.29401
50.678299 8.0736704 -991.74597
50.723099 8.5351 -992.59497
50.615101 8.7455397 -993.70599
50.606602 9.3341703 -994.23901
50.619598 9.7450895 -995.06403
48.091599 17.8839 -1011.13
47.3918 18.5961 -1012.58
46.369301 19.457399 -1014.44
45.4716 20.0042 -1015.99
44.837799 20.723801 -1017.03
43.547699 21.390699 -1017.89
42.7575 21.6012 -1019.09
42.325401 22.4494 -1020.72
41.395599 22.6898 -1021.46
39.797501 23.246 -1022.8
39.332199 23.616899 -1023.56
38.7304 23.7076 -1023.86
37.171398 24.280899 -1025.1899
35.2328 24.942301 -1026.75
34.524799 25.2132 -1027.38
31.703899 25.763901 -1029.49
31.111601 26.1245 -1029.6
30.4687 26.324301 -1030.2
19.374901 27.705799 -1034.48
44.385101 1.1481 -978.255
45.6534 2.2620499 -980.29901
47.478199 3.5616801 -982.78601
47.6553 4.3743901 -983.46997
48.342098 4.9655199 -984.91302
48.8554 5.4914899 -986.315
49.103802 6.2174101 -987.22803
49.5508 6.9060402 -988.461
50.252899 8.4354601 -991.29602
50.343102 8.8875103 -992.18903
50.423 9.3421602 -993.04303
50.569302 9.7890301 -993.91998
50.831799 10.2887 -994.76501
50.580399 10.4756 -995.37598
48.244099 18.3862 -1010.9
47.396801 18.614799 -1012.07
46.510799 19.703899 -1013.7
45.631901 20.560101 -1015.47
43.2668 22.1056 -1018.87
41.545502 22.931299 -1020.76
41.2854 23.399 -1021.56
40.625999 23.319599 -1022.16
39.976398 23.7787 -1022.58
39.163399 24.0576 -1023.25
38.855999 24.5245 -1023.84
38.036301 24.534401 -1024.47
36.426201 25.0739 -1025.74
35.1483 25.361 -1026.48
33.1273 26.036699 -1027.98
32.260601 26.1269 -1028.61
31.0884 26.7682 -1029.25
27.028 27.3531 -1031.92
47.324699 3.9113801 -981.67999
48.4203 4.8680701 -983.37
48.7257 6.0688801 -985.75
48.9389 6.9008498 -986.92902
49.5397 7.74933 -989.19702
49.554901 8.00879 -990.12903
50.266102 9.3015099 -991.81
50.448299 9.8213501 -992.72198
50.270699 10.7579 -994.66803
50.608101 11.0666 -995.203
50.896999 11.564 -996.01703
50.738701 14.4085 -1000.96
50.014301 15.5928 -1004.06
49.897999 16.064501 -1005.41
47.888 18.7766 -1010.57
46.759399 19.944401 -1013
46.204498 20.6483 -1014.37
45.5397 20.784201 -1014.38
44.581799 21.6416 -1016.42
42.840302 23.275 -1019.9
41.9632 23.4869 -1020.06
41.336601 23.626801 -1020.91
39.780201 23.560499 -1021.87
39.666 24.280001 -1022.52
39.177898 24.5317 -1023.02
38.4827 24.842899 -1023.74
37.851799 24.920401 -1024.35
36.917999 25.4109 -1024.9
36.2034 25.660299 -1025.66
34.592602 26.178101 -1027.0601
