# .PCD v0.7 - Point Cloud Data file format
VERSION 0.7
FIELDS x y z
SIZE 4 4 4
TYPE F F F
COUNT 1 1 1
WIDTH 1271
HEIGHT 1
VIEWPOINT 0 0 0 1 0 0 0
POINTS 1271
DATA ascii
-48.531898 -139.57401 -1118.22
70.676598 -145.28799 -1093.3
71.274498 -145.291 -1092.8
0 0 0
-43.107899 -139.35899 -1116.3101
70.103104 -144.623 -1093.1899
73.292503 -144.726 -1092.27
91.518799 -145.58299 -1088.1899
92.833504 -145.55499 -1087.4399
90.817299 -144.855 -1088.27
100.047 -145.679 -1088.5
-43.738602 -137.875 -1115.84
91.492104 -144.222 -1087.67
93.571297 -144.41901 -1088.05
-45.005798 -137.103 -1116.1899
-42.616798 -137.237 -1115.4301
-42.101398 -137.269 -1115.4
71.901497 -142.623 -1092.2
95.347397 -143.886 -1087.9399
99.122299 -144.287 -1088.48
-50.979099 -135.927 -1116.78
-49.7715 -136.07001 -1116.9301
-46.912201 -136.244 -1116.0601
-41.596901 -136.82001 -1116.66
89.525803 -142.83501 -1088.41
91.5289 -142.83701 -1087.63
99.127296 -143.575 -1088.3
100.021 -143.658 -1088.55
-49.820301 -135.452 -1117.15
-48.158401 -135.465 -1116.67
-43.762001 -135.82899 -1115.5
89.630997 -142.119 -1088.65
92.302101 -142.254 -1088.1
95.481003 -142.515 -1087.4
99.192596 -142.939 -1088.47
-50.384201 -134.642 -1116.7
-47.549999 -134.869 -1116.03
-45.000401 -135.155 -1115.7
-43.720299 -135.172 -1115.24
-42.114201 -135.334 -1115.3199
87.985802 -141.474 -1089.21
89.152496 -141.504 -1088.77
90.342598 -141.54601 -1088.63
93.729401 -141.752 -1087.97
94.396599 -141.78 -1087.85
-53.556099 -133.63901 -1117.14
-43.722801 -134.492 -1115.4301
-42.0145 -134.539 -1114.8
87.414703 -140.875 -1089.61
91.795898 -141.04201 -1088.48
93.160599 -141.153 -1088.48
96.256599 -141.354 -1088.1801
97.668404 -141.487 -1088.3199
98.503502 -141.554 -1088.24
-50.389198 -133.35201 -1116.85
-48.566399 -133.437 -1115.83
-45.561901 -133.75 -1115.67
-43.7043 -133.91 -1115.64
-42.568298 -134.017 -1115.39
88.176697 -140.29201 -1089.73
88.801804 -140.271 -1089.5601
94.629501 -140.65199 -1088.52
95.789497 -140.69299 -1088.46
-52.9175 -132.563 -1117.74
-51.493999 -132.61 -1116.37
-50.956799 -132.789 -1117.28
90.708397 -139.82001 -1089.83
91.387001 -139.813 -1089.33
-54.625401 -131.76801 -1117.89
-52.1353 -131.993 -1117.16
-50.244499 -132.153 -1116.62
-49.082199 -132.31799 -1116.77
-46.822201 -132.506 -1116.25
-43.583801 -132.658 -1115.37
-43.024502 -132.698 -1115.4399
88.528503 -139.07001 -1090.64
90.918503 -139.09801 -1089.86
-57.6754 -130.757 -1118.83
-52.835999 -131.188 -1117.28
-46.813801 -131.744 -1116.15
86.666603 -138.304 -1090.84
89.360298 -138.487 -1090.83
93.2286 -138.789 -1090.4301
93.889801 -138.836 -1090.46
97.141701 -139.138 -1091.29
-56.999001 -129.879 -1117.55
-50.271702 -130.78101 -1116.66
-43.032902 -131.37 -1115.47
93.574898 -138.278 -1091.37
-56.3032 -129.452 -1118.46
-46.801102 -130.37601 -1115.8101
-43.5835 -130.605 -1115.1
87.269501 -137.328 -1093.12
91.815804 -137.71001 -1092.7
95.391403 -137.914 -1092.1801
-55.1987 -129.01801 -1117.8
-46.117199 -129.759 -1115.53
-43.600101 -129.968 -1115.17
95.159302 -137.467 -1093.4301
96.591301 -137.62399 -1093.73
99.777298 -137.994 -1094.36
-56.313499 -128.332 -1117.29
-52.926998 -128.567 -1116.6801
-49.048801 -128.86501 -1115.9
97.7808 -137.366 -1095.59
101.911 -137.811 -1096.52
-51.5825 -128.007 -1116.1801
-48.5397 -128.261 -1115.74
-44.195499 -128.552 -1114.78
91.327797 -136.328 -1096.28
93.2519 -136.541 -1096.85
99.990097 -136.965 -1095.8101
-46.124298 -127.799 -1115.01
92.443802 -135.987 -1097.91
94.416901 -136.186 -1098.35
-57.657902 -126.212 -1117.48
-56.3139 -126.226 -1116.52
-54.658798 -126.49 -1116.71
-48.530998 -126.891 -1115.48
-44.212799 -127.284 -1114.73
88.746399 -135.25101 -1099.11
98.567497 -136.093 -1099.95
-49.006401 -126.272 -1115.1899
-47.391201 -126.296 -1115.05
-45.483398 -126.415 -1114.61
89.2612 -134.92101 -1101.73
100.967 -135.79601 -1100.62
103.1 -135.961 -1100.5699
-57.7066 -124.854 -1117.3101
-53.5369 -125.258 -1116.3101
-52.219898 -125.36 -1116.1
-51.569599 -125.41 -1115.76
-49.5485 -125.556 -1115.27
95.248901 -134.783 -1101.78
104.459 -135.616 -1102.45
-54.7127 -124.45 -1116.64
-47.346298 -125.015 -1114.27
-45.553501 -125.242 -1114.55
99.442902 -134.733 -1103.4
100.873 -134.86501 -1104.13
102.104 -135.123 -1104.95
-55.137299 -123.67 -1116.2
-53.598099 -123.829 -1116.26
-51.5816 -124.141 -1115.87
-45.493801 -124.693 -1114.59
-53.622002 -123.249 -1115.9301
-52.2248 -123.424 -1115.71
-50.228401 -123.589 -1115.49
-47.3745 -123.9 -1114.8199
102.656 -134.28101 -1108.03
105.406 -134.439 -1107.27
108.176 -134.87199 -1108.85
-52.187099 -122.807 -1115.8101
-50.886101 -122.912 -1115.67
100.537 -133.696 -1110.15
-59.0411 -121.728 -1118.3
-49.552601 -122.394 -1115.5
-46.6134 -122.581 -1114.8101
-45.922298 -122.647 -1114.6801
104.552 -133.472 -1111.2
105.872 -133.50301 -1110.13
-52.8064 -121.56 -1116.3101
-50.109001 -121.658 -1115.4301
-53.415501 -120.936 -1116.9
-51.379398 -121.01 -1115.9399
-46.5033 -121.383 -1115.16
-45.1838 -121.545 -1115.3199
97.388496 -132.14101 -1114.14
-52.6656 -120.376 -1116.67
-51.9977 -120.443 -1116.9
105.748 -132.35001 -1115.6801
-53.817902 -119.653 -1117.21
-50.630501 -119.952 -1116.9301
96.619003 -131.278 -1118.09
105.25 -132.226 -1120.27
-51.7827 -119.161 -1117.0699
-51.146099 -119.237 -1117.24
-48.022202 -119.421 -1116.64
94.987396 -130.718 -1120.25
-56.0784 -118.397 -1119.37
-48.4636 -118.832 -1117.54
-47.385101 -118.997 -1117.98
-55.299801 -117.801 -1119.72
-52.248299 -118.002 -1118.8101
-47.158401 -118.479 -1117.98
97.693398 -130.10899 -1124.12
103.984 -130.48399 -1123.17
-59.013599 -117.053 -1120.98
-57.09 -117.176 -1120.6899
-54.580799 -117.436 -1121.15
-51.6129 -117.851 -1120.61
-50.162601 -118.012 -1120.11
-48.848 -118.135 -1119.9399
103.176 -130.01199 -1125.53
108.677 -130.58501 -1126.72
110.541 -130.563 -1125.16
-53.802399 -117.012 -1121.66
-49.412102 -117.678 -1120.76
-60.439899 -116.321 -1125.35
-59.333599 -116.197 -1123.58
-49.893799 -115.935 -1122.46
109.931 -129.362 -1131.5601
111.328 -129.653 -1132.87
-58.292099 -115.297 -1124.97
-56.101601 -115.141 -1126.66
-52.970299 -115.433 -1127.13
112.675 -128.707 -1135.8101
-57.369099 -114.51 -1129
-55.925701 -114.69 -1128.42
110.575 -128.222 -1138.34
114.197 -127.953 -1139.74
-55.3974 -113.687 -1130.62
-54.500099 -113.245 -1136.3
-56.16 -112.384 -1136.35
-52.737999 -112.78 -1136.65
-51.433998 -112.86 -1136.46
-54.557201 -112.169 -1138.13
-55.923698 -110.739 -1143.23
-58.119301 -110.27 -1146.5601
-54.8596 -110.21 -1144.22
-38.7299 -99.801498 -1074.78
-38.681499 -98.612602 -1074.97
-39.690201 -96.662804 -1073.95
-39.737 -95.449898 -1074.58
-27.310301 -99.0317 -1110.3
-40.775902 -93.096603 -1075.48
-39.6838 -91.8097 -1074.95
-40.0858 -90.610901 -1074.9301
-40.9599 -89.969299 -1075.14
-40.0373 -88.2229 -1076.13
-39.448898 -88.184303 -1075.4399
-39.417599 -87.029701 -1075.79
3.9358499 -79.387299 -983.72498
-2.3643799 -79.179199 -985.10999
0.075256303 -79.1502 -983.99799
3.50244 -78.809502 -983.65198
5.6810899 -79.503304 -983.65503
12.3207 -79.410004 -983.54602
16.067699 -79.2789 -984.42798
18.9366 -79.527 -985.146
-9.3401499 -77.733902 -986.59998
12.3141 -78.356598 -982.95898
2.3989899 -77.041298 -982.06702
18.1553 -78.307404 -983.97498
20.849899 -78.6688 -985.37
24.1495 -79.067001 -987.06702
1.42035 -75.9058 -981.70203
8.0792198 -76.892601 -981.78003
20.129299 -78.005898 -984.61798
-40.127701 -82.287102 -1077.77
18.581301 -76.607903 -982.987
13.6006 -76.114899 -981.49103
19.7728 -76.7341 -983.44897
13.6461 -75.540604 -981.28101
19.613001 -76.058502 -982.85498
23.573099 -76.5131 -984.73199
12.2682 -74.764702 -980.38599
15.2711 -75.005997 -981.08002
23.5408 -75.872902 -984.28601
28.967501 -76.545097 -987.82599
-9.6751699 -72.991302 -983.81799
12.7754 -74.209198 -980.13098
15.1566 -74.385597 -980.62799
16.9081 -74.5485 -980.96002
17.735701 -75.2463 -981.76501
28.2341 -75.903297 -986.90698
-5.0894799 -72.603897 -981.59802
12.1609 -73.596901 -979.67297
13.2026 -73.655602 -979.755
22.7006 -75.159897 -983.362
6.9678302 -72.717903 -979.02301
15.5278 -73.376099 -979.922
18.197001 -74.150299 -981.17902
23.1597 -74.134598 -982.81799
-0.0365601 -71.7593 -979.44397
6.3478398 -72.139 -978.65399
11.3469 -72.488899 -978.76599
16.020901 -72.322899 -979.35699
22.404499 -73.488197 -982.08002
-19.081699 -70.901299 -990.276
0.892456 -71.245796 -978.86298
14.9058 -72.238701 -979.242
29.1984 -73.7481 -985.79797
10.7298 -71.345497 -978.13
19.770599 -72.201797 -980.47198
22.819799 -72.434196 -981.48499
29.8057 -73.3349 -985.83197
5.59583 -69.819801 -977.35303
18.8318 -70.865196 -979.19702
10.4716 -69.530701 -976.98102
16.290001 -69.992996 -977.96802
22.530199 -70.567001 -980.159
-0.057250999 -68.834602 -977.32898
16.2798 -69.375298 -977.65503
30.013201 -70.863503 -984.31201
34.200901 -71.352997 -987.53802
5.2748399 -67.969704 -976.14203
11.2891 -68.339203 -976.16602
16.109501 -68.786201 -977.19501
17.452299 -68.901199 -977.71002
23.7764 -69.556801 -980.19397
-23.7684 -66.777802 -992.00299
9.7013502 -67.712601 -975.91901
-5.3732901 -65.842903 -977.42798
10.1349 -66.734398 -975.35901
16.5536 -67.255402 -976.44397
22.066099 -67.720398 -978.22601
30.963301 -68.778198 -983.58002
33.997398 -69.123497 -986.10498
-0.197266 -65.563904 -975.81702
-5.7952299 -64.800697 -977.32599
5.0570102 -65.291397 -974.78998
5.6098599 -64.811302 -974.61102
16.972799 -65.624397 -975.69299
34.584 -67.609596 -985.61902
9.3649902 -64.438599 -974.15302
17.0249 -65.0569 -975.526
21.2188 -65.396004 -976.69299
23.065001 -64.9608 -977.17102
28.5903 -66.139999 -980.53003
33.1399 -66.077797 -983.29901
33.994099 -66.810997 -984.388
16.245501 -64.332397 -974.84497
21.0467 -64.769798 -976.22198
27.656099 -65.464897 -979.5
30.4548 -65.791298 -981.37701
15.4993 -63.6166 -974.23297
9.74506 -62.676102 -973.073
14.8576 -63.022301 -973.70398
21.5289 -63.583698 -975.71997
22.7808 -63.742699 -976.28302
9.6519804 -62.147701 -972.69397
-5.1431298 -60.838402 -974.784
28.0844 -63.725899 -978.73901
3.57794 -60.224899 -972.49402
14.1389 -61.457802 -972.862
21.2971 -62.0303 -974.53101
29.157 -62.290501 -978.20001
31.5016 -63.594101 -980.784
34.379799 -63.4636 -982.71399
-28.6234 -59.766998 -995.67902
8.9973097 -60.541302 -972.258
14.1854 -60.940399 -972.86798
19.4333 -61.325199 -973.89001
21.847799 -61.555599 -974.53699
10.329 -60.149101 -972.547
23.739 -61.181499 -975.24902
27.505899 -60.999901 -976.60797
3.4788799 -59.0914 -972.27802
9.0728798 -59.496498 -972.27502
10.5791 -59.552898 -972.12701
15.9447 -59.9627 -973.11499
17.1611 -60.1054 -973.52802
25.157301 -60.786098 -975.91901
34.035301 -61.087299 -980.26501
10.1406 -58.9608 -972.08197
16.5467 -59.4384 -973.18298
18.360001 -59.5966 -973.72699
29.6056 -60.594898 -977.82599
35.1763 -60.672199 -981.28101
-6.17871 -57.533298 -974.37
15.2942 -58.730301 -972.54797
28.319201 -59.9286 -977.28802
33.816299 -59.905701 -980.38
31.755199 -60.2799 -979.14502
35.209099 -60.020599 -981.25598
10.1103 -57.256599 -971.44897
17.275499 -57.746201 -972.22601
21.182699 -58.063099 -973.612
27.059299 -58.608501 -976.40198
36.6161 -59.657799 -982.35101
16.301001 -57.151798 -971.96399
19.748199 -57.396801 -972.73401
22.358299 -57.6553 -973.83301
29.5613 -58.321701 -977.52502
31.856701 -58.5667 -979.237
36.788502 -59.205399 -982.74799
38.456799 -58.862099 -984.255
-32.331501 -55.849602 -1000.21
18.913099 -56.814899 -971.87097
36.302101 -58.5564 -982.60303
20.2908 -56.887699 -972.38898
21.517401 -56.508999 -972.50299
27.5576 -57.140099 -975.89502
20.120501 -55.859001 -971.513
21.4821 -56.001598 -972.15698
22.7964 -56.132801 -972.95099
29.315201 -56.754902 -976.41699
8.7800303 -54.543999 -970.24298
14.7368 -54.378601 -969.80603
27.738899 -56.023201 -975.06403
30.4783 -56.290001 -976.31
16.441 -54.499901 -970.19501
20.651501 -54.834801 -971.224
21.7474 -54.3298 -971.328
23.0791 -55.045898 -972.17499
25.672701 -55.283001 -973.28003
26.281401 -55.859001 -974.104
17.584499 -53.9911 -970.17102
27.486 -54.2299 -973.578
9.7894897 -52.9105 -969.55798
15.8065 -53.277199 -969.55499
21.796101 -53.735901 -971.18402
23.011801 -53.843498 -971.70398
26.7411 -54.7234 -973.28302
10.6003 -52.313202 -969.01599
14.0245 -51.998402 -968.99402
17.218901 -52.175301 -969.14801
27.306801 -52.527802 -972.68201
14.3104 -50.9632 -968.43701
35.609501 -52.320202 -977.75
16.3573 -50.131802 -968.995
19.162201 -50.340698 -969.16498
23.903099 -50.6772 -970.56
24.6064 -50.752499 -970.89203
32.571999 -51.467098 -975.17297
34.048801 -51.0952 -976.05103
37.794998 -52.0522 -979.289
10.5426 -48.675201 -967.86902
13.7915 -49.3932 -968.07098
15.0159 -48.9636 -967.95599
17.303699 -49.689301 -968.82397
31.8734 -50.871899 -974.65698
34.709999 -51.171501 -976.51501
35.973801 -51.300499 -977.39301
8.2828398 -48.523899 -967.68701
9.3624296 -48.5867 -967.58899
14.1877 -48.874901 -967.68103
27.872299 -49.964802 -972.27002
33.969799 -50.521 -975.82001
35.324402 -50.087002 -976.664
36.939602 -50.8475 -978.10303
-29.1943 -46.758099 -988.14301
9.8524799 -47.4772 -967.30701
19.2623 -48.705601 -969.03198
22.601101 -48.904499 -969.71802
23.7854 -49.0238 -970.08801
27.7215 -49.333401 -971.90698
37.473801 -50.268101 -978.22998
14.9306 -47.814201 -967.48401
16.668699 -47.914299 -967.888
20.2754 -48.198601 -968.80499
24.42 -48.507999 -970.16803
38.7108 -49.809399 -978.99597
9.9326801 -46.918499 -967.276
11.0548 -47.4911 -966.74701
18.7929 -47.468102 -967.79102
7.9281001 -46.283798 -967.35602
8.45819 -46.2052 -966.46802
9.2495699 -46.263699 -966.771
10.0306 -45.728699 -966.24298
20.105301 -46.501701 -967.87299
25.101999 -46.9245 -969.89899
26.247499 -46.9576 -970.20599
31.5833 -47.443699 -973.21301
3.86865 -44.950199 -966.617
34.4207 -47.2216 -974.95599
38.1007 -47.535198 -977.96002
4.71661 -44.5042 -966.27698
19.271 -45.4221 -966.96002
20.4893 -45.517101 -967.24597
28.830799 -46.194199 -971.26202
-7.8221402 -43.436798 -969.50299
5.70294 -44.056198 -966.09998
15.2393 -44.633202 -966.17999
19.705 -44.388802 -966.52502
21.618 -45.060398 -967.396
26.152 -45.447899 -969.60699
28.010599 -45.5751 -970.461
32.855 -45.481899 -973.13
35.089401 -46.257702 -975.06897
35.6922 -46.2934 -975.43201
37.199299 -46.423599 -976.67902
5.7258902 -43.5186 -965.97998
24.039301 -44.733898 -968.10101
28.6924 -45.160702 -970.68903
29.324699 -45.1814 -971.02399
30.6896 -45.312698 -971.79901
36.4249 -45.813202 -975.81097
38.686501 -46.029202 -977.73199
7.6624799 -43.125599 -965.96503
9.1591797 -43.2351 -965.521
17.9662 -43.743999 -966.09003
26.626101 -44.393299 -969.08698
27.7791 -44.4958 -969.80701
34.2565 -44.477299 -973.76099
5.4229698 -42.368401 -964.77698
15.6257 -42.436001 -965.461
27.249001 -43.876801 -969.21399
36.283001 -44.651798 -975.19299
38.5574 -44.9035 -977.14502
21.9368 -42.873402 -966.64001
31.814899 -43.653099 -971.65302
37.605801 -44.186001 -976.02002
8.91187 -41.428398 -964.66302
19.6661 -42.1245 -965.81897
38.276901 -43.6381 -976.34601
39.475201 -43.762501 -977.09497
26.408899 -42.070499 -968.25403
29.736799 -42.3633 -970.00702
34.008598 -42.715302 -972.82898
15.6281 -40.8148 -965.13599
18.1938 -40.9282 -964.73401
21.309601 -41.151402 -965.96899
30.381201 -41.873402 -970.13898
15.0452 -40.253201 -964.89899
20.7057 -40.621601 -965.54401
27.107901 -41.1092 -968.48499
30.270201 -41.337502 -969.79602
31.041599 -41.4053 -970.30103
36.836399 -41.9473 -974.63
38.154099 -42.016899 -975.71899
-33.380402 -38.542198 -992.922
25.796499 -40.505299 -967.81403
27.101299 -40.1031 -968.33301
28.944201 -40.764801 -969.16901
33.0588 -41.086899 -971.51501
33.916599 -40.6478 -971.927
34.3409 -41.218601 -972.41901
35.1479 -41.762901 -973.15997
-32.193298 -37.551102 -991.59497
14.4302 -39.220501 -964.56201
18.2029 -39.435001 -964.40802
20.060499 -39.550301 -965.00897
21.281099 -39.6758 -965.71802
22.710699 -39.795502 -966.62903
28.4188 -40.187901 -968.992
-5.66431 -37.648201 -966.74298
7.2055702 -38.275002 -963.914
9.9417696 -38.4496 -964.10602
10.8992 -38.488201 -963.98999
16.0389 -38.256302 -964.534
17.718399 -38.898399 -964.435
21.884199 -39.1922 -965.94299
29.616301 -39.765499 -969.37598
32.242599 -39.951302 -970.60699
34.241901 -40.121799 -971.65997
4.9075899 -37.619701 -963.75299
19.4821 -38.474098 -964.617
25.7624 -38.913101 -967.33301
27.0555 -39.038898 -967.98901
30.8417 -39.297199 -969.77802
32.999802 -38.890701 -970.966
33.047298 -39.447201 -971.12903
37.182098 -39.8269 -974.047
14.436 -37.623501 -964.22198
27.6418 -38.499599 -968.06598
30.127199 -38.653 -969.25
38.194 -39.360802 -974.86603
3.87958 -35.862301 -963.474
-31.1429 -34.097 -987.177
16.4718 -36.023201 -963.85498
32.217499 -37.1157 -969.85901
38.630199 -37.610199 -974.448
-33.303902 -33.638599 -991.73102
-32.319 -34.092899 -989.586
16.491199 -35.5215 -963.78302
17.306601 -34.997799 -963.34399
24.9074 -36.088299 -966.04797
26.838301 -36.1731 -966.90399
31.988899 -36.555199 -969.39001
36.883701 -36.925201 -972.69598
-31.552099 -33.144699 -989.203
16.539499 -35.0312 -963.71698
33.371101 -35.688499 -970.05798
33.440601 -36.2062 -970.27197
19.334499 -34.7257 -963.77399
-34.165798 -32.078602 -992.78302
18.219999 -34.115799 -963.664
26.7456 -34.165298 -966.24902
29.2631 -34.882801 -967.55798
33.945999 -35.202499 -970.21301
-14.5427 -31.9736 -969.63501
-2.89996 -32 -964.72101
8.2385302 -33.0462 -962.72101
9.2788696 -33.0811 -962.69702
14.282 -33.384201 -962.96399
14.7869 -33.398499 -962.94897
21.212601 -33.823898 -964.35999
22.376301 -33.908298 -964.65997
24.7887 -34.044399 -965.39899
28.6187 -34.297298 -967.09399
10.3109 -32.625 -962.586
27.927099 -33.706001 -966.63397
33.982201 -34.163101 -970.02899
37.440601 -34.4039 -972.32001
38.271801 -34.469002 -972.979
39.063202 -34.547401 -973.64099
-34.597401 -31.009199 -993.41199
19.9566 -32.616001 -963.61298
22.409401 -32.775101 -964.48102
22.8873 -32.824799 -964.46802
26.0749 -33.009201 -965.62598
36.622002 -33.751999 -971.48901
-33.897701 -29.8706 -993.133
-29.0145 -30.3983 -982.51501
19.9977 -32.071999 -963.55701
26.6464 -32.487999 -965.70099
33.2351 -32.328899 -968.98602
35.263699 -33.6502 -970.625
38.250702 -33.281898 -972.815
31.154699 -32.194801 -967.70099
31.927299 -31.7118 -968.07703
-33.980801 -28.693399 -992.89203
-31.106899 -28.660299 -986.02802
2.30316 -29.440901 -962.41199
8.1167603 -29.719601 -961.85199
35.795399 -31.4618 -970.27802
0.0093994103 -28.8202 -962.42999
19.848101 -29.434601 -962.84399
26.4771 -30.326 -965.01001
36.6493 -31.0254 -970.815
27.065599 -29.8785 -965.133
33.7584 -30.309299 -968.755
37.3265 -30.6134 -971.19598
-5.0100698 -27.562599 -963.83502
-2.9574001 -27.6099 -962.31403
19.2785 -28.3783 -962.48901
19.305099 -28.8902 -962.62598
25.2724 -28.7267 -964.18201
26.553301 -29.336 -964.88202
30.310699 -29.587999 -966.51703
33.136101 -29.7656 -968.26001
36.463402 -29.996599 -970.33301
-0.32983401 -27.253099 -961.87299
21.6628 -28.5212 -963.185
23.377399 -28.6341 -963.57098
28.403999 -28.9739 -965.737
37.321701 -29.536501 -970.90302
38.0439 -29.5646 -971.42999
-0.25445601 -26.7565 -961.91602
26.9844 -28.3248 -964.72803
29.1099 -28.450001 -966.10101
29.7985 -28.511999 -966.38397
31.6124 -28.041901 -966.79401
34.485401 -28.8116 -968.89001
35.086201 -28.825399 -969.224
36.4953 -28.9436 -970.15503
30.5072 -27.997 -966.64301
33.021198 -27.5366 -967.591
21.6609 -26.883801 -962.90503
35.674702 -27.123301 -969.10901
5.2178302 -25.348801 -961.15198
26.9307 -26.5814 -964.02502
33.7705 -27.0436 -968.03998
35.038502 -27.1178 -968.75299
20.938801 -25.700399 -962.27002
22.662399 -25.802401 -962.68201
30.8519 -26.239901 -965.97198
31.6138 -26.2862 -966.53699
37.27 -26.669901 -970.383
-4.7547598 -23.860399 -963.51202
33.453098 -25.9389 -967.52802
38.002998 -26.2071 -971.00897
8.8455801 -24.068501 -961.20398
26.2833 -25.010599 -963.23602
30.6931 -25.278799 -965.245
2.9749801 -23.2724 -961.58197
19.860399 -23.7036 -961.81
33.630699 -24.9692 -967.38098
35.752701 -25.0968 -969.14398
19.1224 -23.648899 -961.41199
22.504101 -23.276899 -961.70203
32.075901 -23.8325 -965.75403
38.799301 -24.742599 -971.34399
-9.2003803 -21.658701 -964.86499
9.1578398 -22.5606 -960.66199
9.6444702 -22.5821 -960.65503
14.69 -22.8521 -960.96002
19.878099 -22.584499 -961.55701
24.9438 -23.3922 -962.20898
26.216499 -23.492399 -962.80402
26.7624 -23.5324 -962.95203
31.3279 -23.780001 -965.21802
33.376202 -23.3542 -966.50098
37.334801 -24.2045 -970.14301
21.972799 -22.707399 -961.59998
23.621201 -22.8123 -961.64203
29.9939 -23.163799 -964.23999
31.9932 -22.7286 -965.34497
34.244301 -23.439199 -967.19
38.8307 -23.7306 -971.18597
-16.170601 -20.181801 -967.89502
-9.1088896 -20.514099 -963.90399
-3.03845 -20.914801 -962.487
11.8431 -21.610001 -960.51099
19.259199 -21.965 -961.27301
21.417101 -22.160801 -961.35498
25.5723 -22.326401 -962.24298
31.224701 -22.6642 -964.815
40.341599 -23.265301 -972.375
-23.8724 -19.3871 -975.71198
-3.0462 -20.348 -962.41498
6.4355502 -20.7377 -960.46997
18.3221 -20.8496 -961.31598
26.8309 -21.8571 -962.86401
5.7811298 -20.1227 -960.22699
18.1654 -20.2738 -960.93402
22.4702 -21.021 -961.31799
25.5541 -21.1702 -962.12201
-32.474899 -18.440599 -987.909
20.195999 -20.382401 -960.71002
31.943199 -21.039801 -964.888
-29.1618 -17.544201 -981.883
7.9198599 -19.2229 -959.85901
18.4883 -19.7859 -960.29303
30.6208 -20.4034 -964.21503
34.591801 -20.6574 -966.66602
-30.4709 -17.454201 -983.755
-9.0285597 -17.945101 -964.526
24.4536 -19.600201 -961.85303
31.461399 -20.014999 -964.745
33.742199 -19.593201 -965.98499
40.081799 -20.4743 -971.48102
-33.569801 -16.8459 -990.21301
-32.864399 -16.3438 -988.46997
-31.5814 -16.477301 -987.64502
-7.67413 -17.471399 -962.38702
19.7936 -18.413401 -960.69299
19.520599 -18.8745 -960.34399
21.3591 -18.942801 -960.84003
22.435699 -19.0096 -961.05798
26.877001 -19.2435 -962.67902
28.052999 -19.3311 -963.08801
31.3529 -18.9776 -964.492
-14.7726 -16.6133 -966.513
-5.5638399 -17.148899 -962.73297
10.2103 -17.8706 -959.909
20.3494 -18.416901 -960.86798
32.021801 -18.5128 -964.79401
-7.9367099 -16.523001 -963.63202
7.5253901 -16.706499 -959.47198
9.1784096 -17.314301 -959.745
24.4725 -18.1005 -961.703
27.4473 -18.261299 -962.73297
34.6292 -18.6346 -966.59601
35.449501 -18.6483 -967.21198
-33.3577 -14.7411 -990.16602
6.4310298 -16.104099 -959.51398
8.0697002 -16.209101 -959.37701
11.1634 -16.8892 -959.54901
25.726299 -17.638599 -962.00702
28.634001 -17.769699 -963.073
1.7284499 -15.8618 -960.065
21.5378 -16.8183 -960.24103
27.3356 -17.1511 -962.38501
32.806599 -17.4354 -965.29199
34.737999 -17.526899 -966.77899
-12.8141 -14.6189 -966.086
-4.2223501 -14.966 -960.89203
24.428101 -16.438999 -961.409
25.6266 -16.5047 -961.91803
31.4055 -16.7854 -964.17902
34.155899 -16.9529 -966.35999
19.8864 -15.6487 -960.651
20.861 -15.6698 -960.737
21.577299 -15.6545 -960.24799
32.167 -16.256701 -964.67999
33.2299 -16.2806 -965.51599
8.4718599 -14.5123 -958.93103
11.1735 -14.6777 -959.05499
21.4716 -15.1627 -960.836
26.3568 -15.3943 -962.27502
31.538 -15.1697 -964.33099
36.439499 -15.945 -967.914
43.3265 -16.2537 -973.08099
-32.200699 -12.5301 -987.68903
-6.3017001 -13.373 -962.91901
-0.126831 -13.5872 -959.72803
7.4356098 -13.5144 -958.89301
30.1651 -15.1191 -963.79602
41.608799 -15.7079 -971.758
8.5375996 -13.0716 -958.80298
24.7288 -13.9029 -961.80603
32.147499 -14.7158 -964.84399
-23.022699 -11.4957 -973.65698
-8.9358501 -12.2678 -963.63098
19.351101 -13.602 -960.25897
21.583099 -13.7196 -960.78003
36.257401 -14.4508 -967.19897
-4.0184898 -11.9728 -961.633
11.8954 -12.2283 -958.87201
20.462799 -13.1737 -960.42999
-9.9227304 -11.117 -963.12299
15.8651 -12.4501 -959.58099
20.913099 -12.6684 -960.367
26.4536 -12.9422 -962.18903
27.7356 -13.0025 -962.79199
31.5362 -13.1684 -964.44299
32.271 -13.2198 -964.91199
-14.763 -10.3512 -965.27002
-9.1117601 -10.6347 -962.34399
-2.95135 -11.0302 -961.19897
9.0856895 -11.5724 -958.64899
10.2444 -11.6604 -958.80402
25.3297 -12.3746 -961.74799
26.981501 -12.428 -962.25098
33.509201 -12.7544 -965.55402
34.871899 -12.2162 -966.09399
3.94135 -10.7677 -959.20599
6.9773598 -10.911 -958.75201
16.2743 -11.3379 -959.289
34.222198 -11.6375 -965.84399
36.7444 -12.3021 -966.87299
-2.89606 -9.9173002 -961.14801
25.929501 -11.2501 -961.82001
28.434299 -11.3791 -962.91699
32.370602 -10.9506 -964.75897
37.641201 -11.7896 -967.565
-7.0980802 -9.0046501 -961.24701
7.5907602 -9.78652 -958.612
40.677898 -10.8004 -969.93903
-32.583 -7.1192398 -989.75098
-19.1588 -7.89571 -968.85303
-10.9263 -8.4191799 -965.005
-10.0381 -8.3648701 -962.61603
-2.56812 -8.7320805 -959.77698
2.15259 -9.0563498 -959.76501
11.7064 -9.4659004 -958.26001
29.5748 -10.2916 -963.14301
34.242001 -10.5053 -965.55902
35.218399 -10.5297 -965.60199
39.021198 -10.6819 -968.55798
-10.2355 -7.9345398 -964.08502
6.5025601 -8.7246199 -958.61499
10.7031 -8.9302702 -958.34302
14.7311 -9.1085901 -958.84802
36.9361 -10.1336 -966.85498
37.907501 -10.1904 -967.742
-5.23102 -8.1047697 -960.38898
-3.8738401 -7.7572598 -961.29999
6.99158 -8.2500095 -958.41699
7.5999799 -8.2851601 -958.448
8.7056303 -8.3317499 -958.45398
11.8398 -8.4793797 -958.34399
39.935101 -9.73985 -969.22198
41.855999 -9.7778196 -970.48798
1.01819 -7.4549599 -958.87903
28.91 -8.7910204 -962.66803
30.277399 -8.8305397 -963.32397
31.0797 -8.8772202 -963.849
33.0536 -8.9747601 -964.98901
39.9907 -8.7525597 -969.10199
7.07513 -7.2944498 -958.42999
14.1865 -7.6473498 -958.659
15.9822 -7.72681 -959.17499
34.2449 -8.0135403 -965.14099
36.252602 -8.5933104 -966.21899
36.941799 -8.6227999 -966.66498
-0.224731 -6.4713802 -960.29498
4.9505601 -6.6647601 -958.60199
8.6794395 -6.8508101 -958.23102
21.695101 -7.4593902 -960.12598
23.381599 -7.52948 -960.47101
26.005699 -7.65274 -961.466
29.569201 -7.8181 -962.854
33.033699 -7.9601698 -964.84802
34.814999 -8.0241203 -965.30103
41.248798 -8.2736101 -969.68103
42.3713 -8.2719002 -970.49103
-4.0725098 -5.6525502 -959.99701
-1.22668 -5.8916302 -960.45398
1.17432 -5.9490299 -958.86902
28.956301 -7.2432199 -962.49597
33.622002 -7.45468 -965.05603
36.904202 -7.5636401 -966.466
39.641998 -7.6303401 -968.21503
-7.46558 -4.9157 -961.24597
4.4732699 -5.5753002 -958.62299
8.2468901 -5.7692199 -958.29901
21.7369 -6.38554 -960.05402
22.2712 -6.3899102 -960.14203
28.289101 -6.6468601 -961.91199
29.557699 -6.6251998 -962.40503
33.589001 -6.82339 -964.90503
38.23 -7.0415001 -967.09198
-4.1499 -4.5330901 -959.755
7.3656602 -5.1802902 -958.69897
11.9375 -5.3838701 -958.33002
26.504499 -6.0447001 -961.23297
34.8862 -6.3611102 -965.22101
35.515202 -6.3835902 -965.48901
43.648399 -6.60148 -971.93799
-4.6862798 -3.99717 -961.59802
-0.19305401 -4.2037401 -959.46198
7.4714999 -4.62117 -958.84601
32.245998 -5.6763802 -963.75702
-17.875099 -2.72878 -968.32202
-9.78827 -3.16219 -962.49597
-4.0289898 -3.4421401 -959.802
-1.33173 -3.66837 -960.08197
6.4337201 -4.0251999 -958.979
7.5709801 -4.0892901 -958.966
32.389301 -5.1221099 -964.02899
33.640301 -5.1755099 -964.69299
-12.1662 -2.5055001 -963.57098
2.39252 -3.3303699 -959.69897
20.6777 -4.1627998 -959.63
-23.4142 -1.88766 -973.14398
-12.1677 -2.04264 -963.56702
-1.45502 -2.6340599 -959.77802
0.141418 -2.6842501 -959.04401
10.902 -3.2274599 -958.27002
26.061001 -3.85761 -961.16998
-19.299999 -1.64747 -969.31
-3.7439001 -2.07006 -960.94
26.684 -3.42536 -961.39203
27.181601 -3.44047 -961.51099
32.530499 -3.1533101 -964.177
33.6287 -3.1622801 -964.35199
37.225899 -3.84358 -966.79797
37.7258 -3.8182299 -967.07001
-19.390699 -0.63878602 -969.11902
-10.1122 -1.18221 -962.67798
-8.9730797 -1.23186 -962.44702
-2.19507 -1.63667 -960.396
0.30157501 -1.7195801 -959.19098
5.6373901 -2.5114901 -958.60797
8.44629 -2.15504 -958.474
27.8002 -2.9494801 -961.742
28.4547 -3.00125 -962.04901
31.109699 -3.07865 -963.315
35.618401 -3.26018 -965.46301
3.1601601 -1.38247 -958.94501
6.2360201 -1.54677 -958.56799
12.0758 -1.80505 -958.23901
26.1187 -2.3938401 -961.13
26.7782 -2.39587 -961.453
27.2654 -2.42785 -961.53003
31.9487 -2.63959 -963.888
-9.4319496 0.255348 -963.63
-2.29181 -0.54927099 -959.52002
11.1226 -0.686104 -958.33002
21.773199 -1.69495 -959.67798
22.5191 -1.72192 -960.03198
22.9063 -1.72583 -959.89697
29.2033 -1.9845001 -962.375
33.023499 -2.10899 -964.07001
33.583302 -2.11534 -964.17102
34.977901 -2.1703601 -965.02002
35.7855 -2.2088201 -965.62598
37.898899 -2.27089 -967.18103
27.3234 -1.35225 -961.52301
30.49 -1.46873 -962.901
36.525902 -1.69054 -966.16803
-31.341 2.46943 -988.77002
8.1237202 -0.0075912499 -958.62903
29.8176 -0.86115998 -962.53699
32.046398 -0.96119702 -963.87097
-8.94312 1.38016 -963.31598
4.82373 0.75773603 -958.74701
5.6270099 1.25708 -958.24298
32.679298 0.66300201 -964.09003
-21.7841 3.2899899 -971.85901
-4.44519 2.2901499 -959.82001
9.6090698 2.02385 -958.21997
12.3515 1.4124399 -958.31799
23.605301 0.98359698 -959.974
-26.113701 4.1303802 -978.82599
27.858 1.32056 -961.46002
31.4995 1.67767 -963.47498
32.648899 1.1491899 -964.02301
35.309502 1.05156 -965.31201
9.6978102 2.99067 -958.25403
10.1887 2.4976599 -958.26898
23.7684 1.9144599 -960.11603
26.246901 1.36449 -960.96802
26.699499 1.83675 -960.97699
28.652 1.79409 -961.93597
29.307899 1.75614 -962.23798
32.8298 1.60997 -964.25702
2.39398 3.35847 -959.151
33.309799 2.13469 -964.30798
34.403599 2.09743 -964.51398
35.843498 2.61502 -965.73602
-1.25641 4.10216 -958.99298
7.4963999 3.61201 -958.258
21.4781 3.0348201 -959.51001
23.883499 2.94276 -960.20001
36.693001 2.56464 -966.45203
-3.1223099 4.7339401 -959.72198
6.75385 4.7142 -958.79498
8.7598896 4.6337399 -958.341
9.6235399 4.0436101 -958.06403
26.2444 3.40799 -960.854
29.427601 3.2722299 -962.31
30.031601 3.26844 -962.55798
30.738501 3.2639799 -962.93597
34.045898 3.1881399 -964.67999
36.0858 3.1291201 -966.13702
4.8767099 4.8318901 -958.513
32.8545 3.7734201 -964.14398
-8.0163002 6.0890799 -963.67902
6.8791499 4.7344098 -958.12903
31.412201 4.38657 -963.21899
36.252701 4.2459602 -966.35101
37.6208 4.21032 -967.12402
-2.20105 6.2755899 -960.953
-21.3568 8.0930004 -972.71399
-20.4042 7.99191 -971.80298
-19.485201 7.9235902 -971.03101
-17.3326 7.77386 -968.79797
-1.9343899 6.8456001 -959.56299
-0.56286597 6.7122002 -960.63
9.2000704 6.2656898 -958.07098
20.489 5.8424602 -959.24701
39.435101 5.33183 -968.82397
-18.137899 8.3443499 -969.79401
-17.248301 8.2591 -968.93597
7.57129 6.8857698 -958.14099
9.6335402 6.7806201 -957.91101
26.569201 6.1556201 -961.11902
37.118401 5.8881502 -966.98102
1.85974 7.6210999 -959.00702
11.9742 7.1514201 -958.185
23.271601 6.74578 -959.802
23.7656 6.7291999 -959.83698
33.682301 6.4571199 -964.66101
-17.7187 8.7944603 -969.37
0.356262 8.1128302 -960.18201
6.1212201 7.85426 -958.50098
9.3582201 8.2190304 -958.18799
11.9352 7.6464801 -958.09802
21.115999 7.2473102 -959.37402
26.618299 7.0717902 -961.16602
30.896099 7.0023699 -962.95801
38.704498 6.8196602 -968.24103
5.02948 8.4234505 -958.51202
24.625401 7.6447802 -960.29797
27.764799 7.5493202 -961.56702
28.3514 7.5451102 -961.784
29.6432 7.5051298 -962.409
32.975498 7.4607401 -964.16498
35.661999 7.4095802 -965.896
-0.74444598 9.2530899 -959.41498
27.1516 8.0791302 -961.25897
31.7379 7.9483299 -963.50299
35.086201 7.9084702 -965.599
37.205502 7.90452 -967.06097
38.059601 7.8953199 -967.78302
0.65997303 9.7016401 -958.92297
7.1963501 9.3896503 -958.20398
33.736698 8.45679 -964.65997
37.1712 8.4032698 -967.00201
39.717098 8.3894997 -969.21802
40.936001 8.3764296 -970.18597
-6.7336998 10.7486 -963.284
19.4016 9.4200401 -958.70203
21.637899 9.33255 -959.18402
28.3069 9.1814003 -961.50201
29.003099 9.1610603 -961.89801
7.1643701 10.4998 -957.91803
9.6310997 10.94 -957.31299
26.5021 9.7557602 -960.60498
-10.1829 12.0142 -963.83301
2.9170499 11.2546 -958.30603
15.1823 10.6664 -957.55603
23.2474 10.4213 -959.26501
33.770901 10.1772 -964.36401
-8.9218102 12.4202 -962.74597
-6.3518701 12.2225 -962.63397
22.6667 10.9329 -958.76703
29.3979 10.8087 -961.39801
32.101398 10.7808 -962.94501
33.754501 10.7045 -964.29797
-23.808001 14.1359 -977.59003
1.8682899 12.2765 -958.21002
6.5371099 12.0715 -957.41699
32.907799 11.199 -963.35901
34.814899 11.2265 -964.62598
15.2127 12.6846 -957.01398
32.251499 11.6886 -962.65302
37.770302 11.6762 -966.737
-13.0667 14.2102 -965.43597
36.1772 11.6956 -965.32599
29.917601 12.7522 -960.89001
30.648701 12.7247 -961.33002
11.9564 13.8098 -956.86499
12.2459 14.317 -956.46899
26.938801 13.3237 -959.64398
31.4758 13.1924 -961.79602
37.640598 13.1646 -965.91199
6.1398902 14.5418 -957.29102
27.628901 13.8282 -959.987
36.179001 13.6716 -964.68402
12.3636 14.8746 -956.63702
25.215 14.4458 -959.06
34.1446 14.2633 -963.29901
38.393398 14.2165 -966.30499
0.50060999 15.9396 -959.18903
6.7824101 15.6607 -957.31201
10.9074 15.4675 -956.83899
26.515699 14.9813 -959.59802
28.2822 14.9201 -960.27502
32.237 14.868 -962.19202
-22.4666 17.7272 -975.75403
32.226601 15.4453 -962.16998
40.0839 15.4564 -967.83502
-18.280199 18.371099 -969.79102
-17.282101 18.771299 -969.03101
-16.1157 18.1355 -967.37701
-0.73870802 17.127199 -958.23102
32.279999 16.005501 -962.224
-22.9972 19.3654 -977.04498
-15.6239 18.620199 -967.05701
14.8303 16.9102 -956.91199
29.0103 16.5355 -960.61499
37.128601 16.450199 -965.46802
-24.0175 19.507099 -978.05298
-16.4741 19.221001 -967.99799
0.68518102 17.984699 -959.34003
30.244801 17.016199 -961.12097
40.1782 16.4797 -968.01501
6.1019902 18.760201 -956.99799
8.0151997 18.1476 -957.25702
21.1427 17.6873 -957.91101
31.687599 17.4571 -961.93103
35.006199 17.448999 -963.94397
-7.6244502 19.514099 -961.849
11.6074 18.502701 -956.90997
15.5175 18.3652 -957.07703
22.9041 18.155701 -958.396
36.486099 17.954399 -965.03802
38.005001 17.975401 -966.21899
10.5712 19.056999 -956.91101
15.5748 18.886 -957.12701
27.8953 18.5418 -960.17297
28.306499 18.5441 -960.15503
33.8587 18.497999 -963.31702
39.677399 18.5068 -967.72198
-5.6669898 20.4361 -961.91803
22.398899 19.190701 -958.29797
24.616899 19.128599 -958.698
29.1675 19.0348 -960.73999
29.785601 19.057899 -961.01001
33.0737 19.0215 -962.69501
36.649601 19.0128 -965.23297
7.0001798 20.284 -957.36102
15.6814 19.9475 -957.20697
32.468601 19.593 -962.37402
33.268902 19.589899 -962.94202
0.68414301 21.1443 -959.16699
-7.6098599 22.239 -961.79797
0.87670898 21.737801 -957.76801
26.115801 20.815599 -959.37402
36.615002 20.750799 -965.17499
-16.374901 22.9368 -969.28998
10.7226 21.808599 -956.97101
-16.946199 24.046 -969.59302
-2.07446 22.9422 -960.42902
35.985699 21.7761 -964.76801
36.758701 21.756701 -965.37201
-16.3585 24.4865 -969.315
1.1026599 23.234301 -958.00598
39.682598 22.385599 -967.76599
-12.5286 24.6304 -965.414
30.555099 22.788 -961.341
34.1464 22.752899 -963.60999
38.332199 22.820801 -966.698
39.573101 22.860399 -967.61603
-15.0939 25.3591 -967.79901
-6.4238901 24.667299 -962.375
-3.6705301 24.0804 -960.91803
4.4802899 24.0163 -957.56403
8.7125196 23.8496 -957.09698
33.420502 23.2829 -963.06299
35.428398 23.2939 -964.44299
36.114101 23.301201 -964.94202
2.53003 24.631901 -959.01801
6.07794 24.465099 -957.435
12.934 24.703501 -956.828
24.469999 23.868601 -958.91901
30.6607 23.7978 -961.44397
37.042702 24.367201 -965.76398
1.06573 25.2094 -959.44598
7.2128901 25.4904 -957.35602
11.4542 24.7558 -957.06799
22.7649 24.4226 -958.51599
30.1744 24.317499 -961.32898
32.891899 24.330299 -962.83398
35.503502 24.3375 -964.52698
37.819 24.375 -966.40503
9.3597403 25.401199 -957.08197
30.726 24.901699 -961.50201
39.1656 25.549801 -967.45203
-14.6294 27.5214 -967.43597
-4.6287198 26.797701 -962.02002
-4.0149498 26.823 -960.24902
7.7456102 26.0207 -957.24701
7.8432598 26.593399 -957.341
28.3664 25.4708 -960.50897
32.1642 25.492901 -962.33002
-0.259399 27.011101 -960.01501
12.5414 26.4179 -956.95697
27.052999 26.064199 -959.83698
33.056702 26.025999 -963.01099
-13.6952 28.555401 -967.77301
-11.6334 28.8326 -965.53699
-5.8167701 27.892799 -962.20099
6.7607398 27.171801 -957.42603
7.7334599 27.125601 -957.16101
33.699001 26.5851 -963.38599
-9.1814003 28.666 -964.04602
-4.1052198 28.2796 -960.03302
0.98913598 27.9492 -959.23602
33.7197 27.072701 -963.41803
7.8142099 28.1091 -957.20203
20.682301 27.693701 -958.039
37.183498 27.653 -965.96802
38.003799 27.655399 -966.71301
10.6505 28.5005 -957.21399
-4.7135601 29.791599 -961.78699
5.9728999 29.2719 -957.91901
7.3840899 29.252899 -957.52197
14.1007 29.034901 -957.961
19.3878 28.874399 -958.82703
23.7327 28.764999 -959.26001
26.428301 28.7579 -960.31
30.058901 28.628901 -961.70502
35.8965 28.6329 -965.05701
0.216309 30.1126 -959.81799
5.9548302 29.9303 -958.815
10.1704 29.721201 -959.47101
15.5441 29.530399 -959.75201
-22.7167 32.984001 -984.508
14.7231 30.933201 -965.77301
1.6051 31.4974 -966.41901
17.8137 30.931499 -967.25299
33.209499 32.099201 -974.90198
-14.6384 34.1483 -970.47198
-0.81182897 33.106499 -968.74103
35.8232 32.833698 -976.47101
24.6537 33.080502 -976.51703
2.79053 34.784599 -977.36102
-21.013901 37.199402 -983.513
36.717602 35.706699 -987.50897
0.268677 37.199799 -985.125
6.7815599 36.3018 -976.76501
46.803501 36.249199 -992.513
32.677299 37.298401 -993.38202
4.7086201 38.0644 -978.27002
7.2520099 37.3522 -976.466
41.180099 38.605499 -1000.92
5.1598501 38.658501 -977.70099
5.1333599 41.374199 -971.87201
4.0904498 41.447102 -972.08002
5.3408198 42.064499 -968.58801
3.13361 43.291401 -968.80902
3.87451 43.3899 -968.29901
5.1378798 44.235802 -966.85498
3.9215701 44.997101 -965.651
2.03003 45.174801 -966.49597
4.30792 45.594299 -965.29498
4.5297899 48.550999 -969.43298
5.8154302 49.624199 -969.20001
8.32617 49.622799 -969.01801
3.6963501 51.3321 -970.23401
4.2620201 51.885799 -970.31403
4.0014 52.911598 -970.81897
7.5896602 52.869301 -971.29303
4.5007901 53.539501 -971.27802
7.5197802 53.4408 -971.40698
5.0362501 54.710499 -971.14801
7.3306298 54.625301 -972.34802
5.2727098 55.292198 -971.48798
4.91992 55.799301 -972.85901
6.3948398 55.311699 -972.08197
6.67664 56.349098 -972.98999
8.3419199 57.467098 -974.58398
9.3862305 58.079399 -975.90698
12.483 61.812401 -980.04602
