# .PCD v0.7 - Point Cloud Data file format
VERSION 0.7
FIELDS x y z
SIZE 4 4 4
TYPE F F F
COUNT 1 1 1
WIDTH 1577
HEIGHT 1
VIEWPOINT 0 0 0 1 0 0 0
POINTS 1577
DATA ascii
33.624001 -37.771198 -971.04303
34.219799 -37.819698 -971.388
34.820702 -37.846901 -971.698
35.606499 -37.915401 -972.28302
36.383999 -38.000301 -972.90198
37.096699 -38.076801 -973.46503
37.860298 -38.120499 -974.06
38.638802 -38.172699 -974.69098
39.545601 -38.280499 -975.50098
40.088001 -38.2873 -975.81
-36.608501 -34.743301 -1016.18
-36.845901 -34.584801 -1011.08
-36.511398 -34.534199 -1009.01
-36.376598 -34.3274 -1001.88
-36.3531 -34.220699 -999.90698
-36.066502 -34.180199 -998.58899
-35.570202 -34.208 -997.914
-35.171902 -34.1782 -996.92603
-34.5527 -34.249901 -996.21997
-34.629799 -34.127499 -994.08197
-34.267399 -34.123299 -992.97101
-33.689201 -34.1712 -992.46997
-33.456501 -34.122398 -991.49298
-33.104401 -34.106098 -990.93701
-32.6376 -34.149502 -990.44702
-32.319 -34.092899 -989.586
-31.8426 -34.1036 -988.90601
-31.2701 -34.144299 -988.39398
-31.1429 -34.097 -987.177
-30.489 -34.141399 -986.78497
-30.181299 -34.115398 -985.90002
-29.5343 -34.173599 -985.66101
-29.1208 -34.178101 -985
-29.112301 -34.116001 -983.80103
-28.4751 -34.1525 -983.54199
-28.2202 -34.112499 -982.66199
-27.519899 -34.1703 -982.513
-27.3022 -34.1049 -981.53003
-26.775999 -34.150902 -981.12701
-26.347 -34.162102 -980.47101
-25.8964 -34.165699 -979.98297
-25.478001 -34.181 -979.448
-25.198799 -34.158199 -978.72998
-24.569799 -34.196499 -978.59497
-24.1008 -34.2234 -978.17401
-23.7181 -34.2211 -977.62402
-23.4049 -34.1894 -976.94
-22.8248 -34.2402 -976.664
-22.318501 -34.2379 -976.26398
-21.820101 -34.268002 -975.85797
-21.4238 -34.256199 -975.32501
-21.0753 -34.270901 -974.79797
-20.4953 -34.294601 -974.62701
-20.2169 -34.276402 -974.03601
-19.530001 -34.353199 -974.03003
-19.267099 -34.3092 -973.31403
-18.699699 -34.369801 -973.01703
-18.394501 -34.329102 -972.28699
-17.7806 -34.370701 -972.25702
-17.34 -34.3652 -971.87
-16.9498 -34.368599 -971.453
-16.4147 -34.410702 -971.28302
-15.9517 -34.413601 -970.99298
-15.4506 -34.439899 -970.79303
-15.0662 -34.4529 -970.35199
-14.6565 -34.489201 -969.953
-14.0308 -34.527901 -969.91498
-13.6212 -34.512501 -969.50098
-13.1525 -34.525902 -969.18201
-12.6213 -34.546799 -968.93701
-12.1384 -34.560799 -968.66901
-11.5809 -34.5924 -968.56799
-11.1126 -34.616798 -968.302
-10.7546 -34.6329 -967.948
-10.3262 -34.6175 -967.65302
-9.8274498 -34.6688 -967.453
-9.1035204 -34.701099 -967.547
-8.7686796 -34.697399 -967.078
-8.2747803 -34.725601 -966.849
-7.7701402 -34.749298 -966.62799
-7.3246498 -34.765202 -966.35999
-6.7789898 -34.801899 -966.25897
-6.4370098 -34.780899 -965.87201
-5.73456 -34.867298 -965.96002
-5.35321 -34.866699 -965.46002
-4.8975201 -34.8624 -965.12097
-4.4254799 -34.891701 -964.896
-4.0633502 -34.879799 -964.45599
-3.4446399 -34.925499 -964.47198
-2.9153399 -34.952702 -964.33197
-2.4149201 -34.973999 -964.18298
-1.86426 -35.008999 -964.13
-1.44592 -35.0242 -963.92401
-0.81310999 -35.073799 -964.07397
-0.46887201 -35.064098 -963.771
0.024352999 -35.111801 -963.66803
0.96350098 -35.2122 -964.08301
1.10004 -35.158699 -963.46301
1.79608 -35.2071 -963.59998
2.24841 -35.222401 -963.40198
2.75806 -35.247398 -963.336
3.49121 -35.323101 -963.59998
3.7393799 -35.269402 -963.20502
4.4661298 -35.3358 -963.51599
4.9349399 -35.362598 -963.453
5.3241 -35.361301 -963.21698
6.0947299 -35.459702 -963.54498
6.45435 -35.444302 -963.29303
7.2196698 -35.495998 -963.573
7.8145099 -35.522598 -963.573
8.4252901 -35.561798 -963.61298
8.90417 -35.5937 -963.52002
9.1881104 -35.5816 -963.15198
9.6979399 -35.621498 -963.14899
10.3848 -35.661201 -963.38397
10.9115 -35.713699 -963.37598
11.447 -35.731998 -963.38
11.994 -35.766399 -963.35101
12.4946 -35.788101 -963.30603
13.2031 -35.8447 -963.53802
13.7361 -35.866798 -963.52502
14.2824 -35.865898 -963.547
14.7763 -35.902599 -963.53302
15.3933 -35.9617 -963.73297
15.7319 -35.958302 -963.51001
16.4718 -36.023201 -963.85498
17.1415 -36.084 -964.05103
17.3498 -36.073101 -963.53699
18.7605 -36.192402 -963.72998
19.3174 -36.201 -963.86102
20.049999 -36.246498 -964.27502
20.5856 -36.2841 -964.58099
21.1626 -36.337299 -964.86298
21.8207 -36.374802 -965.14001
22.420601 -36.404999 -965.34399
22.923201 -36.443699 -965.40698
23.6136 -36.4939 -965.71198
24.350599 -36.558601 -966.09998
25.0287 -36.598701 -966.37
25.661301 -36.625702 -966.61603
26.1945 -36.664398 -966.74902
26.922501 -36.747601 -967.16998
27.5112 -36.7826 -967.40601
28.066299 -36.814499 -967.59198
28.722 -36.877102 -967.91901
30.1019 -36.9557 -968.67401
30.8076 -37.033501 -969.07001
31.4645 -37.060902 -969.40302
32.217499 -37.1157 -969.85901
32.797001 -37.143501 -970.13702
33.605701 -37.2257 -970.776
34.283298 -37.290901 -971.271
34.9403 -37.349899 -971.73102
35.4482 -37.3839 -971.94202
36.3503 -37.495098 -972.66803
37.113998 -37.543301 -973.24103
37.870998 -37.548 -973.83301
38.630199 -37.610199 -974.448
39.382 -37.672699 -975.02502
39.658401 -37.628601 -974.95001
-36.3605 -34.055901 -1009.15
-36.506802 -33.885601 -1003.45
-36.531898 -33.761501 -1001.4
-35.9925 -33.800701 -1000.46
-35.866901 -33.714001 -998.87201
-35.569199 -33.7131 -997.80499
-34.999298 -33.710899 -997.177
-34.652599 -33.714901 -996.09802
-34.348999 -33.687801 -994.422
-34.2966 -33.605099 -992.81403
-33.8438 -33.603001 -992.15503
-33.303902 -33.638599 -991.73102
-33.100201 -33.589802 -990.90002
-32.563999 -33.6208 -990.487
-32.046001 -33.5928 -989.89899
-31.730801 -33.595501 -988.99799
-31.2411 -33.640202 -988.31
-30.972401 -33.6063 -987.33301
-30.380699 -33.648998 -986.86798
-30.090799 -33.6087 -985.94098
-29.4884 -33.664501 -985.61902
-29.3757 -33.586601 -984.47601
-28.955 -33.589298 -983.89001
-28.509501 -33.603802 -983.367
-28.079 -33.6301 -982.80103
-27.584299 -33.641701 -982.25598
-27.1602 -33.647499 -981.63397
-26.721399 -33.666901 -981.06403
-26.268 -33.662201 -980.46997
-25.854099 -33.655602 -979.88397
-25.3423 -33.678299 -979.57098
-25.005199 -33.674099 -978.92499
-24.6936 -33.6488 -978.28198
-24.2143 -33.689201 -977.89899
-23.7812 -33.701698 -977.40302
-23.363199 -33.674198 -976.90302
-22.907801 -33.715401 -976.40997
-22.4536 -33.727501 -975.96301
-21.9939 -33.706299 -975.48901
-21.584801 -33.709599 -974.94897
-21.0923 -33.755299 -974.65997
-20.5303 -33.789299 -974.46002
-20.1581 -33.789501 -974.00897
-19.658701 -33.812599 -973.72302
-19.276899 -33.814602 -973.20801
-18.764799 -33.8172 -972.78699
-18.4053 -33.812801 -972.159
-17.738899 -33.870701 -972.16803
-17.4083 -33.866798 -971.66998
-16.8806 -33.878799 -971.45099
-16.3529 -33.935299 -971.26001
-15.8358 -33.9375 -971.06598
-15.4605 -33.951199 -970.66498
-15.0573 -33.961201 -970.27502
-14.5514 -33.977501 -970.02002
-13.9247 -34.023499 -969.961
-13.5717 -34.0186 -969.48102
-12.9911 -34.062901 -969.32599
-12.6685 -34.034599 -968.77399
-12.1846 -34.048199 -968.479
-11.6384 -34.060398 -968.375
-11.169 -34.117001 -968.14398
-10.6679 -34.1366 -967.96698
-10.265 -34.143398 -967.64801
-9.7564096 -34.163399 -967.45502
-9.1633301 -34.188202 -967.354
-8.8079205 -34.2038 -966.90503
-8.4037504 -34.200401 -966.578
-7.6708999 -34.264999 -966.66602
-7.30933 -34.2323 -966.271
-6.7214999 -34.306499 -966.25299
-6.40381 -34.2794 -965.81799
-5.5657301 -34.375 -966.11499
-5.51721 -34.3237 -965.18402
-4.8916602 -34.3834 -965.07898
-4.4509301 -34.386902 -964.73999
-4.0245399 -34.372398 -964.41302
-3.3996 -34.4272 -964.43402
-2.9035599 -34.445499 -964.229
-2.3060901 -34.505402 -964.21997
-1.73761 -34.527599 -964.22998
-1.33325 -34.535999 -963.96899
-0.96881098 -34.5485 -963.74103
-0.29583699 -34.5993 -963.89001
0.155884 -34.616798 -963.73199
0.82971197 -34.666698 -963.82397
1.00696 -34.617401 -963.27399
1.87476 -34.718201 -963.64801
2.3391099 -34.719299 -963.49402
2.6015 -34.717098 -963.06299
3.5998499 -34.8228 -963.69
3.7343099 -34.7742 -963.15198
4.4787002 -34.84 -963.479
4.9986601 -34.876099 -963.44702
5.3588901 -34.8657 -963.18597
6.0703702 -34.941002 -963.45203
6.4705801 -34.923801 -963.20697
7.1069298 -34.985298 -963.24597
7.8029199 -35.0397 -963.40399
8.33673 -35.047298 -963.34399
8.7365103 -35.057301 -963.15302
9.2424898 -35.085602 -963.09399
9.79321 -35.114399 -963.16498
10.2837 -35.149601 -963.12097
10.8105 -35.175701 -963.10901
11.3777 -35.215698 -963.15002
12.0261 -35.258499 -963.28497
12.5757 -35.304401 -963.30701
13.1781 -35.339802 -963.362
13.8629 -35.4002 -963.57501
14.2268 -35.366501 -963.34802
14.8188 -35.437199 -963.487
15.399 -35.461498 -963.63702
15.9296 -35.491199 -963.68402
16.491199 -35.5215 -963.78302
17.141199 -35.572601 -963.96198
18.711901 -35.6217 -963.52399
19.270599 -35.667099 -963.677
20.0676 -35.760502 -964.27301
20.614599 -35.7948 -964.55798
21.245701 -35.8466 -964.88098
21.7787 -35.871899 -964.98901
22.3071 -35.866798 -965.05798
22.857401 -35.927799 -965.18701
23.561501 -35.9701 -965.49402
24.235399 -36.031101 -965.78699
24.9074 -36.088299 -966.04797
25.579 -36.112301 -966.33899
26.111099 -36.148399 -966.48297
26.838301 -36.1731 -966.90399
27.2668 -36.203499 -966.96503
28.048 -36.310001 -967.474
28.6497 -36.3568 -967.70001
30.063801 -36.4786 -968.47498
30.6329 -36.480301 -968.66498
31.3503 -36.530602 -969.08099
31.988899 -36.555199 -969.39001
32.807098 -36.645 -970.00098
33.608799 -36.747601 -970.63898
34.230499 -36.782799 -971.039
35.0355 -36.8475 -971.67999
35.584999 -36.874699 -972
36.184601 -36.903702 -972.28497
36.883701 -36.925201 -972.69598
37.624199 -36.991699 -973.263
38.469398 -37.106201 -974.01703
39.248501 -37.162701 -974.65399
-36.9734 -33.4739 -1010.31
-37.048801 -33.411201 -1007.65
-36.652 -33.3913 -1005.37
-36.811501 -33.271198 -1002.83
-36.430401 -33.250198 -1001.54
-36.278999 -33.190701 -999.89697
-35.815498 -33.212502 -998.79498
-35.6366 -33.1217 -997.66901
-35.193501 -33.144501 -996.81897
-34.3209 -33.178101 -994.30798
-34.144402 -33.116299 -992.96802
-33.7281 -33.138199 -992.31702
-33.334301 -33.113499 -991.69098
-32.923801 -33.091599 -991.16699
-32.563099 -33.070099 -990.39697
-32.0065 -33.128799 -989.88
-31.552099 -33.144699 -989.203
-31.086599 -33.155998 -988.45001
-31.070101 -33.0714 -987.08301
-30.615299 -33.076801 -986.36902
-30.118 -33.105598 -985.75403
-29.705799 -33.099098 -985.11401
-29.191799 -33.118999 -984.64398
-29.028099 -33.0882 -983.67102
-28.6597 -33.087002 -982.995
-28.1842 -33.111599 -982.466
-27.592199 -33.139301 -982.15698
-27.3431 -33.0952 -981.263
-26.592501 -33.180199 -981.14301
-26.235001 -33.1451 -980.44
-25.8801 -33.162399 -979.76898
-25.4949 -33.136101 -979.216
-25.008301 -33.1931 -978.797
-24.5888 -33.173801 -978.34399
-23.998199 -33.228401 -978.09998
-23.838301 -33.174099 -977.17999
-23.212299 -33.222198 -976.99902
-22.8283 -33.2267 -976.39001
-22.3375 -33.215599 -976.03802
-21.9144 -33.2435 -975.46802
-21.3799 -33.265999 -975.19299
-21.1168 -33.243999 -974.51099
-20.383101 -33.3064 -974.59698
-20.1082 -33.312801 -973.99402
-19.658001 -33.309299 -973.62701
-19.326401 -33.3046 -973.00299
-18.8925 -33.287899 -972.44897
-18.3825 -33.327499 -972.08801
-17.627199 -33.398701 -972.22498
-17.452499 -33.363098 -971.50299
-16.921301 -33.393398 -971.26599
-16.458099 -33.374802 -970.97101
-15.9094 -33.412201 -970.828
-15.4578 -33.446201 -970.55701
-14.9927 -33.465302 -970.27802
-14.4698 -33.492199 -970.04303
-14.0627 -33.499802 -969.63202
-13.6298 -33.500801 -969.24902
-13.1691 -33.516701 -968.927
-12.6116 -33.5476 -968.73901
-12.2099 -33.5564 -968.34497
-11.5904 -33.593102 -968.29602
-11.0789 -33.625099 -968.151
-10.5803 -33.654202 -967.98901
-10.2377 -33.631199 -967.57001
-9.6389198 -33.696098 -967.521
-9.4861498 -33.642502 -966.77802
-8.7827101 -33.7342 -966.85199
-8.2928495 -33.744701 -966.62
-7.7982202 -33.745998 -966.36798
-7.3666401 -33.742298 -966.07898
-6.8387499 -33.7771 -965.95599
-6.4106398 -33.779202 -965.71997
-5.5769701 -33.878899 -966.01801
-5.3694501 -33.872398 -965.35999
-5.0064101 -33.837299 -964.81598
-4.36761 -33.901299 -964.79602
-4.13556 -33.876099 -964.14899
-3.2718501 -33.9534 -964.50299
-2.77704 -33.981701 -964.30603
-2.4999399 -33.948502 -963.85797
-1.69806 -34.044899 -964.16803
-1.55243 -34.003502 -963.58301
-0.818542 -34.082699 -963.85199
-0.35461399 -34.1007 -963.72998
0.037353501 -34.098801 -963.49799
0.94036901 -34.193901 -963.94501
1.00378 -34.118198 -963.20599
1.92566 -34.227901 -963.66699
2.40131 -34.234901 -963.53003
2.7135 -34.212898 -963.14301
3.4699099 -34.300499 -963.45099
3.7515299 -34.273998 -963.10199
4.1793799 -34.280499 -962.95801
4.8134198 -34.334599 -963.099
5.35321 -34.361599 -963.10602
6.0216699 -34.420101 -963.23102
6.5798302 -34.476398 -963.211
7.2130699 -34.4972 -963.27502
7.69098 -34.534302 -963.13397
8.2544603 -34.5457 -963.09497
8.8377705 -34.587502 -963.17499
9.1950703 -34.5914 -962.92603
9.78827 -34.641899 -963.04401
10.2733 -34.680801 -962.98602
10.9309 -34.700001 -963.16498
11.4916 -34.753601 -963.20697
11.9135 -34.749199 -963.02802
12.483 -34.768398 -963.04498
13.1328 -34.818699 -963.15302
13.8011 -34.877998 -963.33301
14.3577 -34.9132 -963.41199
14.7747 -34.914299 -963.32501
15.2566 -34.9538 -963.31201
15.8936 -35.001202 -963.50201
16.539499 -35.0312 -963.71698
16.9426 -35.047298 -963.59198
17.306601 -34.997799 -963.34399
18.727301 -35.147099 -963.51099
19.3174 -35.200001 -963.73102
19.9454 -35.240601 -964.09601
20.593 -35.3022 -964.448
21.2691 -35.344799 -964.78601
21.757401 -35.363499 -964.84698
22.4468 -35.4188 -965.151
23.109699 -35.471001 -965.409
23.5896 -35.475601 -965.42297
24.2733 -35.549599 -965.711
24.9312 -35.574299 -965.94501
25.5856 -35.640999 -966.22198
26.116899 -35.650501 -966.36102
26.777201 -35.7216 -966.69397
27.5571 -35.7757 -967.19598
28.0417 -35.791 -967.32001
28.684099 -35.860199 -967.64099
29.317801 -35.8922 -967.91803
30.7097 -35.984699 -968.64502
31.339199 -36.012699 -968.909
31.994301 -36.0424 -969.25201
32.662201 -36.109501 -969.66998
33.440601 -36.2062 -970.27197
34.214802 -36.284801 -970.87201
34.885101 -36.344601 -971.32501
35.5452 -36.3493 -971.755
36.163601 -36.413502 -972.12598
36.920799 -36.473202 -972.65198
37.583099 -36.4907 -973.07898
38.4244 -36.5396 -973.78003
39.233898 -36.5919 -974.45801
-36.462299 -32.940601 -1005.55
-36.6675 -32.783798 -1003.11
-36.4202 -32.700401 -1001.58
-36.371799 -32.663502 -999.73199
-35.8507 -32.684299 -998.81598
-35.4828 -32.6511 -997.89001
-35.245399 -32.6096 -996.60797
-34.7355 -32.607498 -995.40601
-34.565701 -32.6101 -993.70203
-34.112099 -32.600601 -992.935
-33.720901 -32.621498 -992.25598
-33.3563 -32.601101 -991.62
-32.813801 -32.637501 -991.29303
-32.505901 -32.591702 -990.401
-32.211102 -32.580601 -989.46698
-31.770399 -32.601101 -988.70898
-31.2131 -32.6418 -988.15302
-30.9708 -32.582001 -987.09003
-30.498301 -32.598701 -986.44
-30.1311 -32.6068 -985.65698
-29.6817 -32.605499 -985.04901
-29.3283 -32.6171 -984.30103
-28.9307 -32.6133 -983.729
-28.349199 -32.647701 -983.38098
-27.946899 -32.659599 -982.73901
-27.6439 -32.608002 -981.95898
-27.1476 -32.649101 -981.46301
-26.7131 -32.668598 -980.862
-26.285 -32.6539 -980.23798
-25.9006 -32.668701 -979.65002
-25.565399 -32.646 -979.00897
-25.083401 -32.6455 -978.56
-24.764299 -32.643002 -977.94299
-24.141001 -32.7117 -977.74597
-23.7006 -32.6875 -977.24902
-23.3141 -32.695301 -976.755
-22.6404 -32.7491 -976.60101
-22.3069 -32.734901 -975.953
-21.9263 -32.7439 -975.367
-21.2936 -32.813702 -975.20203
-21.213699 -32.734501 -974.26001
-20.4076 -32.813099 -974.43201
-20.198299 -32.796101 -973.74597
-19.663601 -32.817699 -973.50299
-19.307899 -32.818901 -972.901
-18.8972 -32.7957 -972.33502
-18.337799 -32.826401 -972.05798
-17.851299 -32.839001 -971.76099
-17.4023 -32.869701 -971.45001
-16.801201 -32.8937 -971.354
-16.457199 -32.9034 -970.86499
-15.9769 -32.945 -970.638
-15.4112 -32.991501 -970.513
-15.0917 -32.972 -970.00098
-14.6127 -32.975601 -969.70599
-14.0281 -33.002998 -969.60797
-13.5546 -33.0168 -969.24701
-13.163 -33.042 -968.841
-12.6401 -33.070301 -968.586
-12.1893 -33.0746 -968.258
-11.6091 -33.095798 -968.15997
-11.1139 -33.1506 -968.00897
-10.7068 -33.166698 -967.70801
-10.224 -33.1628 -967.47803
-9.8243999 -33.163399 -967.112
-9.3042002 -33.180099 -966.961
-8.6762695 -33.251598 -966.91302
-8.1981201 -33.2467 -966.64203
-7.8272099 -33.2328 -966.19299
-7.2627001 -33.2854 -966.12097
-6.7157001 -33.323299 -966.02301
-6.4505601 -33.3055 -965.56799
-5.5961299 -33.410599 -965.901
-5.39569 -33.352798 -965.20697
-5.0495601 -33.3428 -964.66803
-4.36938 -33.417 -964.67499
-4.05371 -33.407299 -964.20203
-3.3857999 -33.459599 -964.26501
-2.9788799 -33.441898 -963.92297
-2.4576399 -33.4729 -963.83899
-1.8322099 -33.527302 -963.91199
-1.4621 -33.546398 -963.65503
-0.66803002 -33.613899 -963.995
-0.33209199 -33.621498 -963.68298
0.108704 -33.618198 -963.50897
0.81542999 -33.6908 -963.69098
1.1411099 -33.6726 -963.31702
1.87219 -33.7239 -963.54901
2.4017301 -33.756599 -963.49298
2.5764799 -33.710602 -962.91498
3.56042 -33.8386 -963.49298
3.9656401 -33.830502 -963.31897
4.4821801 -33.867599 -963.31097
4.9420199 -33.8923 -963.203
5.3917799 -33.8745 -963.02301
5.9584999 -33.920799 -963.03198
6.6521602 -33.989101 -963.19501
7.00385 -33.978802 -962.85797
7.6479502 -34.033001 -962.95203
8.1177397 -34.034801 -962.78802
8.8445997 -34.109501 -963.07202
9.32971 -34.146801 -963.03198
9.66675 -34.130501 -962.76001
10.2313 -34.174702 -962.81
10.713 -34.186699 -962.74402
11.4594 -34.248199 -963.04901
11.7739 -34.2225 -962.72198
12.3812 -34.261398 -962.76501
13.0047 -34.291698 -962.87402
13.644 -34.366199 -962.99902
14.1851 -34.396099 -963.08398
14.8847 -34.458599 -963.36603
15.297 -34.449299 -963.22601
15.872 -34.506699 -963.35101
16.498501 -34.5331 -963.52301
17.0842 -34.561001 -963.66699
17.467501 -34.578899 -963.46301
18.287701 -34.636501 -963.78101
18.831699 -34.677299 -963.716
19.334499 -34.7257 -963.77399
20.001801 -34.769402 -964.12097
20.5688 -34.797199 -964.30402
21.1068 -34.835201 -964.44598
21.7507 -34.870399 -964.711
22.2831 -34.909401 -964.79401
22.972099 -34.970501 -965.10498
23.615601 -35.013599 -965.33899
24.2328 -35.044201 -965.52301
24.924601 -35.098301 -965.82098
25.4289 -35.112598 -965.86499
26.121201 -35.151699 -966.21002
26.8314 -35.227001 -966.60699
27.3304 -35.255299 -966.75201
27.933201 -35.274101 -967.013
28.762199 -35.353199 -967.586
29.3529 -35.3918 -967.84497
30.0154 -35.433399 -968.19098
30.6793 -35.4911 -968.49799
31.2645 -35.526299 -968.685
31.996 -35.593601 -969.14099
32.717999 -35.6455 -969.63
33.371101 -35.688499 -970.05798
34.029701 -35.746498 -970.51703
34.7892 -35.801601 -971.07898
35.488899 -35.857899 -971.53802
36.162201 -35.922798 -971.98401
36.8395 -35.951 -972.42401
37.643501 -36.013901 -973.02802
38.358299 -36.0732 -973.547
39.231602 -36.139999 -974.31201
-37.099098 -32.400398 -1009.7
-36.7673 -32.27 -1005.07
-36.168301 -32.328701 -1004.05
-36.7211 -32.162498 -1001.26
-36.395199 -32.141201 -999.96698
-35.736301 -32.170799 -999.05298
-35.527401 -32.088299 -997.729
-34.9286 -32.155499 -997.02899
-35.0923 -32.077202 -994.508
-34.661201 -32.060799 -993.46198
-34.165798 -32.078602 -992.78302
-33.660099 -32.0975 -992.33301
-33.276402 -32.080101 -991.75702
-32.942001 -32.057499 -990.98901
-32.7132 -32.020599 -989.95099
-32.086102 -32.084599 -989.51001
-31.769199 -32.061501 -988.599
-31.315201 -32.053398 -987.89899
-30.8706 -32.0755 -987.13501
-30.519699 -32.067402 -986.27698
-30.1945 -32.032001 -985.37402
-29.6728 -32.050301 -984.896
-29.195 -32.1035 -984.35199
-28.9758 -32.056801 -983.50702
-28.4252 -32.113602 -983.125
-28.119301 -32.071301 -982.29901
-27.6035 -32.092499 -981.89099
-27.1917 -32.124001 -981.24298
-26.7894 -32.0937 -980.58899
-26.2787 -32.125401 -980.14899
-25.8542 -32.128101 -979.565
-25.6 -32.106499 -978.83099
-25.251499 -32.0802 -978.172
-24.608 -32.148899 -978.091
-24.2167 -32.163799 -977.53802
-23.665701 -32.193901 -977.24597
-23.377399 -32.138599 -976.52399
-22.6917 -32.218102 -976.40997
-22.211901 -32.239899 -975.98499
-21.7449 -32.248501 -975.53699
-21.548401 -32.2075 -974.68103
-20.943899 -32.2687 -974.55701
-20.566 -32.244801 -974.04797
-20.0909 -32.312302 -973.76801
-19.652 -32.2887 -973.39301
-19.121201 -32.330502 -973.11102
-18.871599 -32.265598 -972.31799
-18.274401 -32.320599 -972.03101
-17.771799 -32.3382 -971.77301
-17.292801 -32.371899 -971.52899
-16.885401 -32.392799 -971.138
-16.5009 -32.372101 -970.70599
-15.966 -32.4048 -970.50702
-15.5183 -32.440201 -970.25299
-14.9973 -32.434601 -969.97998
-14.572 -32.474701 -969.65198
-14.0489 -32.4977 -969.453
-13.4578 -32.543098 -969.315
-13.1675 -32.5438 -968.72498
-12.6407 -32.558701 -968.461
-12.1707 -32.551102 -968.164
-11.728 -32.5783 -967.89697
-11.1531 -32.609798 -967.83301
-10.7522 -32.604198 -967.50702
-10.2379 -32.66 -967.36902
-9.7567101 -32.6852 -967.12701
-9.2598896 -32.669498 -966.88397
-8.8028002 -32.710098 -966.61298
-8.2979698 -32.7174 -966.38599
-7.77948 -32.755798 -966.17297
-7.3102398 -32.7411 -965.91699
-6.8166499 -32.7701 -965.75403
-6.3702998 -32.8055 -965.55402
-5.4684401 -32.900101 -965.96399
-5.3825698 -32.846401 -965.14301
-5.0809302 -32.8423 -964.51898
-4.5914302 -32.859901 -964.22498
-4.0514498 -32.8904 -964.11603
-3.18134 -32.977402 -964.46301
-2.9535501 -32.940399 -963.89502
-2.4584401 -32.978802 -963.75
-1.7226599 -33.030701 -964.00098
-1.49646 -33.0154 -963.52899
-0.76080298 -33.0891 -963.81598
-0.42016599 -33.087502 -963.50098
0.18585201 -33.120998 -963.58197
0.85339397 -33.1721 -963.66803
0.97485399 -33.117901 -963.02698
2.0262499 -33.2202 -963.68597
2.4219999 -33.230999 -963.42798
2.7307701 -33.223099 -963.05902
3.57092 -33.2999 -963.42297
3.8889799 -33.2924 -963.112
4.3695698 -33.315498 -963.034
4.9935298 -33.370201 -963.13898
5.5208101 -33.424999 -963.10699
6.0429101 -33.445 -963.026
6.14746 -33.3922 -962.36902
7.2426801 -33.5158 -963.07001
7.6861 -33.5312 -962.88599
8.1757803 -33.532299 -962.776
8.7931499 -33.583 -962.875
9.2298002 -33.579399 -962.73798
9.6621103 -33.627998 -962.65503
10.1531 -33.633598 -962.62598
10.72 -33.657101 -962.66498
11.4149 -33.699299 -962.83197
11.9473 -33.751099 -962.80499
12.4777 -33.775902 -962.77698
13.0275 -33.809101 -962.78998
13.6481 -33.875 -962.92297
14.205 -33.8806 -962.98297
14.7319 -33.9034 -963.00299
15.2849 -33.937 -963.08502
15.9147 -33.987999 -963.28003
16.5343 -34.025398 -963.45203
17.163401 -34.071999 -963.68799
17.6957 -34.098301 -963.67297
18.219999 -34.115799 -963.664
18.8419 -34.1595 -963.76703
19.461399 -34.2286 -963.93799
20.0944 -34.261501 -964.16803
20.570601 -34.2915 -964.19897
21.1614 -34.3139 -964.39899
21.7645 -34.354 -964.58801
22.3857 -34.3941 -964.80298
23.0107 -34.454498 -965.03497
23.551001 -34.466099 -965.12598
24.1786 -34.506699 -965.32202
24.8412 -34.563499 -965.58002
25.505899 -34.6241 -965.84802
26.116899 -34.6604 -966.09399
26.743799 -34.698502 -966.367
27.355801 -34.745499 -966.646
27.8571 -34.761101 -966.76099
28.5042 -34.822201 -967.08002
29.2631 -34.882801 -967.55798
30.0665 -34.929199 -968.07501
30.707701 -34.956699 -968.38098
31.3291 -34.996498 -968.68201
31.993299 -35.0527 -969.03198
32.648998 -35.103901 -969.39801
33.3755 -35.179001 -969.91101
33.945999 -35.202499 -970.21301
34.6422 -35.224899 -970.69501
35.463501 -35.3162 -971.34998
36.1539 -35.353901 -971.815
36.8839 -35.4198 -972.34302
37.617001 -35.4841 -972.867
38.365601 -35.531799 -973.41302
39.112 -35.601799 -974.00403
-37.317699 -31.827299 -1009.36
-37.5126 -31.6628 -1006.62
-36.543201 -31.796301 -1005.61
-36.276199 -31.7614 -1004
-36.186298 -31.690001 -1002.12
-36.288898 -31.632601 -1000.07
-35.6278 -31.652599 -999.21002
-35.494801 -31.5875 -997.69897
-34.8559 -31.625 -997.01099
-34.730999 -31.588699 -994.99799
-34.701 -31.5149 -993.27899
-34.235199 -31.525299 -992.60797
-33.644299 -31.549 -992.349
-33.234901 -31.5495 -991.729
-33.023499 -31.5086 -990.75098
-32.587101 -31.506399 -990.06598
-32.060001 -31.545 -989.40198
-31.8417 -31.5086 -988.32501
-31.3388 -31.536301 -987.70801
-30.9277 -31.539101 -986.93903
-30.6122 -31.535601 -986.05701
-30.352501 -31.487801 -985.013
-29.6359 -31.511499 -984.60498
-29.175501 -31.5485 -984.00702
-28.947901 -31.5317 -983.28601
-28.314501 -31.5979 -983.091
-27.945101 -31.599899 -982.46301
-27.6721 -31.581699 -981.67102
-27.117701 -31.601801 -981.245
-26.744101 -31.594999 -980.57397
-26.4084 -31.574301 -979.79199
-25.9807 -31.5895 -979.25702
-25.5588 -31.5994 -978.73798
-25.0835 -31.606701 -978.33002
-24.7397 -31.631001 -977.77002
-24.2388 -31.627701 -977.38397
-23.7719 -31.6513 -976.93799
-23.354099 -31.6506 -976.46002
-22.9594 -31.635599 -975.862
-22.5084 -31.6591 -975.39099
-21.9512 -31.6998 -975.09802
-21.4683 -31.708099 -974.69397
-21.166599 -31.709101 -974.10498
-20.5368 -31.734501 -974.01202
-20.182699 -31.756001 -973.54401
-19.636499 -31.765699 -973.29102
-19.2829 -31.780701 -972.758
-18.9457 -31.768 -972.07501
-18.3015 -31.84 -971.86798
-17.677799 -31.855499 -971.784
-17.2623 -31.865801 -971.44598
-16.8806 -31.886499 -971.03198
-16.3953 -31.909201 -970.75201
-15.9449 -31.905701 -970.43298
-15.5925 -31.887199 -970.013
-14.8964 -31.9561 -970.078
-14.5427 -31.9736 -969.63501
-14.0703 -31.99 -969.30902
-13.6908 -31.969601 -968.87402
-13.1092 -31.991899 -968.69501
-12.5374 -32.058998 -968.505
-12.1435 -32.0527 -968.10101
-11.7296 -32.049999 -967.79498
-11.1253 -32.088501 -967.72601
-10.7487 -32.106201 -967.40802
-10.2421 -32.140598 -967.23499
-9.6829796 -32.1586 -967.10498
-9.2802095 -32.169701 -966.76599
-8.8198204 -32.188099 -966.46399
-8.4476299 -32.174599 -966.06201
-7.7731299 -32.236 -966.07501
-7.2326002 -32.252602 -965.90698
-6.86621 -32.250999 -965.578
-6.2263198 -32.307201 -965.64301
-5.6915898 -32.349899 -965.57098
-5.35602 -32.338402 -965.099
-4.8836699 -32.363998 -964.711
-4.5531001 -32.3442 -964.22699
-4.0325899 -32.385399 -964.11298
-3.1134 -32.4762 -964.44598
-2.9491 -32.439701 -963.85901
-2.6179199 -32.436001 -963.51202
-1.81128 -32.509201 -963.80402
-1.51068 -32.5093 -963.49799
-0.72143602 -32.5798 -963.80701
-0.24615499 -32.6092 -963.711
-0.171753 -32.548302 -963.01898
0.913818 -32.6567 -963.67798
0.96850598 -32.596199 -962.95203
1.87396 -32.7057 -963.36499
2.3747599 -32.700401 -963.22498
2.7066 -32.704201 -962.86603
3.2802701 -32.740101 -962.888
3.9344499 -32.807201 -963.06
4.43817 -32.843201 -963.02698
4.88129 -32.8638 -962.88397
5.2262001 -32.830399 -962.573
5.9205899 -32.9021 -962.75
6.4422002 -32.913601 -962.65399
6.9879198 -32.939201 -962.59698
7.6918302 -33.029499 -962.76898
8.2385302 -33.0462 -962.72101
8.64398 -33.042099 -962.547
9.2788696 -33.0811 -962.69702
9.7483501 -33.123299 -962.67603
10.2698 -33.145901 -962.67798
10.6748 -33.145901 -962.46399
11.3231 -33.194401 -962.57202
11.9755 -33.226398 -962.72198
12.4397 -33.282398 -962.61499
13.1097 -33.298 -962.77698
13.6733 -33.3395 -962.83002
14.282 -33.384201 -962.96399
14.7869 -33.398499 -962.94897
15.3828 -33.444 -963.10699
15.9122 -33.465599 -963.15802
16.4615 -33.507401 -963.242
16.922501 -33.534401 -963.23199
17.5312 -33.5564 -963.30298
18.158701 -33.5947 -963.48297
18.815901 -33.636002 -963.64398
19.3542 -33.668999 -963.68201
19.8622 -33.703999 -963.74103
20.507 -33.753899 -963.99701
21.212601 -33.823898 -964.35999
21.7833 -33.812 -964.49298
22.376301 -33.908298 -964.65997
22.8701 -33.891201 -964.67902
23.572901 -33.947899 -965.01801
24.1161 -33.999901 -965.14301
24.7887 -34.044399 -965.39899
25.4221 -34.0783 -965.62799
26.2299 -34.147499 -966.13397
26.7456 -34.165298 -966.24902
27.300501 -34.213699 -966.45697
27.8503 -34.236698 -966.63397
28.6187 -34.297298 -967.09399
29.236 -34.3339 -967.36298
29.911301 -34.389198 -967.711
30.512899 -34.407299 -967.95697
31.2897 -34.4631 -968.46399
32.073601 -34.535301 -969.021
32.616699 -34.584301 -969.276
33.284302 -34.626701 -969.65002
33.871601 -34.6576 -969.95502
34.6264 -34.746399 -970.51599
35.396099 -34.8316 -971.09302
36.1264 -34.849998 -971.604
36.905899 -34.902199 -972.18903
37.5396 -34.933102 -972.59998
38.269402 -34.994801 -973.14398
38.921101 -35.051102 -973.59198
39.659401 -35.125198 -974.203
-36.962502 -31.2983 -1009.83
-37.540401 -31.0569 -1006.43
-36.459801 -31.2596 -1005.5
-36.435299 -31.1968 -1003.5
-36.256302 -31.133499 -1001.85
-36.457802 -30.998699 -999.60999
-35.845501 -31.0324 -998.75403
-35.448002 -31.0709 -997.59601
-35.2155 -31.0191 -996.24597
-34.6586 -31.071199 -994.94897
-34.597401 -31.009199 -993.41199
-34.058201 -31.0229 -992.88599
-33.588299 -31.023199 -992.41998
-33.272598 -30.9918 -991.62701
-32.857201 -30.981701 -990.91199
-32.6478 -30.9415 -989.82397
-32.2099 -30.9839 -989.10901
-31.65 -31.003201 -988.547
-31.5287 -30.9596 -987.27399
-30.7062 -31.063101 -987.20697
-30.334999 -31.0392 -986.29999
-30.175699 -30.9625 -985.047
-29.957399 -30.965099 -983.711
-29.325199 -31.011999 -983.409
-28.972401 -31.0063 -982.91803
-28.5917 -30.9758 -982.45898
-28.162001 -31.0242 -981.97198
-27.6415 -31.0427 -981.56201
-27.055401 -31.082399 -981.21002
-26.733601 -31.065201 -980.47803
-26.334299 -31.056499 -979.81702
-25.8652 -31.075001 -979.31097
-25.319799 -31.0923 -979.03601
-25.0002 -31.084 -978.37402
-24.806601 -31.058599 -977.53302
-24.192101 -31.1033 -977.35999
-23.807301 -31.111401 -976.797
-23.239799 -31.122601 -976.51501
-22.9172 -31.1339 -975.81799
-22.3981 -31.149 -975.45801
-21.9084 -31.1681 -975.06799
-21.456301 -31.175699 -974.59802
-21.139601 -31.1591 -974.02002
-20.4235 -31.236099 -974.06201
-20.2111 -31.215401 -973.36902
-19.7278 -31.224701 -973.04797
-19.1964 -31.278099 -972.742
-18.860201 -31.2542 -972.091
-18.259501 -31.307699 -971.83002
-17.7155 -31.3186 -971.62903
-17.334499 -31.317801 -971.22198
-16.839399 -31.3414 -970.966
-16.437201 -31.341499 -970.57098
-15.9551 -31.365101 -970.30499
-15.5441 -31.3813 -969.98297
-15.1378 -31.3901 -969.60699
-14.5859 -31.435101 -969.41901
-14.337 -31.388901 -968.784
-13.6137 -31.4814 -968.84802
-13.0892 -31.497101 -968.62
-12.4935 -31.518101 -968.453
-12.0991 -31.514799 -968.065
-11.6387 -31.5515 -967.82202
-11.1558 -31.576099 -967.59601
-10.6591 -31.5802 -967.43201
-10.3239 -31.574301 -966.98798
-9.7595797 -31.619699 -966.90198
-9.1782799 -31.663 -966.81299
-8.7645302 -31.6569 -966.44
-8.3928204 -31.6514 -966.03699
-7.86163 -31.709299 -965.828
-7.35919 -31.7297 -965.65698
-6.77356 -31.743 -965.60101
-6.1560702 -31.809099 -965.63501
-5.8048701 -31.8265 -965.29797
-5.2617202 -31.8288 -965.20099
-4.9486098 -31.846201 -964.69702
-4.12115 -31.940599 -964.875
-2.89996 -32 -964.72101
-2.86603 -31.928499 -963.90802
-2.76086 -31.884701 -963.26501
-1.68011 -31.9911 -963.935
-1.45636 -31.9615 -963.495
-0.63775599 -32.064301 -963.86902
-0.32806399 -32.065701 -963.534
-0.00708008 -32.035599 -963.15503
0.798096 -32.1339 -963.46301
0.99896199 -32.069599 -962.90002
1.80774 -32.1637 -963.172
2.3506501 -32.182499 -963.08899
2.68292 -32.161301 -962.71899
3.27191 -32.2253 -962.76898
3.7743499 -32.256699 -962.74103
4.4516001 -32.319698 -962.92499
4.7582402 -32.284302 -962.547
5.3759198 -32.344002 -962.62299
5.97998 -32.396301 -962.703
6.4516001 -32.408298 -962.53003
6.9671602 -32.430099 -962.42902
7.5912499 -32.467098 -962.48798
8.0949697 -32.5033 -962.39398
8.61304 -32.515099 -962.36298
9.27911 -32.580898 -962.60101
9.7904701 -32.610401 -962.61499
10.3109 -32.625 -962.586
10.8759 -32.670601 -962.60797
11.3074 -32.657501 -962.44501
11.8925 -32.682201 -962.5
12.4355 -32.753601 -962.50201
13.0639 -32.783901 -962.63898
13.5818 -32.8134 -962.60901
14.0707 -32.813499 -962.51099
14.7472 -32.868599 -962.755
15.331 -32.916901 -962.91803
15.7866 -32.936401 -962.87701
16.3916 -32.976299 -963.04102
17.075701 -33.026901 -963.31598
17.525299 -33.020802 -963.16498
18.207701 -33.093601 -963.42499
18.809 -33.136002 -963.54199
19.346901 -33.121201 -963.55499
19.854099 -33.1838 -963.612
20.5753 -33.2327 -963.96399
21.194201 -33.281101 -964.21301
21.6357 -33.294899 -964.17499
22.2927 -33.352699 -964.414
22.886499 -33.3689 -964.57098
23.4942 -33.434399 -964.77802
24.1597 -33.472099 -965.034
24.8596 -33.498901 -965.34998
25.4473 -33.5443 -965.53699
26.0142 -33.577 -965.703
26.715099 -33.628201 -966.08899
27.2813 -33.6759 -966.31299
27.927099 -33.706001 -966.63397
28.6106 -33.765701 -966.987
29.046101 -33.792198 -966.99103
29.898701 -33.865601 -967.573
30.4587 -33.891499 -967.73602
31.337299 -33.976601 -968.38501
32.090401 -34.042702 -968.88202
32.658901 -34.032299 -969.15601
33.362598 -34.098499 -969.66699
33.982201 -34.163101 -970.02899
34.5243 -34.173801 -970.245
35.188999 -34.2309 -970.64398
35.9445 -34.2738 -971.17902
36.717701 -34.363998 -971.784
37.440601 -34.4039 -972.32001
38.271801 -34.469002 -972.979
39.063202 -34.547401 -973.64099
-36.602798 -30.736 -1010.31
-37.359501 -30.579901 -1006.42
-36.050301 -30.741301 -1006.18
-36.7542 -30.5221 -1002.84
-36.397999 -30.507299 -1001.54
-35.958199 -30.534401 -1000.33
-35.769699 -30.4606 -998.70697
-35.6292 -30.429701 -997.14801
-35.109402 -30.4739 -996.258
-35.0854 -30.3892 -994.11798
-34.460899 -30.4363 -993.52802
-33.967999 -30.4424 -993.01398
-33.698799 -30.3694 -992.20203
-33.2374 -30.3862 -991.56403
-33.0424 -30.3606 -990.47498
-32.533298 -30.434 -989.935
-32.370499 -30.371599 -988.66699
-31.827101 -30.3873 -988.15198
-31.366899 -30.404499 -987.40997
-30.921301 -30.415199 -986.71503
-30.523701 -30.437401 -985.93201
-30.432301 -30.334999 -984.349
-29.9163 -30.3857 -983.526
-29.5511 -30.3808 -982.78998
-29.0145 -30.3983 -982.51501
-28.5837 -30.3864 -982.10101
-28.054899 -30.446301 -981.901
-27.7953 -30.4503 -981.15997
-27.384501 -30.425301 -980.53198
-26.619699 -30.506701 -980.51801
-26.2966 -30.4984 -979.76703
-25.767 -30.499701 -979.341
-25.3629 -30.532301 -978.84497
-25.071301 -30.524401 -978.117
-24.612499 -30.531601 -977.73999
-24.2286 -30.515699 -977.17401
-23.7117 -30.5331 -976.828
-23.5084 -30.503901 -975.95001
-22.856501 -30.577101 -975.82001
-22.393999 -30.5744 -975.37299
-21.9305 -30.591801 -974.91998
-21.509501 -30.6085 -974.39203
-21.1327 -30.5912 -973.91101
-20.552601 -30.651699 -973.74103
-20.159901 -30.6632 -973.33899
-19.677799 -30.6712 -973.00098
-19.1542 -30.712099 -972.68903
-18.8964 -30.690001 -971.909
-18.382299 -30.693399 -971.48901
-17.7309 -30.7577 -971.50403
-17.204599 -30.805201 -971.30298
-16.9774 -30.7549 -970.62402
-16.389 -30.7812 -970.53998
-15.915 -30.810101 -970.25702
-15.4304 -30.827999 -970.03302
-14.9847 -30.8349 -969.69598
-14.608 -30.8431 -969.26001
-14.1806 -30.869699 -968.89801
-13.7337 -30.871799 -968.55103
-13.1112 -30.923201 -968.461
-12.8271 -30.893101 -967.83197
-12.0372 -30.9639 -968.04602
-11.6772 -30.961399 -967.61902
-11.2293 -30.9835 -967.341
-10.6378 -31.013901 -967.31897
-10.3223 -31.013599 -966.85999
-9.81567 -31.0368 -966.69397
-9.3949604 -31.047899 -966.367
-8.8784199 -31.0805 -966.16101
-8.3224497 -31.1022 -965.99799
-7.8520498 -31.1285 -965.70697
-7.34167 -31.1509 -965.52698
-6.7377901 -31.191401 -965.53998
-6.2666001 -31.231501 -965.33398
-5.88025 -31.220501 -965.07501
-5.3948998 -31.247801 -964.91302
-4.90625 -31.2449 -964.74597
-3.9718599 -31.3599 -965.06598
-4.1118798 -31.2551 -963.96002
-3.20874 -31.3342 -964.245
-2.96735 -31.3454 -963.67603
-2.54211 -31.3347 -963.453
-1.8256201 -31.396 -963.63397
-1.48932 -31.3976 -963.32202
-0.873779 -31.4445 -963.39899
-0.37292501 -31.500401 -963.30298
0.053222701 -31.4662 -963.03699
0.62792999 -31.5308 -963.034
1.0507801 -31.499701 -962.74298
1.73785 -31.584101 -962.90399
2.17383 -31.582001 -962.66101
2.7572 -31.633499 -962.67102
3.4584999 -31.686399 -962.90802
3.8064001 -31.6728 -962.617
4.2802701 -31.704599 -962.50598
4.91046 -31.7691 -962.63202
5.33673 -31.766001 -962.453
5.91675 -31.7997 -962.44598
6.375 -31.826401 -962.29303
7.1090698 -31.8948 -962.51501
7.5669599 -31.9198 -962.336
8.12537 -31.9391 -962.32501
8.4715004 -31.9233 -962.04797
9.1710196 -31.9827 -962.31598
9.6638803 -32.0098 -962.28497
10.3315 -32.051399 -962.46503
10.7294 -32.0737 -962.26501
11.3015 -32.094398 -962.32202
11.8427 -32.142899 -962.289
12.4748 -32.192699 -962.461
13.0708 -32.2169 -962.53302
13.6578 -32.246601 -962.55603
14.209 -32.279499 -962.59601
14.6857 -32.293098 -962.54602
15.1051 -32.298 -962.461
15.8412 -32.376999 -962.80603
16.3612 -32.388302 -962.85999
17.031401 -32.445 -963.10303
17.575701 -32.476501 -963.10498
18.2019 -32.5084 -963.26001
18.7209 -32.5257 -963.258
19.366301 -32.5891 -963.45697
19.9566 -32.616001 -963.61298
20.4792 -32.643902 -963.69501
21.013901 -32.672699 -963.83002
21.7213 -32.7145 -964.17798
22.409401 -32.775101 -964.48102
22.8873 -32.824799 -964.46802
23.437 -32.866901 -964.56097
24.1304 -32.9109 -964.86499
24.8102 -32.946201 -965.13702
25.388901 -32.978298 -965.29901
26.0749 -33.009201 -965.62598
26.5818 -33.0406 -965.74402
27.1779 -33.071098 -965.99402
27.9016 -33.1488 -966.41498
28.5746 -33.203201 -966.79199
29.144899 -33.205898 -967.00897
29.826599 -33.261501 -967.39001
30.554701 -33.335701 -967.789
31.0928 -33.358799 -967.90198
31.9079 -33.429401 -968.45898
32.621601 -33.498402 -968.948
33.217201 -33.5089 -969.27301
33.770699 -33.522099 -969.55798
34.461498 -33.582802 -970.02899
35.263699 -33.6502 -970.625
35.917301 -33.699902 -971.01398
36.622002 -33.751999 -971.48901
37.611698 -33.841099 -972.39203
38.251202 -33.861401 -972.86499
38.9692 -33.9002 -973.42102
-36.795502 -30.0882 -1007.98
-36.353298 -30.1119 -1005.6
-36.3265 -30.020399 -1003.42
-36.324902 -29.951401 -1001.47
-35.9543 -29.9375 -1000.26
-35.893799 -29.8869 -998.284
-35.375401 -29.9203 -997.41498
-35.370098 -29.828899 -995.69202
-34.826698 -29.858999 -994.513
-34.3321 -29.877501 -993.71802
-33.897701 -29.8706 -993.133
-33.7276 -29.800699 -992.11401
-33.382301 -29.815701 -991.22302
-32.842899 -29.8507 -990.724
-32.637901 -29.810499 -989.58801
-32.118999 -29.8377 -988.96198
-31.7108 -29.865 -988.185
-31.240601 -29.858801 -987.47302
-30.879101 -29.827 -986.633
-30.504999 -29.840401 -985.763
-30.137899 -29.8559 -984.64502
-29.682699 -29.841801 -983.77002
-29.453699 -29.7981 -982.78802
-29.0746 -29.805599 -982.16803
-28.588499 -29.8734 -981.81403
-28.094601 -29.8608 -981.508
-27.632601 -29.877899 -981.203
-27.379299 -29.8703 -980.37201
-26.687099 -29.933701 -980.26898
-26.3981 -29.911301 -979.46997
-25.9097 -29.9156 -978.99701
-25.628201 -29.9006 -978.323
-24.985701 -29.9807 -978.133
-24.856199 -29.892401 -977.20599
-24.152 -29.975599 -977.16101
-23.759399 -29.971001 -976.625
-23.353001 -30.008699 -976.11401
-22.693501 -30.030899 -975.92902
-22.2812 -30.030199 -975.41199
-22.0117 -30.027399 -974.677
-21.3771 -30.0588 -974.52197
-20.9998 -30.0739 -974.00897
-20.7209 -30.0303 -973.35999
-20.1693 -30.068501 -973.20801
-19.781099 -30.0893 -972.71198
-19.260401 -30.0958 -972.35602
-18.84 -30.1208 -971.862
-18.4758 -30.1099 -971.245
-17.748501 -30.1712 -971.33899
-17.198799 -30.215599 -971.19897
-17.114 -30.1639 -970.31403
-16.4055 -30.223 -970.396
-15.9169 -30.247601 -970.14697
-15.4528 -30.260599 -969.88
-15.0832 -30.2705 -969.45697
-14.4896 -30.3193 -969.30603
-14.0323 -30.320101 -969.00702
-13.5749 -30.313801 -968.64398
-13.0634 -30.346201 -968.414
-12.6276 -30.375799 -968.02197
-12.2709 -30.3701 -967.56097
-11.6284 -30.423401 -967.59497
-11.2238 -30.4167 -967.23602
-10.7453 -30.4548 -967.078
-10.3652 -30.4629 -966.70599
-9.6996498 -30.509199 -966.74103
-9.3538799 -30.492701 -966.30902
-8.9016705 -30.512899 -966.01801
-8.3687696 -30.5597 -965.82397
-7.8549199 -30.583099 -965.59302
-7.2392001 -30.6143 -965.56201
-6.6792598 -30.6523 -965.51398
-6.2701998 -30.642799 -965.224
-5.9741201 -30.6343 -964.82501
-5.5205102 -30.638901 -964.63098
-4.9858398 -30.667101 -964.48199
-4.14539 -30.7614 -964.71301
-3.8894 -30.722401 -964.086
-3.40973 -30.7535 -963.87201
-3.0246 -30.7675 -963.495
-2.5139201 -30.7659 -963.35602
-1.83594 -30.8412 -963.492
-1.34735 -30.8675 -963.383
-0.76324499 -30.9212 -963.401
-0.358215 -30.9223 -963.18103
0.085327096 -30.948799 -962.95203
0.775208 -30.9981 -963.09198
1.0039099 -30.9786 -962.578
1.73376 -31.0252 -962.77301
2.25842 -31.037901 -962.67798
2.84167 -31.088499 -962.71802
3.5409501 -31.157101 -962.875
3.8937399 -31.1395 -962.58301
4.28229 -31.1663 -962.40503
4.7852802 -31.1695 -962.33301
5.3546801 -31.221399 -962.33899
5.8888502 -31.270599 -962.30902
6.4504399 -31.283899 -962.258
6.9409199 -31.3039 -962.14203
7.5185499 -31.3158 -962.12799
8.0945396 -31.3703 -962.164
8.7515297 -31.42 -962.349
9.1663799 -31.3957 -962.18701
9.7062397 -31.4589 -962.211
10.304 -31.4907 -962.30798
10.8618 -31.5303 -962.33301
11.3059 -31.5399 -962.20398
11.8646 -31.5711 -962.216
12.5126 -31.619101 -962.41901
13.035 -31.620001 -962.31
13.6854 -31.672501 -962.46399
14.3362 -31.735701 -962.66998
14.5161 -31.7069 -962.20599
15.1739 -31.7428 -962.435
15.7822 -31.786501 -962.59998
16.3085 -31.8181 -962.65997
16.8936 -31.8657 -962.78101
17.472401 -31.884701 -962.83398
18.063299 -31.903999 -962.95697
18.739599 -31.9827 -963.15601
19.365999 -32.034698 -963.35101
19.9977 -32.071999 -963.55701
20.445101 -32.064999 -963.51001
21.1068 -32.123798 -963.80798
21.635401 -32.142502 -963.90002
22.3519 -32.211601 -964.276
22.9631 -32.2486 -964.461
23.5574 -32.270802 -964.59003
24.107201 -32.322701 -964.698
24.672701 -32.328499 -964.81097
25.2994 -32.370399 -965.04199
26.0182 -32.450699 -965.44
26.6464 -32.487999 -965.70099
27.2474 -32.526402 -965.96899
27.814899 -32.574902 -966.16498
28.433001 -32.596699 -966.41699
29.1348 -32.6604 -966.81
29.9879 -32.736198 -967.41901
30.563801 -32.754902 -967.66699
31.2139 -32.7794 -967.97198
31.9149 -32.834499 -968.38202
32.516602 -32.872299 -968.698
33.317299 -32.950401 -969.297
33.927399 -33.015999 -969.63397
34.462502 -33.0224 -969.85999
35.124001 -33.044701 -970.26501
35.907799 -33.127899 -970.85999
36.768799 -33.194302 -971.56
37.704102 -33.271198 -972.41901
38.250702 -33.281898 -972.815
44.668999 -33.885399 -979.40503
-36.811298 -29.541 -1010.74
-36.540501 -29.4655 -1005.06
-36.468102 -29.4324 -1002.98
-36.501598 -29.3304 -1001.07
-36.2038 -29.3102 -999.59003
-35.477699 -29.360701 -998.90698
-35.298698 -29.3176 -997.38
-35.254799 -29.255899 -995.638
-34.900299 -29.2675 -994.30701
-34.441299 -29.2621 -993.47302
-34.029301 -29.228399 -992.85101
-33.5098 -29.2437 -992.33899
-33.259399 -29.2391 -991.349
-32.901299 -29.248199 -990.53302
-32.5867 -29.276199 -989.56799
-32.205898 -29.232 -988.69598
-31.789101 -29.2619 -987.914
-31.3134 -29.260401 -987.19598
-30.912001 -29.239401 -986.43799
-30.6436 -29.226101 -985.40601
-29.9687 -29.3256 -984.93903
-29.7999 -29.2745 -983.55701
-29.474001 -29.2528 -982.68799
-29.053301 -29.227301 -981.98999
-28.645 -29.257799 -981.48798
-28.1786 -29.2787 -981.07599
-27.7087 -29.296 -980.81
-27.307899 -29.2885 -980.31097
-26.810499 -29.3125 -979.91998
-26.3276 -29.335199 -979.42999
-25.8328 -29.3365 -978.98798
-25.302999 -29.398399 -978.67499
-25.0898 -29.344299 -977.84003
-24.6208 -29.355499 -977.46698
-24.1436 -29.3885 -977.08002
-23.6532 -29.4109 -976.66602
-23.3953 -29.4041 -975.94098
-22.681801 -29.4681 -975.84003
-22.4638 -29.4184 -975.021
-22.022301 -29.415001 -974.521
-21.169201 -29.520399 -974.69202
-21.042801 -29.4762 -973.81598
-20.5783 -29.482401 -973.461
-20.150499 -29.4977 -973.11102
-19.691601 -29.515301 -972.73999
-19.202499 -29.551399 -972.354
-19.0247 -29.4918 -971.41699
-18.344999 -29.5749 -971.34302
-17.754101 -29.611401 -971.23199
-17.4062 -29.5865 -970.74402
-17.194599 -29.5476 -970.06598
-16.4902 -29.6343 -970.15302
-15.8601 -29.6714 -970.09003
-15.5701 -29.673201 -969.591
-15.1239 -29.6812 -969.29401
-14.5806 -29.7036 -969.09601
-13.9348 -29.764601 -969.06
-13.5913 -29.747299 -968.50098
-13.1776 -29.7698 -968.13898
-12.7834 -29.745199 -967.68298
-12.3014 -29.793501 -967.40698
-11.6552 -29.827 -967.42401
-11.2118 -29.8435 -967.159
-10.7458 -29.883699 -966.966
-10.2778 -29.891899 -966.69897
-9.79706 -29.901199 -966.466
-9.2555504 -29.9695 -966.32202
-8.9836998 -29.8915 -965.76599
-8.3639498 -29.9527 -965.70203
-7.7434702 -30.007401 -965.65198
-7.1922598 -30.052 -965.52899
-6.8242798 -30.0348 -965.17102
-6.1581998 -30.089001 -965.29303
-5.76794 -30.1049 -965
-5.3895302 -30.107901 -964.67102
-4.9226098 -30.098801 -964.44098
-4.4276099 -30.1339 -964.19202
-3.79565 -30.1728 -964.091
-3.25403 -30.2239 -963.96002
-2.86993 -30.229401 -963.56799
-2.4151599 -30.2089 -963.35699
-1.84668 -30.2638 -963.36298
-1.33417 -30.299299 -963.26801
-0.94409198 -30.318199 -963.02002
-0.36175501 -30.3435 -963.02802
0.081665002 -30.354601 -962.82599
0.757263 -30.4084 -962.948
1.03857 -30.388399 -962.47998
1.65289 -30.4426 -962.54401
2.2063601 -30.4443 -962.51599
2.5594499 -30.424 -962.19501
3.2037399 -30.502899 -962.27002
3.82599 -30.542299 -962.34698
4.2637901 -30.5921 -962.24402
4.78583 -30.605301 -962.20203
5.3534498 -30.6231 -962.21301
5.88379 -30.639299 -962.15698
6.46173 -30.679501 -962.16101
7.0451698 -30.7279 -962.17603
7.5353999 -30.746 -962.06
8.07477 -30.7731 -962.03998
8.64783 -30.803499 -962.07202
9.1423302 -30.854099 -962.01001
9.63416 -30.853901 -961.992
10.2568 -30.898399 -962.13
10.6542 -30.8992 -961.91901
11.3257 -30.9499 -962.10101
11.8274 -30.9606 -962.02698
12.4665 -31.020901 -962.20099
13.0225 -31.045099 -962.159
13.6689 -31.090401 -962.302
14.1368 -31.0973 -962.26099
14.6423 -31.1311 -962.25098
15.2253 -31.1674 -962.39502
15.8076 -31.210699 -962.52301
16.3981 -31.267099 -962.65503
16.911301 -31.2784 -962.66199
17.5403 -31.298599 -962.80298
18.027201 -31.316601 -962.758
18.629 -31.372999 -962.86603
19.3016 -31.405899 -963.13702
19.9069 -31.4438 -963.29303
20.487499 -31.4963 -963.44202
21.122499 -31.5389 -963.69897
21.560101 -31.5646 -963.67102
22.249599 -31.606501 -963.96503
22.8876 -31.6483 -964.23102
23.4883 -31.689899 -964.42102
24.0569 -31.726801 -964.534
24.7941 -31.787701 -964.88202
25.445299 -31.827 -965.11499
26.008699 -31.855101 -965.27899
26.583099 -31.8916 -965.49799
27.174801 -31.935301 -965.73199
27.7248 -31.962601 -965.88501
28.501699 -32.019699 -966.37598
29.173901 -32.075001 -966.72302
29.658899 -32.094898 -966.78699
30.364401 -32.139198 -967.17999
31.154699 -32.194801 -967.70099
31.8752 -32.245201 -968.15302
32.6091 -32.300701 -968.64697
33.2351 -32.328899 -968.98602
33.855301 -32.3606 -969.375
34.563301 -32.421501 -969.87701
35.188202 -32.457901 -970.23199
35.926399 -32.510799 -970.74103
36.685299 -32.576 -971.27399
-36.760799 -28.8498 -1004.45
-36.569 -28.818399 -1002.64
-36.345402 -28.8127 -1001.12
-36.028 -28.7768 -999.70801
-35.867699 -28.722099 -998.005
-35.351299 -28.750999 -997.12299
-35.164398 -28.6945 -995.71503
-34.851398 -28.7213 -994.28003
-34.338402 -28.714001 -993.65802
-33.980801 -28.693399 -992.89203
-33.686501 -28.702 -991.98199
-33.195702 -28.7188 -991.297
-32.817101 -28.7542 -990.54901
-32.6091 -28.6889 -989.40002
-32.1614 -28.702999 -988.617
-31.748699 -28.7171 -987.85303
-31.466299 -28.6693 -986.836
-31.106899 -28.660299 -986.02802
-30.4797 -28.728901 -985.60498
-30.141199 -28.7386 -984.67499
-29.6973 -28.7306 -983.76398
-29.0508 -28.8169 -983.31299
-29.248899 -28.6499 -981.58698
-28.7314 -28.6961 -981.15503
-28.1873 -28.716999 -980.85999
-27.685699 -28.763201 -980.56702
-27.422701 -28.7246 -979.95898
-26.7638 -28.758699 -979.84998
-26.426001 -28.784401 -979.15302
-25.9417 -28.7719 -978.69702
-25.4266 -28.8195 -978.388
-25.0583 -28.8209 -977.771
-24.790199 -28.8076 -977.09399
-24.184601 -28.860001 -976.89697
-23.856001 -28.813 -976.20599
-23.261299 -28.8846 -976.01099
-22.835899 -28.8834 -975.487
-22.476999 -28.9058 -974.88501
-21.819201 -28.934601 -974.73499
-21.235201 -28.9603 -974.48199
-20.9659 -28.943399 -973.81702
-20.5772 -28.962601 -973.34198
-20.130699 -28.987301 -973.00897
-19.8862 -28.953899 -972.323
-19.356899 -28.9727 -971.98901
-18.818701 -29.025499 -971.66101
-18.410801 -29.033899 -971.09198
-17.793301 -29.039301 -971.02802
-17.4307 -29.0436 -970.57599
-17.031401 -29.0257 -970.18799
-16.3116 -29.117901 -970.29199
-15.9559 -29.1364 -969.849
-15.4862 -29.143299 -969.58099
-15.0186 -29.1665 -969.32397
-14.5239 -29.195101 -969.04303
-14.1636 -29.1745 -968.59302
-13.6219 -29.2201 -968.36401
-13.0546 -29.253901 -968.20398
-12.707 -29.259899 -967.69598
-12.1293 -29.289101 -967.56
-11.6889 -29.278601 -967.28497
-11.2405 -29.311701 -967.00098
-10.756 -29.3402 -966.83698
-10.3386 -29.354099 -966.53198
-9.9114399 -29.3724 -966.20398
