# .PCD v0.7 - Point Cloud Data file format
VERSION 0.7
FIELDS x y z
SIZE 4 4 4
TYPE F F F
COUNT 1 1 1
WIDTH 1668
HEIGHT 1
VIEWPOINT 0 0 0 1 0 0 0
POINTS 1668
DATA ascii
-24.235399 12.1529 -977.78601
-24.8981 12.3407 -977.23999
-23.644199 11.9501 -976.914
-23.7122 11.9364 -976.44299
-23.9363 11.9681 -975.93903
-23.1777 11.7242 -975.55798
-23.469801 11.7966 -975.05902
-22.723 11.5665 -974.68799
-22.5492 11.4867 -974.271
-22.2983 11.412 -973.84802
-21.757401 11.2246 -973.474
-21.6791 11.1675 -973.02802
-21.359699 11.0692 -972.62799
-21.0616 10.9669 -972.211
-20.7393 10.8591 -971.815
-20.060499 10.6477 -971.46002
-19.898199 10.6003 -971.05103
-19.4835 10.4284 -970.66998
-19.139299 10.334 -970.27802
-18.8067 10.2263 -969.90198
-18.322399 10.0909 -969.54303
-18.077499 10.0256 -969.13397
-17.773701 9.9160204 -968.76099
-17.2087 9.7494202 -968.42603
-16.735001 9.5941801 -968.06799
-16.3748 9.4776602 -967.69397
-15.9946 9.3642597 -967.33002
-15.5635 9.2534199 -966.97601
-15.3734 9.2114897 -966.59998
-14.7825 9.03088 -966.28198
-14.4265 8.9072905 -965.94501
-13.6761 8.71381 -965.633
-13.3816 8.62784 -965.28003
-12.9123 8.4729605 -964.96802
-12.5861 8.3811998 -964.61298
-11.9824 8.2224398 -964.31
-11.5143 8.0948801 -963.98401
-11.1632 7.99402 -963.66498
-10.5777 7.8510699 -963.35699
-10.0111 7.67838 -963.05298
-9.5679302 7.5689702 -962.755
-8.8961802 7.3815899 -962.48401
-8.4470797 7.2664199 -962.18402
-7.8158002 7.0938401 -961.90302
-7.3373399 6.9639001 -961.61401
-6.7368798 6.8049302 -961.34399
-6.3675499 6.7035499 -961.04199
-5.8123202 6.5660701 -960.78497
-5.13696 6.3824501 -960.53802
-4.4426899 6.1998301 -960.30298
-3.9353001 6.0784898 -960.04797
-3.3157301 5.9177198 -959.81
-2.6226201 5.7402 -959.58502
-1.84027 5.5520902 -959.38202
-1.06433 5.35745 -959.18201
-0.54193097 5.2589102 -958.94702
0.17333999 5.0927401 -958.74298
0.74749798 4.9397302 -958.54498
1.62018 4.7146301 -958.38599
2.5621901 4.4649701 -958.245
3.47247 4.23523 -958.104
4.18787 4.09515 -957.93701
4.8186598 3.98962 -957.77301
5.6389799 3.8254099 -957.646
6.7335801 3.5566101 -957.56799
7.7076998 3.3287399 -957.48102
8.3966103 3.19101 -957.36902
8.7272301 3.1817901 -957.20099
-18.8892 16.7906 -1028.42
-20.1688 16.915701 -1026.75
-20.6299 16.7761 -1025.42
-22.253799 16.995199 -1024
-23.004101 17.0478 -1022.75
-24.339199 17.245399 -1021.44
-24.0469 17.0219 -1020.52
-24.799601 17.073799 -1019.42
-25.416201 17.127899 -1018.41
-25.990299 17.185301 -1017.42
-26.4569 17.165199 -1016.47
-26.8549 17.1399 -1015.58
-27.692301 17.0996 -1013.54
-28.072901 17.149 -1012.66
-28.452299 17.1106 -1011.77
-28.8262 17.068199 -1010.95
-28.842699 16.994801 -1010.18
-29.238701 17.020201 -1009.34
-29.349501 16.9491 -1008.58
-29.6644 16.917 -1007.85
-29.6682 16.8799 -1007.19
-29.4142 16.7264 -1006.59
-29.422199 16.633699 -1005.89
-30.0515 16.757 -1005.09
-30.2117 16.701599 -1004.38
-29.7841 16.526199 -1003.78
-29.816299 16.486799 -1003.1
-30.172501 16.4622 -1002.28
-30.302799 16.4293 -1001.67
-30.318501 16.4163 -1001.12
-30.152 16.3169 -1000.54
-30.3629 16.3062 -999.89203
-29.9419 16.1385 -999.33197
-30.139299 16.1255 -998.67297
-29.879999 16.009701 -998.10303
-29.992901 15.9746 -997.46399
-30.3985 16.0105 -996.76099
-30.2106 15.8943 -996.18799
-30.0168 15.7839 -995.61102
-29.736401 15.631 -995.05902
-30.2281 15.6948 -994.38702
-29.9457 15.5927 -993.849
-29.8151 15.4853 -993.28601
-29.9172 15.4538 -992.70398
-29.3652 15.2676 -992.20099
-29.7071 15.3002 -991.59601
-29.261999 15.1263 -991.086
-29.067699 14.9994 -990.55701
-28.9489 14.9276 -989.98999
-29.503099 15.0858 -989.37097
-28.935499 14.8329 -988.87402
-28.722601 14.7627 -988.39001
-28.7188 14.7328 -987.89099
-28.2264 14.5303 -987.302
-29.521799 14.8229 -986.625
-27.4781 14.2305 -986.45398
-26.583 13.687 -982.84302
-27.866301 14.063 -982.18201
-25.5734 13.354 -981.948
-26.038799 13.4386 -981.39502
-25.1826 13.1481 -981.00897
-26.042 13.375 -980.40802
-25.088699 13.054 -980.01898
-26.0457 13.2958 -979.43701
-24.9314 12.9585 -979.05298
-24.9093 12.9337 -978.60699
-25.264799 13.0166 -978.08398
-24.180401 12.6723 -977.73199
-24.735001 12.8154 -977.20599
-23.5903 12.4618 -976.85901
-23.6252 12.4279 -976.39001
-23.730499 12.4468 -975.909
-22.7831 12.1618 -975.552
-23.2689 12.2899 -975.04102
-22.565001 12.0575 -974.67102
-22.364401 11.958 -974.23798
-22.1618 11.9033 -973.80603
-21.403999 11.637 -973.46301
-21.5898 11.6949 -972.98999
-21.0527 11.4992 -972.60303
-20.792801 11.4072 -972.20099
-20.522499 11.327 -971.789
-19.9634 11.1461 -971.422
-19.9209 11.1348 -970.99597
-19.2875 10.9449 -970.638
-19.0578 10.8719 -970.242
-18.6598 10.7185 -969.875
-18.212999 10.5887 -969.505
-17.756001 10.4244 -969.15002
-17.5355 10.3839 -968.737
-17.0382 10.2258 -968.39203
-16.5849 10.0748 -968.02802
-16.222 9.9350004 -967.66199
-15.9894 9.8937702 -967.28699
-15.3582 9.7136202 -966.966
-15.1253 9.6391001 -966.573
-14.7661 9.5226402 -966.22998
-14.3417 9.4258404 -965.89001
-13.5627 9.1788301 -965.59802
-13.2601 9.1108999 -965.24701
-12.9208 9.0253601 -964.89203
-12.5851 8.8954201 -964.56299
-11.9297 8.7167101 -964.26398
-11.4741 8.5950298 -963.93799
-11.0106 8.4760704 -963.62903
-10.4645 8.33041 -963.32397
-9.9977999 8.18643 -963.01099
-9.5231304 8.05832 -962.711
-9.0352802 7.9500699 -962.40601
-8.3157997 7.7263799 -962.14801
-7.8419199 7.6103802 -961.85602
-7.2026401 7.4608202 -961.586
-6.7527499 7.3351102 -961.29797
-6.2151499 7.20505 -961.01001
-5.53302 7.0245099 -960.76599
-5.03302 6.8887601 -960.505
-4.3899498 6.7615099 -960.25299
-3.7797201 6.5619502 -960.00598
-3.0422399 6.3905902 -959.78601
-2.4115 6.2347999 -959.55701
-1.76422 6.0871902 -959.336
-1.14258 5.93256 -959.11499
-0.55346698 5.79321 -958.901
0.19274899 5.6212802 -958.70099
1.00879 5.4050002 -958.526
1.79669 5.22083 -958.35901
2.6612501 5.0097699 -958.203
3.4577601 4.81567 -958.04303
4.3496699 4.5880098 -957.914
5.2378502 4.3803401 -957.79102
6.0397902 4.2170401 -957.66101
7.6628399 3.86536 -957.43298
8.9032602 3.66254 -957.18201
-17.371 16.974001 -1028.91
-20.613501 17.383699 -1025.48
-21.3771 17.419901 -1024.23
-21.724899 17.3316 -1023.06
-22.9179 17.461201 -1021.77
-24.0112 17.611 -1020.53
-24.8442 17.7068 -1019.43
-25.420799 17.7173 -1018.39
-25.8431 17.7108 -1017.45
-26.168301 17.664801 -1016.51
-26.583401 17.656601 -1015.59
-27.454399 17.7658 -1014.54
-27.643499 17.6469 -1013.58
-27.416201 17.474199 -1012.86
-27.7188 17.4965 -1011.85
-28.5002 17.5658 -1011.02
-28.948799 17.5938 -1010.15
-28.804899 17.4408 -1009.39
-29.1175 17.471901 -1008.64
-29.379601 17.455099 -1007.86
-29.8375 17.5187 -1007.15
-29.4716 17.323299 -1006.56
-29.615801 17.2826 -1005.84
-29.5061 17.1917 -1005.18
-29.362499 17.087099 -1004.57
-30.1362 17.1882 -1003.75
-30.090099 17.132 -1003.02
-30.248699 17.085899 -1002.3
-29.8109 16.8813 -1001.76
-30.0263 16.9063 -1001.16
-29.9125 16.8155 -1000.55
-29.922501 16.7675 -999.922
-30.024401 16.7057 -999.28699
-30.002001 16.638901 -998.67999
-29.9772 16.567499 -998.05603
-29.993 16.5219 -997.42297
-29.501801 16.312901 -996.883
-30.0123 16.3778 -996.17401
-29.853901 16.2897 -995.61499
-29.976801 16.2523 -994.97198
-30.025801 16.2162 -994.37598
-29.7654 16.089199 -993.83301
-29.757799 16.034 -993.22803
-29.5303 15.9052 -992.71802
-29.480499 15.8401 -992.13898
-29.279699 15.7333 -991.61499
-29.134399 15.6474 -991.05499
-29.1954 15.6092 -990.487
-28.7365 15.4513 -989.98199
-28.918501 15.4633 -989.40997
-28.3466 15.2645 -988.92297
-28.509001 15.2282 -988.37097
-28.483299 15.201 -987.88
-28.388399 15.0678 -987.22601
-29.412201 15.4421 -986.57599
-26.3883 14.5836 -986.591
-25.802 13.9509 -981.90302
-26.711901 14.1907 -981.271
-25.867399 13.9038 -980.375
-24.561399 13.4831 -980.04303
-26.0833 13.8918 -979.38599
-24.9671 13.5224 -979.00598
-24.8582 13.4737 -978.55701
-24.938299 13.478 -978.086
-24.129299 13.206 -977.67999
-24.6187 13.3211 -977.172
-23.5886 13.0109 -976.80701
-23.577101 12.9784 -976.34399
-23.7162 13.0005 -975.86401
-22.6 12.6878 -975.52197
-22.9645 12.759 -975.01398
-22.4345 12.5633 -974.63098
-22.3235 12.5114 -974.20001
-21.9592 12.3703 -973.78802
-21.430599 12.2031 -973.40302
-21.678499 12.2676 -972.92603
-20.996201 12.0498 -972.54602
-20.672501 11.9245 -972.15503
-20.489901 11.8651 -971.73602
-19.9716 11.6864 -971.35901
-19.7901 11.6257 -970.94299
-19.228901 11.4766 -970.58801
-18.9146 11.3758 -970.19598
-18.4814 11.2133 -969.83099
-18.150101 11.1194 -969.45599
-17.7659 10.9878 -969.078
-17.3641 10.8704 -968.71198
-17.041 10.769 -968.32599
-16.5616 10.6444 -967.97699
-16.1819 10.5089 -967.61603
-15.7743 10.3869 -967.255
-15.3695 10.2584 -966.90698
-14.9949 10.1458 -966.54401
-14.78 10.0812 -966.17297
-14.0743 9.8811598 -965.87201
-13.825 9.8073397 -965.51001
-13.2673 9.6363497 -965.20001
-12.8491 9.5288696 -964.854
-12.2121 9.3431396 -964.55902
-11.7543 9.2113304 -964.23901
-11.3392 9.0923204 -963.91199
-10.8629 8.96838 -963.59698
-10.53 8.8940401 -963.26001
-9.83533 8.7137804 -962.966
-9.4694796 8.6159096 -962.66101
-8.78827 8.4161701 -962.39301
-8.2594004 8.2475901 -962.10999
-7.7694702 8.1451702 -961.81702
-7.28192 8.0207796 -961.53003
-6.6655302 7.86905 -961.24902
-6.0921602 7.73279 -960.974
-5.4057598 7.5462298 -960.73999
-4.8748798 7.4158602 -960.46503
-4.2785602 7.26788 -960.22101
-3.52319 7.0472999 -959.99298
-2.9512899 6.9047899 -959.74701
-2.28442 6.7539101 -959.52802
-1.59479 6.5679002 -959.30701
-1.0014 6.4124098 -959.08398
-0.19360401 6.2234201 -958.89697
0.37976101 6.1076698 -958.68402
1.19025 5.9184599 -958.49799
1.9726 5.7351098 -958.32397
2.7210701 5.55826 -958.15997
3.51563 5.3592501 -958.01398
4.2786899 5.19592 -957.867
5.2406001 4.98557 -957.73999
6.0766602 4.8074999 -957.62
7.0266099 4.5981398 -957.52002
8.7930899 4.1770902 -957.33899
-10.8657 16.617201 -1032.85
-19.6315 18.2157 -1028.5601
-20.186199 17.91 -1025.61
-20.118299 17.655001 -1024.51
-22.317301 18.1171 -1022.98
-22.8365 18.0354 -1021.81
-23.452101 18.037901 -1020.68
-24.2108 18.0889 -1019.58
-24.8624 18.132401 -1018.5
-25.336399 18.1322 -1017.54
-25.810499 18.1229 -1016.59
-26.0319 18.0704 -1015.7
-26.535 18.0816 -1014.76
-26.3531 17.9209 -1013.95
-27.3843 18.1185 -1012.96
-28.4557 18.2276 -1011.71
-28.001499 18.0306 -1011.05
-28.8776 18.1217 -1010.18
-28.708 17.9869 -1009.43
-28.983101 18.0152 -1008.71
-28.7227 17.8419 -1008
-29.5972 18.0168 -1007.14
-29.5217 17.889999 -1006.49
-29.127701 17.712 -1005.87
-29.087999 17.6166 -1005.26
-29.514299 17.697599 -1004.56
-29.546801 17.634701 -1003.9
-29.872499 17.638901 -1003.14
-29.518499 17.4366 -1002.5
-30.0035 17.4806 -1001.77
-29.836 17.4314 -1001.17
-29.8237 17.3671 -1000.55
-29.773701 17.279499 -999.91901
-29.6772 17.171101 -999.315
-29.939899 17.1779 -998.638
-30.0851 17.1504 -997.98798
-29.8251 17.0331 -997.42102
-29.7269 16.9149 -996.81097
-29.769199 16.891701 -996.18103
-29.7213 16.7904 -995.591
-29.746 16.7624 -994.96802
-29.8032 16.7052 -994.37097
-29.566601 16.583401 -993.82098
-29.363701 16.459299 -993.27802
-29.1763 16.3545 -992.73999
-29.3766 16.3542 -992.11902
-29.1768 16.2383 -991.56097
-29.2502 16.222401 -990.99402
-28.720501 16.021299 -990.52698
-28.554001 15.9225 -989.96899
-28.8804 15.9834 -989.375
-28.5389 15.8404 -988.84601
-28.237801 15.6877 -988.36499
-28.507 15.7638 -987.82001
-28.2132 15.6788 -987.21503
-29.149799 15.9327 -986.58197
-27.1992 15.3405 -986.38397
-27.471901 15.2743 -985.80402
-25.552601 14.662 -984.40302
-27.842501 15.2707 -983.60498
-24.8741 14.2175 -981.92603
-26.0961 14.5552 -981.29797
-26.15 14.527 -980.80701
-25.8918 14.4306 -980.35101
-25.0338 14.1515 -979.93903
-25.5884 14.2828 -979.39398
-24.5527 13.9428 -979.021
-24.865601 14.0167 -978.50299
-25.113001 14.0646 -978.01001
-23.955 13.6947 -977.65399
-24.307301 13.7825 -977.15698
-23.523899 13.535 -976.76801
-23.578699 13.5166 -976.29901
-23.4779 13.4542 -975.83801
-22.521799 13.179 -975.47998
-22.957701 13.2833 -974.979
-22.128799 13.027 -974.61298
-22.2533 13.033 -974.15302
-21.779301 12.8961 -973.758
-21.2463 12.6913 -973.38397
-21.3694 12.7117 -972.90503
-20.7831 12.5306 -972.52301
-20.404301 12.4115 -972.13
-20.0902 12.3067 -971.73199
-19.7959 12.1804 -971.33099
-19.491301 12.1007 -970.93799
-19.226801 12.0082 -970.54102
-18.778 11.8523 -970.16998
-18.337 11.7287 -969.79498
-17.947001 11.6092 -969.42902
-17.5574 11.4736 -969.05603
-17.224701 11.3799 -968.672
-16.923 11.2712 -968.284
-16.4988 11.1735 -967.91803
-16.1306 11.0529 -967.56897
-15.5937 10.8985 -967.216
-15.2621 10.7981 -966.85699
-14.8386 10.6559 -966.505
-14.5265 10.5455 -966.15198
-13.9733 10.3958 -965.83398
-13.4661 10.2401 -965.50702
-13.1606 10.1482 -965.146
-12.7286 10.0306 -964.81097
-12.2373 9.8856497 -964.492
-11.8825 9.7906504 -964.16101
-11.2556 9.6189299 -963.85303
-10.7758 9.4887104 -963.552
-10.1489 9.3208904 -963.24902
-9.6674204 9.1849098 -962.93903
-9.2512798 9.0860004 -962.62799
-8.8189096 8.94666 -962.33502
-8.1943998 8.7804003 -962.06201
-7.6135302 8.6387596 -961.78101
-7.0623798 8.5118704 -961.49103
-6.7459698 8.4286804 -961.18701
-6.05371 8.2457304 -960.93103
-5.28339 8.0378704 -960.70398
-4.6616201 7.8885198 -960.453
-4.1268301 7.7540898 -960.19299
-3.3637099 7.5566702 -959.96802
-2.6543601 7.3758202 -959.74103
-2.1092501 7.2508202 -959.50098
-1.53168 7.1094098 -959.263
-1.00122 6.9828501 -959.05103
-0.14172401 6.7757602 -958.85101
0.563721 6.6133399 -958.65399
1.38129 6.42206 -958.47998
2.2244899 6.23523 -958.31403
3.0090301 6.0346699 -958.15698
3.71875 5.8585501 -957.99701
4.4405499 5.6936302 -957.84198
5.2993202 5.4895 -957.71997
6.3532701 5.2711501 -957.617
7.2722201 5.0735202 -957.51801
8.1952496 4.8652301 -957.42603
8.8607798 4.73947 -957.31299
9.1615601 4.7162199 -957.151
-14.5848 17.6091 -1029.85
-17.6285 18.0662 -1027.64
-20.3099 18.5511 -1025.74
-20.875401 18.465 -1024.39
-21.020599 18.3468 -1023.28
-23.1017 18.6775 -1021.78
-23.3298 18.5956 -1020.73
-24.2106 18.700199 -1019.64
-24.589199 18.6579 -1018.6
-24.760599 18.571899 -1017.67
-25.2719 18.594999 -1016.65
-25.431601 18.515301 -1015.81
-26.3666 18.6245 -1014.8
-26.896299 18.666599 -1013.88
-26.715401 18.5235 -1013.09
-27.533899 18.603001 -1012.13
-27.394899 18.4622 -1011.12
-28.2908 18.590401 -1010.25
-28.649099 18.580799 -1009.45
-28.4554 18.454201 -1008.83
-28.9767 18.4888 -1008.02
-29.053499 18.433901 -1007.27
-28.7966 18.311001 -1006.6
-29.055401 18.2568 -1005.9
-28.8097 18.146799 -1005.35
-29.3276 18.232401 -1004.59
-28.9979 18.0702 -1003.97
-29.2391 18.0506 -1003.23
-29.252399 17.9827 -1002.59
-29.6374 18.0334 -1001.85
-29.568899 17.937901 -1001.19
-29.3825 17.805201 -1000.59
-29.367901 17.720699 -999.953
-29.566099 17.728399 -999.28003
-29.834 17.7069 -998.63098
-29.652901 17.5732 -998.02899
-29.766399 17.563999 -997.37799
-29.7094 17.481199 -996.77301
-29.1602 17.267 -996.25098
-29.244101 17.219601 -995.62799
-29.428699 17.1994 -994.97601
-29.108299 17.077499 -994.43799
-29.468901 17.130301 -993.797
-29.507099 17.0753 -993.20001
-29.2327 16.937099 -992.68701
-29.2733 16.8904 -992.08197
-29.069901 16.7717 -991.534
-29.066601 16.7535 -990.97998
-28.7714 16.593399 -990.46997
-28.6511 16.500401 -989.90698
-29.009001 16.579599 -989.28699
-28.576799 16.3869 -988.79102
-28.221001 16.278601 -988.32098
-27.907499 16.0926 -987.88
-27.336399 15.8663 -987.35602
-29.745199 16.575701 -986.40503
-27.349899 15.8452 -986.28198
-27.8647 15.9529 -985.67603
-27.8085 15.8264 -985.13702
-25.5875 15.0253 -982.84998
-27.8342 15.7249 -982.01898
-26.35 15.2403 -981.73499
-25.5389 14.9654 -981.30603
-25.7826 14.9941 -980.79199
-25.4713 14.8783 -980.33099
-24.750799 14.6274 -979.92499
-25.558701 14.8471 -979.34802
-24.5266 14.5013 -978.97601
-24.550301 14.4667 -978.49902
-24.809799 14.5444 -978.005
-23.7551 14.2224 -977.638
-24.261801 14.3301 -977.10797
-23.1859 13.9998 -976.76599
-23.599501 14.0829 -976.23401
-23.121 13.9458 -975.83002
-22.5229 13.7471 -975.43903
-22.6639 13.7735 -974.95697
-22.165199 13.6013 -974.56201
-21.897499 13.4845 -974.14099
-21.584499 13.414 -973.71802
-21.1285 13.2399 -973.33002
-21.1325 13.2204 -972.88098
-20.5851 13.0268 -972.50098
-20.334999 12.9606 -972.08301
-19.928499 12.8294 -971.69202
-19.552999 12.6969 -971.31097
-19.3255 12.6103 -970.90997
-18.941999 12.4793 -970.52002
-18.7199 12.4001 -970.10999
-18.313299 12.2801 -969.742
-17.812901 12.1305 -969.37903
-17.6063 12.0602 -968.98602
-17.0086 11.8664 -968.65002
-16.689899 11.7689 -968.26599
-16.3041 11.6733 -967.89502
-15.8568 11.5331 -967.53802
-15.6017 11.4532 -967.15399
-15.1344 11.2943 -966.81897
-14.6073 11.1561 -966.49402
-14.326 11.0888 -966.11902
-13.8433 10.948 -965.79303
-13.3798 10.8049 -965.44202
-12.9128 10.6763 -965.12299
-12.6442 10.5692 -964.77197
-12.0248 10.4135 -964.466
-11.7503 10.3291 -964.11603
-10.9092 10.0844 -963.83502
-10.5827 10.0016 -963.50702
-10.0583 9.8628197 -963.20801
-9.7741098 9.7845497 -962.87299
-9.1635704 9.6156597 -962.57703
-8.4377403 9.4382896 -962.31097
-8.1037598 9.3495197 -962.01001
-7.5357699 9.1996803 -961.73602
-6.9007001 9.0421801 -961.45599
-6.40137 8.9003 -961.17902
-5.8633399 8.7610798 -960.90302
-5.3225698 8.62747 -960.646
-4.6185298 8.4568796 -960.40198
-3.98578 8.2966604 -960.159
-3.22382 8.1089802 -959.93701
-2.59991 7.9391499 -959.69397
-2.03442 7.7829299 -959.46399
-1.41071 7.6290598 -959.237
-0.79254198 7.5013099 -959.01801
-0.056762699 7.3211098 -958.81702
0.66406298 7.16992 -958.61902
1.3831199 7.0262799 -958.42603
2.3266001 6.76968 -958.27802
3.05304 6.5876498 -958.12
3.69537 6.4461699 -957.95398
4.5317998 6.2637901 -957.81598
5.38269 6.0633202 -957.69299
6.4885898 5.7828102 -957.59802
8.16998 5.4370399 -957.38898
9.2370005 5.2430701 -957.12299
-16.511801 18.7717 -1029.87
-17.2346 18.563101 -1027.88
-19.317301 18.908899 -1026.08
-20.4608 18.965599 -1024.6
-21.4762 19.0618 -1023.25
-22.136801 19.0578 -1022.05
-22.652 19.0501 -1020.9
-23.419399 19.0847 -1019.77
-24.2274 19.128799 -1018.68
-24.418501 19.070499 -1017.74
-25.015499 19.118401 -1016.75
-25.8641 19.229099 -1015.7
-25.764799 19.033199 -1014.91
-26.5499 19.1413 -1013.95
-27.3118 19.288099 -1013
-26.835899 19.0303 -1012.27
-27.691 19.0732 -1011.28
-27.7087 19.0319 -1010.32
-28.2661 19.0564 -1009.53
-28.3099 18.998899 -1008.89
-28.230301 18.9137 -1008.19
-28.461901 18.868099 -1007.45
-28.9482 18.893101 -1006.66
-29.2057 18.891399 -1005.93
-28.871 18.7794 -1005.32
-29.1716 18.7631 -1004.59
-28.7369 18.5823 -1003.99
-28.988501 18.559799 -1003.27
-29.2908 18.582001 -1002.54
-29.3465 18.5236 -1001.86
-29.0595 18.3452 -1001.27
-29.514 18.391899 -1000.55
-29.378201 18.311701 -999.90997
-29.4167 18.261101 -999.276
-29.391701 18.1514 -998.67999
-29.5457 18.133101 -997.99298
-29.285101 18.002399 -997.41302
-29.4617 17.9781 -996.77301
-29.3801 17.9165 -996.15601
-29.5135 17.8822 -995.53198
-29.408501 17.7833 -994.93597
-29.2913 17.7085 -994.35602
-29.145 17.582899 -993.797
-29.115801 17.5473 -993.21503
-29.2171 17.519699 -992.63
-29.0135 17.4028 -992.073
-28.879101 17.3314 -991.53497
-28.900999 17.2719 -990.948
-28.569599 17.1429 -990.435
-28.694201 17.1049 -989.83502
-28.602699 17.027399 -989.31403
-28.4837 16.9415 -988.72699
-28.1227 16.8097 -988.27802
-28.032 16.750099 -987.81201
-27.917999 16.6716 -987.177
-27.663099 16.638901 -986.76898
-26.8573 16.381599 -986.31598
-26.483 16.179399 -985.81799
-28.173 16.563499 -984.67297
-26.2707 16.0965 -984.04901
-26.3209 15.7576 -981.71198
-25.924299 15.6238 -981.23602
-25.387199 15.3962 -980.29102
-24.823999 15.2139 -979.87
-25.6042 15.417 -979.29303
-24.454599 15.044 -978.91901
-24.446501 15.006 -978.46802
-24.409201 14.9867 -977.99103
-23.4589 14.684 -977.61902
-23.9186 14.7829 -977.08801
-23.478001 14.6326 -976.67603
-23.1085 14.5003 -976.25702
-22.9739 14.44 -975.80103
-22.4886 14.2807 -975.38501
-22.3839 14.2375 -974.93701
-22.050301 14.1052 -974.52197
-21.954 14.0658 -974.08301
-21.532499 13.9058 -973.68201
-20.9816 13.7444 -973.30603
-21.198999 13.7844 -972.828
-20.436199 13.5556 -972.47601
-20.316799 13.4948 -972.04303
-20.001699 13.3935 -971.64398
-19.4774 13.2219 -971.27899
-19.3645 13.1741 -970.85901
-18.751499 12.9908 -970.47998
-18.5425 12.9043 -970.08698
-18.170799 12.7843 -969.711
-17.575701 12.6186 -969.354
-17.628099 12.6342 -968.92499
-17.031601 12.4384 -968.58099
-16.485399 12.2855 -968.22998
-16.289 12.2124 -967.84601
-15.8016 12.0587 -967.48999
-15.4366 11.9656 -967.13
-14.9671 11.8157 -966.789
-14.6045 11.7053 -966.44
-14.0953 11.5655 -966.09497
-13.7524 11.4685 -965.73602
-13.4403 11.3752 -965.37903
-12.9072 11.229 -965.06702
-12.3236 11.0554 -964.755
-11.9999 10.9567 -964.40698
-11.4132 10.8086 -964.10303
-10.8707 10.6468 -963.79102
-10.4569 10.5511 -963.46997
-10.0753 10.4391 -963.14099
-9.51196 10.2791 -962.83301
-9.0512104 10.1552 -962.53699
-8.4138803 9.9800701 -962.27301
-7.9001498 9.8398399 -961.98999
-7.4470201 9.7253399 -961.68903
-6.8246498 9.5601797 -961.40997
-6.4641099 9.4595003 -961.11298
-5.8383799 9.3071899 -960.84802
-5.0092201 9.1214304 -960.61499
-4.5144701 8.9768696 -960.35498
-3.86395 8.8278198 -960.10999
-3.0606699 8.6063204 -959.90802
-2.4890699 8.46591 -959.66302
-1.89746 8.3462801 -959.42499
-1.33435 8.2096596 -959.19299
-0.52392602 7.9922199 -959
0.117676 7.8373699 -958.80499
0.80078101 7.7242699 -958.59198
1.62677 7.5081201 -958.41901
2.3385 7.3201599 -958.24402
3.0548699 7.1452298 -958.08002
3.987 6.9247098 -957.95099
4.8385 6.7491498 -957.81
5.6216998 6.5864301 -957.67499
6.6697998 6.3512902 -957.57501
7.6508799 6.14117 -957.48199
8.4402504 5.9643602 -957.39099
9.11938 5.8129001 -957.284
-17.8008 19.391899 -1027.98
-18.750601 19.3533 -1026.26
-20.099199 19.529699 -1024.74
-21.2015 19.5648 -1023.4
-21.4443 19.4615 -1022.23
-22.6975 19.660299 -1020.92
-23.490101 19.682199 -1019.78
-23.9694 19.677099 -1018.73
-24.621901 19.7152 -1017.72
-24.996201 19.691999 -1016.74
-25.741501 19.7493 -1015.74
-25.3932 19.5408 -1014.97
-26.5679 19.7551 -1013.91
-26.584 19.655899 -1013.12
-26.2162 19.4517 -1012.4
-27.629299 19.7258 -1011.32
-27.1658 19.430401 -1010.5
-27.7679 19.524 -1009.68
-27.9405 19.5187 -1008.97
-27.981001 19.431101 -1008.22
-28.0944 19.3661 -1007.52
-28.4629 19.3829 -1006.75
-28.562901 19.3214 -1006.06
-28.726601 19.275499 -1005.34
-29.1572 19.3437 -1004.55
-28.5553 19.0996 -1003.98
-28.6507 19.044901 -1003.3
-28.974501 19.057301 -1002.57
-29.069799 19.006701 -1001.9
-29.123699 18.9324 -1001.2
-29.2789 18.911501 -1000.55
-29.340401 18.8365 -999.88098
-29.079201 18.719 -999.29999
-29.099199 18.666401 -998.68701
-29.1402 18.590799 -998.02802
-29.200399 18.552099 -997.40002
-29.171 18.491301 -996.76703
-29.4484 18.509001 -996.10699
-29.090401 18.3479 -995.55298
-29.413 18.3832 -994.888
-29.2966 18.2712 -994.32898
-29.042801 18.121 -993.763
-29.073099 18.0849 -993.19598
-28.8878 17.9853 -992.659
-29.0783 17.989901 -992.026
-28.8255 17.884899 -991.48999
-28.726 17.7805 -990.94
-28.2621 17.615601 -990.43597
-28.519699 17.6369 -989.82501
-28.5317 17.589199 -989.26801
-28.141399 17.430901 -988.75897
-28.3403 17.430401 -988.18103
-27.73 17.228001 -987.77802
-27.639999 17.140699 -987.18903
-26.938601 16.9102 -986.89697
-26.836901 16.8339 -986.26501
-26.7652 16.8088 -985.742
-26.941999 16.796301 -985.15997
-27.007401 16.704399 -983.94598
-27.3654 16.8064 -983.51703
-24.938499 15.9181 -981.80499
-25.491699 16.0455 -981.19098
-25.7705 16.1078 -980.69202
-25.305201 15.9647 -980.26703
-24.589701 15.7012 -979.84302
-25.566601 15.956 -979.24701
-24.1119 15.518 -978.92297
-24.1765 15.4961 -978.44202
-24.314199 15.5189 -977.95502
-23.509899 15.2382 -977.56299
-24.244801 15.4377 -977.00897
-23.222601 15.1131 -976.64001
-23.1369 15.0828 -976.185
-23.005899 15.02 -975.76099
-22.128 14.7118 -975.38599
-22.7798 14.9084 -974.84698
-21.7278 14.583 -974.48798
-21.775999 14.583 -974.03998
-21.7987 14.5644 -973.59601
-20.7799 14.246 -973.24902
-21.291401 14.3707 -972.75299
-20.407301 14.1044 -972.39899
-20.2297 14.0321 -971.99298
-20.166599 14.0239 -971.55603
-19.179701 13.7113 -971.23297
-19.4734 13.776 -970.78003
-18.5445 13.4831 -970.43402
-18.283199 13.4126 -970.039
-18.314301 13.4098 -969.61798
-17.263599 13.0985 -969.30902
-17.690701 13.2219 -968.84698
-16.780001 12.943 -968.526
-16.627701 12.8877 -968.13599
-16.447399 12.844 -967.73297
-15.5886 12.5854 -967.42902
-15.6168 12.5851 -967.039
-14.8483 12.357 -966.71002
-14.577 12.268 -966.34698
-14.2391 12.189 -965.98901
-13.6906 12.0179 -965.65802
-13.4808 11.962 -965.29999
-12.6996 11.7241 -965.013
-12.3356 11.6256 -964.66602
-11.8657 11.4974 -964.34601
-11.1741 11.3038 -964.05298
-10.953 11.2433 -963.70801
-10.4417 11.112 -963.39301
-9.9460402 10.9724 -963.07898
-9.4174204 10.8191 -962.78101
-8.9088097 10.664 -962.48297
-8.3136597 10.515 -962.20801
-7.8074999 10.3956 -961.91998
-7.1227398 10.2101 -961.65802
-6.7687998 10.1259 -961.34601
-6.1991601 9.9890699 -961.08899
-5.5671401 9.8102102 -960.82397
-5.0086699 9.6632996 -960.55902
-4.4067998 9.5067396 -960.302
-3.71698 9.3257399 -960.08002
-3.0806899 9.1882 -959.84998
-2.4649 9.0265799 -959.612
-1.86896 8.8658104 -959.37598
-1.1825 8.7084398 -959.15997
-0.37835699 8.5290203 -958.95697
0.31774899 8.3655701 -958.763
0.87738001 8.2306805 -958.55701
1.60352 8.0571003 -958.37402
2.4856 7.8551002 -958.21698
3.3148201 7.65869 -958.06299
4.1365399 7.4656401 -957.90802
4.9756498 7.3070402 -957.77002
5.8141499 7.1363201 -957.65198
7.63025 6.6958599 -957.45502
9.2407198 6.4990201 -957.03497
-19.3186 20.441799 -1027.84
-19.958401 20.320101 -1026.27
-20.3643 20.1821 -1024.79
-21.667 20.3174 -1023.3
-21.858801 20.0324 -1021.12
-23.413401 20.278 -1019.83
-23.5891 20.188801 -1018.86
-24.2897 20.209 -1017.79
-24.3801 20.112 -1016.89
-25.462799 20.2731 -1015.8
-25.745899 20.2295 -1014.9
-26.26 20.264299 -1013.98
-26.1537 20.1024 -1013.22
-26.834999 20.1717 -1012.26
-26.9272 20.108999 -1011.46
-27.3375 20.098499 -1010.58
-27.4883 20.0429 -1009.77
-27.487499 19.965401 -1009.03
-28.0968 20.0446 -1008.18
-28.1413 19.956499 -1007.48
-28.2988 19.9154 -1006.78
-28.3829 19.860001 -1006.06
-28.277399 19.738701 -1005.4
-29.0287 19.8827 -1004.54
-28.5574 19.643999 -1003.94
-28.788401 19.6458 -1003.22
-28.9086 19.587601 -1002.56
-28.875299 19.5023 -1001.92
-29.033701 19.4781 -1001.21
-28.893299 19.3741 -1000.59
-29.0982 19.3568 -999.89203
-29.060801 19.279699 -999.26801
-29.122601 19.2285 -998.63397
-28.769501 19.0485 -998.04999
-29.1747 19.1007 -997.34399
-29.000299 18.996799 -996.75201
-29.1213 18.980301 -996.11798
-29.1334 18.918699 -995.521
-29.1593 18.875299 -994.88397
-29.0994 18.7922 -994.31897
-28.9617 18.6896 -993.75299
-29.0858 18.667801 -993.14203
-28.6723 18.504601 -992.65399
-28.717899 18.4209 -992.04901
-28.522499 18.3459 -991.48499
-28.7983 18.3402 -990.86603
-28.3459 18.189501 -990.375
-28.1696 18.080799 -989.849
-28.228399 18.107201 -989.25702
-27.924801 17.9177 -988.78699
-27.7866 17.8412 -988.24902
-28.0317 17.8505 -987.66803
-27.790199 17.7068 -987.06897
-27.453899 17.5709 -986.737
-27.162701 17.4023 -986.146
-27.422199 17.490801 -985.61902
-26.835899 17.2451 -985.12799
-27.2491 17.371099 -984.55603
-26.630699 17.1539 -984.06201
-27.4606 17.3281 -983.47601
-25.150999 16.5767 -982.71399
-27.5247 17.285601 -981.90601
-25.8979 16.778099 -981.664
-25.4247 16.615601 -981.18298
-25.5149 16.588699 -980.66901
-25.774 16.643101 -980.15802
-24.566999 16.251801 -979.77698
-25.427601 16.4734 -979.21301
-24.1257 16.0804 -978.849
-24.4391 16.139299 -978.33197
-24.310499 16.0695 -977.89203
-23.4252 15.7789 -977.50403
-23.917801 15.9163 -976.96698
-22.9582 15.6085 -976.586
-22.979401 15.608 -976.12
-22.9303 15.5435 -975.66199
-22.3274 15.349 -975.242
-22.502399 15.3778 -974.76099
-21.879 15.1698 -974.37201
-21.5634 15.08 -973.95697
-21.2272 14.9612 -973.54602
-20.9384 14.8466 -973.117
-20.953199 14.8255 -972.664
-20.4312 14.6519 -972.27502
-19.9431 14.5051 -971.89697
-19.8419 14.4561 -971.45398
-19.4895 14.3408 -971.05603
-19.189501 14.2378 -970.65302
-18.9077 14.1334 -970.26202
-18.3097 13.9586 -969.89801
-18.1427 13.8962 -969.49402
-17.6632 13.7495 -969.12097
-17.383499 13.6529 -968.73602
-16.815901 13.4587 -968.396
-16.441299 13.3755 -968.008
-16.1866 13.283 -967.63702
-15.7441 13.147 -967.28302
-15.4824 13.0837 -966.896
-15.0156 12.9406 -966.55798
-14.5528 12.8078 -966.211
-14.0493 12.6524 -965.87402
-13.6802 12.5462 -965.52698
-13.3585 12.4532 -965.16302
-12.7944 12.3013 -964.85901
-12.3264 12.1499 -964.53101
-11.8584 12.0267 -964.211
-11.3383 11.8848 -963.90698
-11.0333 11.7915 -963.57501
-10.3453 11.6277 -963.276
-9.8938599 11.4932 -962.961
-9.4617901 11.3971 -962.651
-8.9171801 11.2456 -962.35797
-8.4165602 11.1031 -962.07098
-7.88586 10.9599 -961.78802
-7.1887202 10.7764 -961.52698
-6.66394 10.6517 -961.25201
-6.15729 10.5479 -960.97699
-5.5260601 10.3705 -960.73102
-5.0609698 10.2554 -960.45898
-4.2547598 10.0401 -960.23102
-3.7112999 9.9067402 -959.99103
-3.03528 9.7451496 -959.76898
-2.2671499 9.5545702 -959.55902
-1.6559401 9.3948097 -959.336
-1.1637599 9.2866497 -959.09399
-0.49737501 9.1151104 -958.88599
0.37292501 8.9098196 -958.711
1.06049 8.7553101 -958.521
1.78821 8.5812101 -958.34497
2.72192 8.3457298 -958.19501
3.50421 8.1703196 -958.03497
4.2980299 8.0055199 -957.88898
5.0149498 7.8678298 -957.745
5.8833599 7.6830101 -957.62
6.8492398 7.4467502 -957.52197
7.8838501 7.2065701 -957.44397
8.7673302 7.0103798 -957.362
9.30865 6.9297199 -957.23798
-18.039 20.431499 -1026.73
-19.4631 20.552099 -1025.0601
-20.7274 20.619301 -1023.63
-20.8946 20.534901 -1022.45
-22.4559 20.729601 -1021.1
-22.6472 20.627501 -1019.97
-23.9139 20.8302 -1018.79
-23.8468 20.6357 -1017.86
-24.1971 20.619499 -1016.91
-25.007099 20.723 -1015.88
-25.4659 20.712 -1014.96
-25.2623 20.541 -1014.14
-26.116899 20.6474 -1013.21
-26.403099 20.615 -1012.31
-26.6521 20.560801 -1011.49
-27.125799 20.5819 -1010.61
-26.9484 20.4757 -1009.87
-27.2819 20.474001 -1009.09
-27.682301 20.441299 -1008.24
-27.6423 20.3384 -1007.53
-28.041901 20.360701 -1006.77
-28.117001 20.3083 -1006.07
-27.973 20.1744 -1005.44
-28.246799 20.1863 -1004.66
-28.6425 20.1989 -1003.91
-28.681499 20.1493 -1003.22
-28.6329 20.0238 -1002.57
-28.675699 19.9844 -1001.91
-29.142099 20.029699 -1001.14
-28.736 19.8435 -1000.56
-28.6252 19.737301 -999.961
-29.1511 19.8311 -999.22198
-28.751301 19.644699 -998.64301
-29.024799 19.655701 -997.95099
-28.8095 19.5338 -997.38501
-29.063499 19.5161 -996.72699
-28.891399 19.4063 -996.12598
-28.662201 19.292101 -995.56799
-29.116199 19.3549 -994.85199
-28.9673 19.270399 -994.289
-28.989901 19.2076 -993.70001
-28.7852 19.094101 -993.14502
-28.5923 18.9963 -992.61603
-28.5189 18.908501 -992.026
-28.5242 18.873501 -991.45599
-28.486799 18.794001 -990.88501
-28.503599 18.754 -990.31
-28.024 18.5508 -989.836
-27.853001 18.455099 -989.30798
-27.7416 18.395399 -988.73999
-27.9835 18.3937 -988.16901
-28.041401 18.3808 -987.617
-27.3955 18.1768 -987.11902
-27.719299 18.250999 -986.61798
-26.9627 18.004299 -986.08301
-27.376101 18.0867 -985.51202
-27.331699 18.0513 -985.00098
-26.6607 17.7985 -984.52802
-26.8447 17.808901 -984.02399
-26.554701 17.6672 -983.48102
-26.453501 17.5828 -982.99597
-26.482599 17.530899 -982.49103
-25.820601 17.3176 -982.05603
-26.242701 17.3995 -981.50897
-25.3682 17.110201 -981.09198
-25.3419 17.0553 -980.59198
-25.435101 17.0634 -980.08698
-24.499599 16.744699 -979.68799
-24.768499 16.785801 -979.16699
-24.427 16.6707 -978.70502
-24.300501 16.5994 -978.22699
-24.072701 16.506901 -977.77002
-23.570601 16.3258 -977.35797
-23.542 16.2938 -976.88
-23.3237 16.201401 -976.42798
-22.991301 16.062401 -976.00299
-22.742599 15.9915 -975.552
-22.4431 15.8569 -975.12402
-22.131701 15.7518 -974.68402
-21.9203 15.6721 -974.24799
-21.807699 15.6331 -973.79102
-21.325899 15.4517 -973.41901
-21.009199 15.3326 -973.00702
-20.634899 15.2204 -972.604
-20.3724 15.116 -972.17499
-20.1812 15.0533 -971.75201
-19.917999 14.9603 -971.34497
-19.4161 14.7927 -970.961
-19.366301 14.7846 -970.539
-18.8039 14.5988 -970.16199
-18.6101 14.5309 -969.75299
-18.386299 14.447 -969.35901
-17.549299 14.2124 -969.02698
-17.4764 14.1825 -968.62598
-16.930799 14.0102 -968.27698
-16.4835 13.8811 -967.91498
-16.371799 13.8429 -967.51599
-15.6631 13.6122 -967.19
-15.3658 13.5359 -966.80499
-15.0059 13.4313 -966.44299
-14.6351 13.3152 -966.09003
-14.082 13.1627 -965.76398
-13.7045 13.049 -965.41901
-13.2925 12.9372 -965.07599
-12.8759 12.8306 -964.74701
-12.2334 12.6277 -964.44202
-11.8653 12.5271 -964.10101
-11.2687 12.3552 -963.797
-10.8667 12.2494 -963.46802
-10.4026 12.1506 -963.146
-9.9281597 12.0254 -962.84601
-9.44452 11.8784 -962.54102
-8.8767099 11.7368 -962.24701
-8.3131704 11.5612 -961.96002
-7.79071 11.4147 -961.67999
-7.2797899 11.2902 -961.39099
-6.5908198 11.1391 -961.13
-6.0981398 11.0005 -960.85999
-5.44098 10.8199 -960.60901
-4.9240098 10.6955 -960.35199
-4.3341098 10.5435 -960.09497
-3.7002001 10.4032 -959.85602
-3.05615 10.252 -959.62701
-2.3848901 10.0725 -959.41803
-1.742 9.9243202 -959.20203
-1.08527 9.80756 -958.97803
-0.28765899 9.6190796 -958.79498
0.339661 9.4446402 -958.612
1.99268 9.0693703 -958.30103
2.7416401 8.8817701 -958.14001
3.61713 8.6677198 -958.00403
4.3853102 8.5021095 -957.85699
5.1614399 8.3326998 -957.71802
6.1883502 8.0851402 -957.61298
7.06598 7.89328 -957.505
7.9230299 7.73276 -957.40802
8.6139498 7.6113 -957.29999
-15.539 20.761 -1029.0699
-17.1859 20.7609 -1027.0699
-18.378799 20.835899 -1025.42
-19.627701 20.9263 -1023.9
-21.254299 21.202499 -1022.47
-21.476101 21.0681 -1021.32
-22.873199 21.2153 -1019.99
-23.2675 21.2043 -1018.94
-23.429701 21.1063 -1017.98
-24.425699 21.230101 -1016.87
-24.4151 21.0956 -1016.01
-25.324699 21.2106 -1015
-25.518999 21.1626 -1014.12
-26.0161 21.1824 -1013.21
-25.8619 21.0287 -1012.41
-26.502701 21.0902 -1011.51
-26.791 21.059401 -1010.67
-26.9133 21.005899 -1009.88
-27.2987 20.996799 -1009.06
-27.537701 20.9377 -1008.22
-27.679399 20.910101 -1007.51
-27.863001 20.857599 -1006.77
-27.929701 20.8078 -1006.08
-28.056601 20.7638 -1005.38
-28.284901 20.724001 -1004.63
-28.361099 20.674999 -1003.94
-28.2988 20.5877 -1003.28
-28.6066 20.5734 -1002.55
-28.589001 20.4807 -1001.88
-28.931499 20.5158 -1001.14
-28.764999 20.3948 -1000.54
-28.7841 20.293501 -999.88599
-28.7344 20.247601 -999.23499
-28.7759 20.179501 -998.612
-28.8395 20.1565 -997.94897
-29.082899 20.129801 -997.289
-28.7353 19.9641 -996.73199
-28.6702 19.876101 -996.11798
-28.651899 19.8111 -995.52698
-28.991301 19.847 -994.84399
-28.9475 19.7894 -994.25702
-28.634001 19.621 -993.71301
-28.7516 19.6101 -993.10901
-28.282301 19.4091 -992.62701
-28.1758 19.301901 -992.03601
-28.046499 19.2675 -991.49298
-28.224701 19.2304 -990.88202
-28.5319 19.2694 -990.26801
-27.919399 19.0555 -989.76898
-28.0833 19.0784 -989.18799
-27.3134 18.7845 -988.742
-27.7353 18.8657 -988.14398
-28.119101 18.936199 -987.54797
-26.9021 18.538099 -987.138
-27.7101 18.7516 -986.51398
-26.999001 18.495701 -986.01501
-27.314301 18.551399 -985.43103
-27.374001 18.4965 -984.88
-26.576799 18.235701 -984.45801
-27.1779 18.3668 -983.83002
-26.2253 18.0331 -983.44397
-26.558599 18.075399 -982.86603
-26.5058 18.0042 -982.38098
-25.748501 17.752701 -981.95599
-26.277599 17.870399 -981.367
-25.650299 17.6563 -980.95398
-25.2437 17.512699 -980.49402
-25.2756 17.509501 -979.99103
-24.681499 17.2861 -979.55701
-25.2136 17.4142 -978.98798
-24.065599 17.047899 -978.63501
-24.3445 17.101101 -978.11401
-24.388399 17.0798 -977.646
-23.4785 16.792101 -977.26801
-24.021799 16.9321 -976.72302
-23.0627 16.6147 -976.36298
-22.946199 16.548 -975.91602
-22.840599 16.523899 -975.453
-22.4105 16.3514 -975.02301
-22.537701 16.3652 -974.54602
-22.0373 16.2047 -974.146
-21.5735 16.065901 -973.75897
-21.1793 15.9241 -973.36102
-20.8293 15.8042 -972.95203
-20.819901 15.7853 -972.495
-20.3997 15.6542 -972.091
-20.168501 15.6024 -971.66998
-19.698 15.4523 -971.29797
-19.183901 15.2815 -970.92401
-19.232901 15.2954 -970.46399
-18.5215 15.0548 -970.14203
-18.141399 14.9436 -969.75702
-18.057899 14.8961 -969.33801
-17.5068 14.7231 -968.98901
-17.5399 14.7122 -968.55798
-16.797701 14.5025 -968.22601
-16.367201 14.3685 -967.86902
-16.1297 14.2911 -967.48499
-15.7931 14.1776 -967.11499
-15.3419 14.0793 -966.74402
-14.9091 13.9592 -966.39697
-14.5566 13.8275 -966.05798
-13.8513 13.617 -965.73602
-13.5635 13.5527 -965.35699
-13.409 13.5404 -964.98102
-12.499 13.2806 -964.72998
-12.0599 13.1586 -964.396
-11.5564 12.989 -964.07397
-11.3083 12.9307 -963.71198
-10.7669 12.7838 -963.38599
-10.1469 12.6346 -963.09399
-9.5595703 12.4701 -962.83398
-9.2153301 12.3884 -962.49597
-8.4834003 12.1635 -962.24597
-8.18365 12.0549 -961.90198
-7.58533 11.8829 -961.62097
-7.2019 11.7773 -961.30902
-6.6819501 11.6584 -961.03101
-6.1373301 11.5226 -960.76898
-5.3850698 11.3252 -960.51898
-5.00665 11.2288 -960.242
-4.26898 11.0546 -960.00098
-3.7271099 10.9183 -959.74701
-3.0429101 10.7531 -959.51599
-2.40961 10.6236 -959.28601
-1.74841 10.4665 -959.06702
-0.924438 10.2338 -958.87598
-0.211487 10.0497 -958.68201
0.44830301 9.9161997 -958.487
1.20941 9.7419996 -958.31702
2.00543 9.5391197 -958.16101
2.79742 9.3757601 -958.00403
3.64557 9.1880798 -957.87598
4.1638198 9.1040297 -957.72699
5.07306 8.8913898 -957.63
6.1472802 8.6350403 -957.54901
7.1287799 8.41782 -957.466
9.6256704 7.9421401 -957.19702
-16.6992 21.246201 -1027.33
-19.4326 21.466499 -1024.01
-19.7416 21.3386 -1022.77
-21.2742 21.539101 -1021.43
-21.882601 21.5704 -1020.24
-22.5427 21.573299 -1019.13
-23.3909 21.6443 -1018
-23.6665 21.595699 -1017.03
-24.268801 21.5989 -1016.06
-24.931801 21.6369 -1015.07
-24.554899 21.4396 -1014.32
-25.841801 21.6677 -1013.25
-25.7908 21.5499 -1012.43
-26.322901 21.5781 -1011.53
-26.621901 21.5485 -1010.67
-26.512199 21.4063 -1009.93
-27.2124 21.5243 -1009.04
-27.0844 21.3622 -1008.34
-27.550301 21.415501 -1007.51
-27.9139 21.4077 -1006.72
-27.805201 21.285 -1006.06
-27.6779 21.1896 -1005.44
-28.048599 21.155001 -1004.65
-28.103901 21.117701 -1003.97
-28.090799 21.046301 -1003.27
-28.449699 21.0777 -1002.54
-28.4484 20.9886 -1001.87
-28.4506 20.901899 -1001.19
-28.623199 20.8701 -1000.52
-28.4659 20.754801 -999.89502
-28.628599 20.743999 -999.237
-28.5707 20.697001 -998.61102
-28.6017 20.5797 -997.96503
-28.6675 20.5422 -997.328
-28.656099 20.4506 -996.70099
-28.652201 20.4125 -996.09302
-28.4807 20.291599 -995.50403
-28.5012 20.2202 -994.901
-28.4333 20.1474 -994.31702
-28.358101 20.057899 -993.73999
-28.433901 20.034901 -993.117
-28.1103 19.886299 -992.59399
-28.3638 19.922501 -991.95898
-27.842199 19.734699 -991.46198
-28.250099 19.7911 -990.81299
-28.1912 19.7111 -990.22699
-27.962799 19.5784 -989.672
-28.1576 19.564501 -989.08301
-27.5047 19.3587 -988.62402
-27.6859 19.361799 -988.02698
-27.635401 19.297001 -987.47699
-27.5236 19.205099 -986.94501
-27.4464 19.1474 -986.40399
-26.944901 18.9382 -985.93201
-27.1777 18.9583 -985.35901
-27.3762 18.945299 -984.78497
-26.604099 18.6661 -984.328
-26.977301 18.7246 -983.78198
-27.0805 18.771799 -983.20898
-26.721399 18.646299 -982.73102
-26.5345 18.434299 -981.75201
-25.2579 18.0704 -981.396
-25.7103 18.1642 -980.88898
-25.505199 18.0772 -979.87903
-24.313601 17.6987 -979.52197
-25.360001 17.9804 -978.91101
-24.056801 17.5779 -978.56799
-24.327499 17.628901 -978.05798
-24.068501 17.5252 -977.61902
-23.167999 17.2243 -977.24402
-23.674601 17.3587 -976.71802
-22.9415 17.1042 -976.31598
-23.0026 17.107599 -975.83099
-22.7859 17.0431 -975.39697
-22.191299 16.828501 -975
-22.4702 16.892401 -974.48499
-22.0247 16.7232 -974.09497
-21.9417 16.696199 -973.638
-21.3265 16.493799 -973.26801
-20.8556 16.3459 -972.87903
-20.580099 16.247 -972.45801
-20.416901 16.182199 -972.01703
-20.2456 16.086201 -971.591
-19.7145 15.9397 -971.23297
-19.440399 15.8391 -970.80499
-19.1632 15.7472 -970.37903
-18.592199 15.5518 -970.05103
-18.3992 15.5035 -969.63397
-17.9813 15.3516 -969.24298
-17.5515 15.2241 -968.86798
-17.3605 15.1586 -968.48798
-16.921801 15.0221 -968.11499
-16.7285 14.9389 -967.724
-16.2558 14.8212 -967.36102
-15.7594 14.6591 -967.01398
-15.2092 14.5079 -966.66199
-15.064 14.4662 -966.271
-14.6818 14.3472 -965.94397
-14.1802 14.2108 -965.58197
-14.0025 14.1225 -965.185
-13.6383 14.0106 -964.86499
-12.7449 13.7726 -964.60303
-12.2243 13.6264 -964.27502
-11.8621 13.5418 -963.94299
-11.4313 13.4198 -963.60199
-11.0687 13.2938 -963.25
-10.3764 13.127 -962.95898
-10.0757 13.0843 -962.63501
-9.5812397 12.9287 -962.36798
-8.9217501 12.7504 -962.099
-8.2581196 12.5816 -961.84601
-7.6801801 12.4331 -961.54999
-7.4007001 12.3854 -961.21301
-6.4970102 12.1352 -960.97498
-6.0129399 12.0004 -960.72498
-5.5228901 11.9033 -960.427
-4.9644799 11.7688 -960.17999
-4.2885098 11.5909 -959.94702
-3.62482 11.4053 -959.70502
-2.94537 11.2614 -959.46002
-2.1262801 11.0854 -959.21899
-1.75378 10.9906 -959.005
-0.90252697 10.7453 -958.81799
-0.31170699 10.5965 -958.58502
0.305664 10.4422 -958.37799
1.2064199 10.2331 -958.19598
1.89984 10.0972 -958.00598
2.7254 9.9095497 -957.85699
3.59131 9.7096901 -957.72998
4.5198398 9.4953003 -957.62402
-14.1607 21.155001 -1028.03
-17.8832 21.876301 -1025.74
-20.312 22.0404 -1022.69
-21.877899 22.300501 -1021.33
-21.9848 22.1856 -1020.28
-23.0383 22.2854 -1019.07
-23.3407 22.225 -1018.03
-23.608 22.1425 -1017.04
-24.5347 22.2411 -1016.02
-24.888201 22.222799 -1015.06
-24.856701 22.056601 -1014.24
-25.2432 22.059 -1013.35
-25.577 22.045601 -1012.47
-26.0217 22.058399 -1011.58
-26.0977 21.963699 -1010.78
-26.707001 22.032499 -1009.88
-26.7752 21.930901 -1009.15
-27.011999 21.9063 -1008.33
-27.43 21.9011 -1007.51
-27.280399 21.780899 -1006.82
-27.3563 21.7127 -1006.12
-27.6154 21.695101 -1005.42
-28.0502 21.745399 -1004.61
-27.936501 21.6012 -1003.97
-27.898899 21.5166 -1003.28
-28.0436 21.4743 -1002.58
-28.245501 21.451401 -1001.88
-28.1292 21.340401 -1001.23
-28.5257 21.3974 -1000.51
-28.271999 21.2855 -999.89099
-28.5229 21.251499 -999.21198
-28.2824 21.119699 -998.62903
-28.469801 21.076401 -997.95801
-28.333 20.9818 -997.35199
-28.413 20.9632 -996.70599
-28.548401 20.891399 -996.08502
-28.807501 20.9182 -995.41602
-28.424101 20.7442 -994.86102
-28.3853 20.691999 -994.26099
-28.503599 20.6626 -993.63501
-28.7087 20.681101 -992.98999
-28.1022 20.4328 -992.49597
-28.0667 20.3699 -991.90002
-28.212999 20.322399 -991.28101
-28.275101 20.2997 -990.677
-28.260201 20.212601 -990.099
-28.0233 20.111601 -989.55298
-28.1605 20.0795 -988.95697
-27.5811 19.8515 -988.52399
-27.774401 19.8759 -987.91101
-27.6357 19.7852 -987.38098
-27.8493 19.7269 -986.79199
-27.6628 19.6903 -986.30499
-27.277201 19.5021 -985.78699
-26.2335 19.2586 -985.44397
-25.301399 19.013599 -984.99103
-24.837 18.8498 -984.64801
-26.473101 19.2556 -983.79199
-27.254601 19.4345 -983.15002
-26.5583 19.007601 -981.19702
-25.4457 18.676399 -980.82599
-25.4807 18.6581 -980.30798
-25.4564 18.5984 -979.82397
-24.6952 18.330601 -979.41199
-24.867599 18.364901 -978.87402
-24.6719 18.259399 -978.414
-24.3929 18.151501 -977.95502
-23.820999 17.9354 -977.56097
-23.8617 17.933701 -977.05402
-23.3339 17.788 -976.63098
-23.312099 17.750799 -976.13702
-22.9888 17.611799 -975.71198
-22.908899 17.5548 -975.23798
-22.4305 17.373899 -974.83502
-22.404699 17.341801 -974.35303
-21.9123 17.1646 -973.95801
-21.7477 17.101 -973.50702
-21.334499 16.9659 -973.11603
-20.913099 16.8223 -972.72198
-20.6038 16.714399 -972.30902
-20.538 16.6668 -971.854
-20.052999 16.503799 -971.47998
-19.6707 16.4004 -971.08099
-19.410999 16.256701 -970.69098
-19.177299 16.2146 -970.25403
-18.749201 16.0686 -969.87201
-18.2598 15.9337 -969.5
-18.0504 15.8767 -969.091
-17.7885 15.7698 -968.70001
-17.227301 15.5811 -968.35199
-16.7549 15.4532 -967.99103
-16.6404 15.4127 -967.58099
-16.010599 15.2302 -967.24597
-15.7905 15.1456 -966.85999
-15.5541 15.0933 -966.46802
-14.9957 14.909 -966.13397
-14.5217 14.7874 -965.79303
-14.3003 14.7242 -965.41699
-13.6954 14.5374 -965.10303
-13.147 14.3692 -964.78497
-12.7425 14.2639 -964.44202
-12.2115 14.1018 -964.13599
-11.704 13.9695 -963.81
-11.4297 13.8657 -963.46899
-11.0693 13.7837 -963.125
-10.3853 13.587 -962.82898
-9.80548 13.3936 -962.54602
-9.4393902 13.2957 -962.23102
-8.7565899 13.1384 -961.95801
-8.40833 13.078 -961.64001
-7.9099102 12.9397 -961.35303
-7.5113502 12.8279 -961.04602
-6.4684401 12.5505 -960.84601
-6.2089801 12.5252 -960.539
-5.8054199 12.4102 -960.255
-4.8298998 12.1641 -960.06097
-4.51752 12.0961 -959.797
-3.6751101 11.8961 -959.591
-3.24982 11.8183 -959.302
-2.1550901 11.5242 -959.133
-1.66064 11.4203 -958.94202
-1.00085 11.2778 -958.71399
-0.24304201 11.1242 -958.51202
0.42175299 10.9736 -958.32599
1.09589 10.8151 -958.13
2.0413799 10.5941 -957.95099
2.8364899 10.4406 -957.78497
3.5421801 10.2774 -957.65399
4.4864502 10.0393 -957.54602
-13.47 21.7495 -1028.5601
-16.431299 22.181299 -1026.24
-18.2173 22.349199 -1024.52
-20.344801 22.677401 -1022.81
-20.1462 22.451599 -1021.76
-21.719101 22.6663 -1020.38
-21.777 22.5315 -1019.36
-23.031401 22.730499 -1018.14
-23.5396 22.701599 -1017.12
-23.5403 22.567699 -1016.2
-24.4517 22.6623 -1015.15
-24.4683 22.5599 -1014.32
-25.1693 22.641199 -1013.36
-24.9578 22.469299 -1012.57
-25.5103 22.5179 -1011.66
-25.940701 22.521299 -1010.78
-26.2386 22.489599 -1009.96
-26.614 22.4834 -1009.12
-27.118 22.507999 -1008.29
-26.9846 22.371099 -1007.59
-26.9659 22.2668 -1006.86
-27.0438 22.188299 -1006.17
-27.4193 22.233601 -1005.43
-27.495501 22.159201 -1004.7
-27.893299 22.1812 -1003.94
-27.7724 22.064699 -1003.25
-27.6999 21.958799 -1002.6
-27.852699 21.918699 -1001.9
-27.9445 21.8556 -1001.24
-28.1285 21.8102 -1000.55
-28.2104 21.776899 -999.883
-28.437201 21.778799 -999.203
-28.0569 21.5867 -998.62201
-28.4543 21.6469 -997.89899
-28.247999 21.532101 -997.297
-28.3512 21.5068 -996.66199
-28.221901 21.391199 -996.021
-28.456499 21.381701 -995.35498
-28.271 21.2607 -994.74402
-28.347799 21.214701 -994.11401
-28.4802 21.1814 -993.48401
-28.4666 21.124599 -992.88501
-28.233801 20.9876 -992.362
-28.4202 20.9939 -991.71002
-28.1064 20.825701 -991.19098
-28.2519 20.816601 -990.57703
-28.0056 20.68 -990.052
-27.771999 20.5867 -989.51001
-28.1619 20.6427 -988.883
-27.567699 20.425501 -988.41498
-27.5506 20.378799 -987.85699
-27.385599 20.297001 -987.35199
-27.503099 20.279699 -986.76001
-27.494101 20.2498 -986.26398
-26.7617 20.017401 -985.79602
-26.867201 20.0159 -985.25
-26.820999 19.968599 -984.716
-26.907301 20.020901 -984.09198
-27.1129 19.9848 -983.56
-26.7349 19.7939 -983.112
-26.905001 19.784 -982.56201
-26.301201 19.566299 -982.10602
-25.6418 19.3067 -981.68103
-25.8363 19.3279 -981.13501
-25.5305 19.1961 -980.67297
-25.620501 19.171801 -980.15302
-25.1765 18.9977 -979.703
-24.835699 18.8668 -979.23401
-24.750299 18.807699 -978.75
-24.4512 18.705999 -978.28802
-24.1523 18.5783 -977.83899
-24.184799 18.5453 -977.349
-23.837099 18.4172 -976.90198
-23.540199 18.341299 -976.46399
-23.2327 18.220301 -976.02698
-22.9109 18.102301 -975.60101
-22.7202 18.0382 -975.125
-22.320999 17.8808 -974.71002
-22.4069 17.882401 -974.23199
-21.881201 17.7101 -973.83301
-21.6861 17.6101 -973.39899
-21.324301 17.4944 -972.98798
-21.0674 17.4039 -972.57599
-20.754299 17.3004 -972.16901
-20.4361 17.1903 -971.74597
-20.0259 17.058701 -971.34198
-19.735399 16.9646 -970.94098
-19.4592 16.872 -970.53998
-19.001499 16.702101 -970.15997
-18.5471 16.5728 -969.77502
-18.333401 16.4886 -969.36902
-18.0588 16.410101 -968.96997
-17.8272 16.325399 -968.58698
-17.405899 16.1716 -968.20898
-16.873501 16.021 -967.86298
-16.6485 15.968 -967.46399
-16.183001 15.8097 -967.11298
-15.6594 15.6454 -966.758
-15.3947 15.5739 -966.37299
-14.9612 15.4535 -966.01703
-14.6708 15.3553 -965.65302
-14.1956 15.2029 -965.32202
-13.6724 15.0649 -964.98602
-13.2864 14.9594 -964.63397
-12.7529 14.8256 -964.31598
-12.2738 14.6866 -963.99298
-11.7027 14.5263 -963.68597
-11.4136 14.4487 -963.33002
-11.0305 14.3427 -963.00403
-10.463 14.163 -962.70599
-9.9882202 14.0676 -962.38
-9.4904203 13.9194 -962.086
-9.0508404 13.8029 -961.78998
-8.2874098 13.5874 -961.52502
-7.9379902 13.5088 -961.20398
-7.4870601 13.4128 -960.90698
-6.7966299 13.2287 -960.65503
-6.2837501 13.088 -960.38098
-5.5142798 12.8741 -960.14099
-4.84198 12.7214 -959.89099
-4.31464 12.5732 -959.63599
-3.71436 12.4377 -959.375
-3.1131001 12.298 -959.13898
