# .PCD v0.7 - Point Cloud Data file format
VERSION 0.7
FIELDS x y z
SIZE 4 4 4
TYPE F F F
COUNT 1 1 1
WIDTH 1702
HEIGHT 1
VIEWPOINT 0 0 0 1 0 0 0
POINTS 1702
DATA ascii
0.777771 -16.576401 -1051.77
0.22228999 -16.509199 -1051.6899
-0.236145 -16.541 -1051.47
-0.81841999 -16.506201 -1051.34
-0.97534198 -16.830999 -1050.77
-1.89697 -16.4228 -1051.1
-2.11255 -16.658199 -1050.65
-2.6685801 -16.5923 -1050.59
-3.3510101 -16.4478 -1050.62
-3.50122 -16.747499 -1050.09
-4.5120802 -16.2796 -1050.48
-4.94312 -16.287001 -1050.3199
-5.4351802 -16.172899 -1050.3101
-5.7800899 -16.338499 -1049.95
-5.9847398 -16.704901 -1049.3
-6.9661899 -16.3414 -1049.59
-6.9719801 -16.77 -1048.91
-7.5855699 -16.6658 -1048.86
-8.5068398 -16.316401 -1049.11
-8.4693604 -16.790701 -1048.4
-9.3646898 -16.388 -1048.73
-9.83325 -16.380899 -1048.5699
-10.2146 -16.488199 -1048.27
-10.7567 -16.498301 -1048.12
-11.3005 -16.5145 -1047.92
-11.7631 -16.585199 -1047.66
-12.2251 -16.6653 -1047.37
-12.831 -16.6024 -1047.24
-13.101 -16.851999 -1046.77
-13.8066 -16.701099 -1046.77
-14.156 -16.9202 -1046.37
-14.6833 -16.924299 -1046.15
-15.1435 -16.9758 -1045.86
-15.5861 -17.1049 -1045.55
-16.0826 -17.1528 -1045.29
-16.487 -17.339001 -1044.92
-17.055799 -17.2946 -1044.74
-17.4293 -17.476101 -1044.3199
-18.016701 -17.472099 -1044.1
-18.2729 -17.759899 -1043.5699
-19.0198 -17.6357 -1043.5699
-19.139799 -18.0494 -1042.89
-20.0632 -17.7001 -1043.2
-20.4069 -17.8573 -1042.8101
-20.898701 -17.9622 -1042.5
-21.4405 -18.0287 -1042.2
-21.9233 -18.136801 -1041.86
-22.2178 -18.4526 -1041.22
-22.632299 -18.681801 -1040.77
-23.813101 -18.7257 -1040.3199
-24.1933 -18.9195 -1039.86
-24.666599 -19.0842 -1039.45
-25.139 -19.2913 -1038.96
-25.532801 -19.5305 -1038.36
-25.9648 -19.764601 -1037.9399
-26.4554 -19.876301 -1037.5699
-26.881701 -20.1203 -1037.0699
-27.3283 -20.3643 -1036.5
-27.4041 -20.9625 -1035.52
-28.1584 -20.9835 -1035.22
-28.7026 -21.15 -1034.8101
-29.2225 -21.3477 -1034.33
-29.4296 -21.8442 -1033.51
-30.6166 -21.3661 -1033.76
-30.025499 -22.7917 -1031.62
-30.6436 -23.0546 -1031.12
-31.1415 -23.256901 -1030.61
-31.8524 -23.256701 -1030.36
-32.071098 -23.756599 -1029.47
-32.512199 -24.178301 -1028.71
-32.9688 -24.4755 -1028.09
-33.466202 -24.6898 -1027.52
-33.844299 -25.124399 -1026.6801
-34.001099 -25.975 -1025.37
-34.144199 -26.6297 -1024.1899
-34.957699 -26.688 -1023.84
-35.753502 -26.8325 -1023.33
-35.924301 -27.6061 -1022.02
-35.700199 -28.775499 -1020.32
-36.567101 -28.9543 -1019.68
-37.007599 -29.588301 -1018.5
-36.957802 -30.728901 -1016.71
-37.437901 -31.3559 -1015.51
-37.947899 -32.368599 -1013.82
-37.679298 -34.1749 -1010.9
30.2423 -24.0809 -1048.1801
29.5399 -23.7272 -1048.52
28.209499 -23.059799 -1049.16
27.4536 -22.6756 -1049.5
27.0352 -22.6665 -1049.42
26.360001 -22.4175 -1049.6
25.7659 -22.204 -1049.78
25.229 -22.0075 -1049.91
24.606899 -21.763399 -1050.1
24.0026 -21.518 -1050.28
23.3895 -21.2649 -1050.46
22.823299 -21.0954 -1050.6
22.2498 -20.8971 -1050.73
21.6574 -20.6947 -1050.89
21.153999 -20.5453 -1050.95
20.491699 -20.269699 -1051.14
19.969299 -20.1357 -1051.1899
19.3659 -19.9512 -1051.3199
18.874701 -19.8274 -1051.37
18.2377 -19.570999 -1051.52
17.6768 -19.422899 -1051.5601
17.015301 -19.2015 -1051.71
16.365999 -18.9429 -1051.9399
15.8544 -18.751301 -1052.11
15.3657 -18.586399 -1052.1801
14.7523 -18.4109 -1052.27
14.1691 -18.2672 -1052.3199
13.6592 -18.183001 -1052.3199
13.0775 -18.0427 -1052.36
12.4838 -17.898399 -1052.41
11.9177 -17.7649 -1052.45
11.4345 -17.648199 -1052.42
10.8286 -17.466801 -1052.52
10.2261 -17.315599 -1052.59
9.81073 -17.304501 -1052.48
9.2421904 -17.165199 -1052.51
8.5829496 -16.975599 -1052.61
8.1453199 -16.939501 -1052.51
7.599 -16.840599 -1052.5
7.0421801 -16.721201 -1052.5
6.6475801 -16.741301 -1052.33
5.9039898 -16.5172 -1052.47
5.5659199 -16.593599 -1052.23
5.0167198 -16.4711 -1052.23
4.52496 -16.4321 -1052.14
4.1008902 -16.470699 -1051.98
3.1874399 -16.0753 -1052.3
2.92114 -16.2187 -1051.99
2.22278 -15.999 -1052.08
1.7561001 -16.0175 -1051.9399
1.50946 -16.179501 -1051.59
0.75744599 -15.9534 -1051.73
0.025634799 -15.7787 -1051.8101
-0.22827099 -15.9931 -1051.35
-0.90490699 -15.8484 -1051.33
-0.90771502 -16.3011 -1050.62
-1.97101 -15.8032 -1051.09
-2.0118999 -16.143299 -1050.46
-2.5665901 -16.0658 -1050.39
-3.38165 -15.8328 -1050.59
-3.60516 -16.042 -1050.13
-4.2938199 -15.8419 -1050.2
-4.7523799 -15.8472 -1050.04
-5.3634 -15.6744 -1050.17
-5.6993999 -15.7957 -1049.85
-5.89819 -16.180201 -1049.21
-6.8474102 -15.8373 -1049.4399
-7.0560298 -16.0762 -1048.9301
-7.7251601 -15.9518 -1048.9301
-8.4068003 -15.788 -1048.96
-8.3642597 -16.2808 -1048.2
-9.4011803 -15.814 -1048.64
-9.9469604 -15.7596 -1048.5601
-10.2756 -15.8393 -1048.25
-10.7749 -15.8718 -1048.08
-11.2275 -15.9385 -1047.8101
-11.6687 -16.0324 -1047.49
-12.116 -16.1534 -1047.21
-12.8442 -16.003401 -1047.17
-13.222 -16.139601 -1046.86
-13.6059 -16.2549 -1046.53
-14.1429 -16.2833 -1046.33
-14.7313 -16.268299 -1046.1801
-15.0814 -16.4445 -1045.77
-15.5892 -16.482201 -1045.54
-16.0497 -16.5739 -1045.24
-16.6047 -16.604 -1045.01
-16.9988 -16.7575 -1044.64
-17.4867 -16.8409 -1044.3
-17.877399 -17.0056 -1043.91
-18.275999 -17.167101 -1043.52
-19.093599 -17.0056 -1043.55
-18.871401 -17.6796 -1042.52
-19.769699 -17.374701 -1042.75
-20.558399 -17.180799 -1042.9
-20.8874 -17.3745 -1042.38
-21.237499 -17.5951 -1041.91
-21.6653 -17.7479 -1041.49
-22.317801 -17.8248 -1041.21
-22.628099 -18.089001 -1040.61
-23.005699 -18.317499 -1040.15
-23.756201 -18.1929 -1040.14
-24.204 -18.3228 -1039.76
-24.506599 -18.6471 -1039.17
-24.9795 -18.8806 -1038.6899
-25.311501 -19.186001 -1038.01
-25.789499 -19.354 -1037.58
-26.2155 -19.5401 -1037.14
-26.842501 -19.613501 -1036.85
-27.393 -19.759199 -1036.42
-27.373699 -20.4021 -1035.38
-28.323999 -20.2363 -1035.33
-28.562 -20.6366 -1034.59
-28.925501 -20.9634 -1033.99
-29.442801 -21.1507 -1033.49
-29.791401 -21.407499 -1032.98
-30.459 -21.489799 -1032.61
-30.597 -22.256399 -1031.23
-31.009001 -22.6947 -1030.51
-31.691099 -22.665501 -1030.28
-32.447102 -22.686001 -1029.95
-32.188599 -23.8302 -1028.27
-32.7425 -24.072001 -1027.6899
-33.131699 -24.480101 -1026.95
-33.753101 -24.7558 -1026.35
-33.8605 -25.4834 -1025.14
-34.286701 -25.9002 -1024.28
-35.312401 -25.7784 -1024.1
-35.210899 -26.7952 -1022.58
-35.8633 -27.062201 -1021.86
-36.018902 -27.793301 -1020.67
-37.053299 -27.853701 -1020.26
-36.884602 -29.112101 -1018.24
-36.9412 -30.1273 -1016.59
-37.629501 -30.5425 -1015.7
33.5723 -25.2677 -1046.28
32.8423 -24.896299 -1046.7
32.198299 -24.5331 -1047.0601
31.563101 -24.179899 -1047.41
30.8927 -23.837999 -1047.77
30.1798 -23.4783 -1048.15
29.4786 -23.107901 -1048.51
28.861099 -22.782101 -1048.78
28.271099 -22.496901 -1049.03
27.733601 -22.3311 -1049.17
27.099899 -22.1222 -1049.29
26.336201 -21.8118 -1049.53
25.796301 -21.6364 -1049.66
25.2407 -21.4524 -1049.8101
24.590599 -21.172899 -1050.04
24.003799 -20.940701 -1050.21
23.439699 -20.763201 -1050.35
22.8932 -20.561501 -1050.46
22.293301 -20.313801 -1050.61
21.7097 -20.1448 -1050.76
21.1367 -19.931 -1050.88
20.4417 -19.6646 -1051.1
19.880699 -19.496599 -1051.1899
19.4177 -19.3839 -1051.1801
18.796101 -19.176201 -1051.3199
18.3092 -19.068001 -1051.34
17.7166 -18.889999 -1051.4301
17.0247 -18.649401 -1051.61
16.5135 -18.495501 -1051.71
16.02 -18.3242 -1051.85
15.3768 -18.0317 -1052.09
14.8635 -17.9142 -1052.11
14.2248 -17.747299 -1052.21
13.7271 -17.685101 -1052.15
13.1702 -17.5707 -1052.15
12.4861 -17.3645 -1052.26
11.9257 -17.211901 -1052.3101
11.3633 -17.034901 -1052.41
10.8976 -16.9524 -1052.36
10.3596 -16.8354 -1052.38
9.9366503 -16.8193 -1052.29
9.3571196 -16.701401 -1052.3101
8.7417002 -16.5282 -1052.33
8.2864399 -16.480301 -1052.25
7.59796 -16.2628 -1052.42
7.0834398 -16.1796 -1052.38
6.5886798 -16.1579 -1052.3
5.9963999 -15.9953 -1052.3101
5.5545702 -16.0144 -1052.17
5.0348501 -15.9373 -1052.13
4.4642901 -15.799 -1052.12
4.0949101 -15.9015 -1051.89
3.35724 -15.6272 -1052.03
2.96808 -15.6935 -1051.85
2.4379301 -15.6185 -1051.78
1.92712 -15.5644 -1051.6899
1.4433 -15.5497 -1051.59
0.86749297 -15.4599 -1051.55
-0.336548 -14.8768 -1052.05
-0.531982 -15.1868 -1051.52
-0.88208002 -15.3032 -1051.2
-0.86785901 -15.7131 -1050.5
-1.79584 -15.3242 -1050.84
-1.96185 -15.6236 -1050.35
-2.47333 -15.5862 -1050.24
-3.33606 -15.2647 -1050.45
-3.4834599 -15.5598 -1049.9399
-4.3309302 -15.2479 -1050.1899
-4.74438 -15.2782 -1049.99
-5.2656898 -15.1725 -1050.01
-5.8126798 -15.1233 -1049.92
-6.0421801 -15.4571 -1049.3101
-6.81952 -15.2433 -1049.36
-6.9881601 -15.5764 -1048.8101
-7.5976 -15.471 -1048.75
-8.1304903 -15.4328 -1048.63
-8.3262901 -15.7288 -1048.1
-9.4017296 -15.2264 -1048.54
-9.5903301 -15.5145 -1048.08
-10.1656 -15.3886 -1048.05
-10.7262 -15.3272 -1047.97
-11.1124 -15.4372 -1047.66
-11.8195 -15.333 -1047.62
-11.9622 -15.668 -1047
-12.5831 -15.5822 -1046.9
-13.0814 -15.6457 -1046.6801
-13.4897 -15.7556 -1046.37
-14.2007 -15.6264 -1046.35
-14.4152 -15.959 -1045.8101
-15.0339 -15.8696 -1045.6899
-15.3389 -16.089001 -1045.24
-15.9708 -16.038099 -1045.11
-16.5245 -16.084299 -1044.88
-16.987499 -16.208599 -1044.5601
-17.4261 -16.3272 -1044.2
-17.9196 -16.3988 -1043.89
-18.2092 -16.6826 -1043.34
-18.8561 -16.6033 -1043.22
-19.198999 -16.777 -1042.8199
-19.833599 -16.7061 -1042.64
-20.6353 -16.5401 -1042.77
-20.7631 -16.978201 -1042.08
-21.4403 -16.929701 -1041.95
-21.6931 -17.259399 -1041.3101
-22.1063 -17.452999 -1040.85
-22.5756 -17.621099 -1040.42
-22.751101 -18.0238 -1039.6899
-23.5436 -17.837799 -1039.74
-23.9396 -18.033701 -1039.29
-24.520399 -18.1418 -1038.99
-24.780899 -18.510099 -1038.27
-25.353201 -18.5914 -1037.92
-25.6758 -18.8766 -1037.36
-26.1427 -19.080799 -1036.9
-26.670799 -19.2451 -1036.5
-27.151199 -19.403299 -1036.01
-27.3834 -19.835199 -1035.27
-27.9744 -19.9776 -1034.87
-28.4783 -20.140699 -1034.4301
-29.185301 -20.136101 -1034.17
-29.381901 -20.614901 -1033.37
-29.680201 -20.920099 -1032.79
-30.627701 -20.7054 -1032.8199
-31.123501 -21.018101 -1032.22
-30.881001 -22.0399 -1030.5699
-31.4872 -22.180099 -1030.14
-32.337799 -22.0952 -1030
-32.165298 -23.225599 -1028.17
-32.613098 -23.5977 -1027.46
-33.110802 -23.921801 -1026.83
-33.5896 -24.2953 -1026.08
-33.921001 -24.718901 -1025.1801
-34.4949 -25.071699 -1024.48
-35.231098 -25.2708 -1023.96
-35.2216 -26.117001 -1022.55
-35.8633 -26.430799 -1021.85
-35.994701 -27.176001 -1020.6
-37.042999 -27.1455 -1020.36
-36.599998 -28.755501 -1017.87
-36.834499 -29.6322 -1016.37
-37.540501 -30.044001 -1015.5
-37.782799 -30.9638 -1013.94
-38.635899 -33.133301 -1009.98
32.304401 -23.9767 -1046.92
30.908899 -23.1973 -1047.6899
30.187099 -22.827499 -1048.09
29.451099 -22.4349 -1048.48
28.8344 -22.1542 -1048.76
28.296301 -21.9151 -1048.9399
27.686701 -21.705099 -1049.14
27.193399 -21.6021 -1049.1
26.5154 -21.338699 -1049.27
25.8391 -21.047199 -1049.53
25.253799 -20.823299 -1049.72
24.708 -20.6227 -1049.85
24.200399 -20.462299 -1049.9399
23.534401 -20.1957 -1050.1801
22.953199 -19.9748 -1050.3101
22.360001 -19.752399 -1050.47
21.8493 -19.608 -1050.54
21.281601 -19.428499 -1050.65
20.597799 -19.1623 -1050.88
19.9869 -18.954399 -1051.01
19.441999 -18.784401 -1051.1
18.9114 -18.6495 -1051.15
18.327801 -18.4709 -1051.24
17.700001 -18.263201 -1051.36
17.1593 -18.1346 -1051.4
16.630199 -18.0089 -1051.46
15.9911 -17.7386 -1051.71
15.4268 -17.5154 -1051.9
14.75 -17.256701 -1052.09
14.2894 -17.1798 -1052.01
13.9004 -17.2383 -1051.85
13.2608 -17.072201 -1051.86
12.4956 -16.815901 -1052.0699
12.0593 -16.7845 -1051.99
11.449 -16.528601 -1052.16
10.9371 -16.4088 -1052.22
10.3755 -16.254299 -1052.25
9.9662504 -16.2651 -1052.13
9.5565205 -16.2873 -1051.96
8.7550001 -16.000999 -1052.16
8.1478901 -15.8386 -1052.23
7.6575298 -15.7086 -1052.22
7.1515498 -15.615 -1052.22
6.8028002 -15.7061 -1052.01
6.0039701 -15.3904 -1052.23
5.8178101 -15.6244 -1051.8
5.1319599 -15.4519 -1051.88
4.5231299 -15.2913 -1051.91
4.3919101 -15.576 -1051.41
3.3096299 -15.054 -1051.9
3.0209401 -15.1727 -1051.63
2.49719 -15.1125 -1051.58
2.0162399 -15.0824 -1051.47
1.73712 -15.2111 -1051.13
0.81646699 -14.8173 -1051.45
0.52990699 -15.063 -1050.95
-0.158447 -14.916 -1050.98
-0.77227801 -14.7687 -1051
-0.90264899 -15.0779 -1050.48
-1.7128299 -14.7678 -1050.6899
-1.92883 -15.033 -1050.24
-2.6050401 -14.8508 -1050.29
-3.3897099 -14.6086 -1050.4399
-3.5174 -14.9178 -1049.89
-4.14819 -14.759 -1049.9301
-4.5587802 -14.7894 -1049.74
-5.15308 -14.6287 -1049.8101
-5.67346 -14.6138 -1049.71
-5.8357501 -14.9705 -1049.05
-6.4934101 -14.8985 -1048.97
-6.9288902 -14.978 -1048.67
-7.6599698 -14.7999 -1048.75
-8.1945801 -14.764 -1048.62
-8.2982197 -15.1433 -1048
-9.1523399 -14.8156 -1048.2
-9.4612999 -15.0217 -1047.79
-10.0838 -14.9073 -1047.8101
-10.7728 -14.7013 -1047.9
-11.1664 -14.7542 -1047.64
-11.488 -14.9424 -1047.25
-12.0616 -14.944 -1047.09
-12.5439 -14.9923 -1046.86
-13.0414 -15.0192 -1046.61
-13.4033 -15.1969 -1046.24
-14.2527 -14.9903 -1046.33
-14.3268 -15.4284 -1045.59
-15.0298 -15.2781 -1045.61
-15.6545 -15.1917 -1045.49
-15.7811 -15.6156 -1044.79
-16.4655 -15.5183 -1044.73
-16.793699 -15.72 -1044.24
-17.2075 -15.8686 -1043.87
-17.738199 -15.9233 -1043.62
-18.1782 -16.039301 -1043.33
-18.785601 -15.9994 -1043.16
-19.031601 -16.2806 -1042.59
-19.8864 -16.096701 -1042.65
-20.154499 -16.3985 -1042.09
-20.410801 -16.675699 -1041.5
-21.2736 -16.4676 -1041.58
-21.570999 -16.753 -1041.04
-22.105801 -16.857 -1040.6899
-22.310101 -17.2188 -1040.02
-22.8323 -17.350401 -1039.7
-23.370199 -17.415701 -1039.42
-23.8985 -17.492599 -1039.08
-24.278299 -17.7512 -1038.5601
-24.9221 -17.7488 -1038.3101
-25.028601 -18.221201 -1037.5601
-25.743299 -18.2048 -1037.35
-26.279699 -18.338499 -1036.96
-26.764999 -18.5123 -1036.5
-27.2701 -18.6744 -1036.0601
-27.5786 -19.034 -1035.4301
-27.9576 -19.277399 -1034.86
-28.3692 -19.575199 -1034.25
-28.695601 -19.968399 -1033.55
-29.282101 -20.062599 -1033.1801
-29.635599 -20.339399 -1032.59
-30.260599 -20.413099 -1032.34
-30.975901 -20.4021 -1032.14
-31.2148 -20.917101 -1031.25
-31.247101 -21.6133 -1030.04
-32.072601 -21.5061 -1029.97
-31.9841 -22.667801 -1028.09
-32.736801 -22.8428 -1027.58
-32.7994 -23.5252 -1026.45
-33.552898 -23.6355 -1026.04
-34.0023 -24.008301 -1025.27
-34.247002 -24.608999 -1024.23
-35.052299 -24.729601 -1023.79
-35.346298 -25.2925 -1022.75
-35.758099 -25.8347 -1021.78
-35.9552 -26.532301 -1020.58
-36.5774 -26.8564 -1019.89
-36.457199 -28.123301 -1017.85
-37.065102 -28.750299 -1016.6
-37.202599 -29.7743 -1014.9
-37.2388 -30.873899 -1013.19
-38.132599 -31.426001 -1012.04
31.547199 -22.880199 -1047.37
30.8442 -22.5252 -1047.73
30.2493 -22.244801 -1047.99
29.674601 -21.9688 -1048.22
28.9426 -21.603201 -1048.6
28.3943 -21.360201 -1048.77
27.680401 -21.080601 -1049.03
27.1052 -20.931499 -1049.0601
26.5793 -20.7911 -1049.12
25.976601 -20.5557 -1049.3199
25.3619 -20.3076 -1049.53
24.7232 -20.025299 -1049.76
24.070299 -19.756201 -1049.99
23.5821 -19.6127 -1050.05
22.9056 -19.3106 -1050.27
22.3976 -19.165199 -1050.36
21.857 -19.031799 -1050.46
21.211399 -18.803699 -1050.65
20.6042 -18.601101 -1050.79
20.1127 -18.4599 -1050.8199
19.578199 -18.268999 -1050.88
18.946301 -18.109699 -1051.03
18.427601 -17.9785 -1051.0699
17.730301 -17.6854 -1051.26
17.233299 -17.596001 -1051.26
16.563299 -17.3479 -1051.4301
16.087999 -17.261999 -1051.46
15.5557 -17.094801 -1051.55
14.9342 -16.875601 -1051.71
14.3555 -16.7213 -1051.77
14.0024 -16.7845 -1051.53
13.3457 -16.5903 -1051.63
12.6902 -16.375799 -1051.75
12.3124 -16.385201 -1051.59
11.6082 -16.1355 -1051.8199
11.0797 -15.991 -1051.86
10.5869 -15.8991 -1051.86
9.9352999 -15.6935 -1051.98
9.7255201 -15.8688 -1051.59
8.7254601 -15.4195 -1052.01
8.3385601 -15.4 -1051.87
7.8947101 -15.3366 -1051.83
7.1754198 -15.0692 -1052.04
6.64606 -14.9974 -1052.04
6.09863 -14.8892 -1052.01
5.9855299 -15.2171 -1051.47
5.18262 -14.9463 -1051.66
4.5089698 -14.7108 -1051.76
4.49792 -15.1108 -1051.12
3.4484899 -14.6056 -1051.59
3.3136001 -14.8792 -1051.12
2.63763 -14.6823 -1051.21
1.8582799 -14.4076 -1051.4399
2.0057399 -14.9184 -1050.59
0.91204798 -14.3787 -1051.12
0.752258 -14.6671 -1050.6
0.018249501 -14.4591 -1050.73
-0.633362 -14.2853 -1050.79
-0.79199201 -14.5673 -1050.28
-1.57745 -14.3032 -1050.46
-1.70673 -14.5999 -1049.92
-2.5261199 -14.317 -1050.12
-3.1761501 -14.1598 -1050.14
-3.26019 -14.537 -1049.5601
-4.2017202 -14.097 -1049.9
-4.5778198 -14.1849 -1049.65
-5.0799599 -14.1178 -1049.64
-5.5583501 -14.0958 -1049.53
-5.9153399 -14.2771 -1049.0699
-6.72052 -14.0929 -1049.13
-6.8147602 -14.4786 -1048.51
-7.526 -14.3002 -1048.52
-8.1209097 -14.2076 -1048.46
-8.2268105 -14.5778 -1047.86
-9.3179903 -14.0847 -1048.29
-9.2766705 -14.5526 -1047.52
-9.9901695 -14.3933 -1047.5699
-10.6818 -14.2066 -1047.65
-11.0072 -14.3421 -1047.35
-11.4868 -14.3781 -1047.1899
-12.2217 -14.2294 -1047.21
-12.5839 -14.3432 -1046.8199
-12.9336 -14.5041 -1046.41
-13.2689 -14.714 -1045.99
-14.2331 -14.3835 -1046.1801
-14.2406 -14.9146 -1045.36
-14.7346 -14.9259 -1045.17
-15.4656 -14.7406 -1045.22
-15.8221 -14.922 -1044.8101
-16.3971 -14.9296 -1044.61
-16.884199 -14.999 -1044.34
-17.386 -15.076 -1044.05
-17.615999 -15.36 -1043.52
-18.3517 -15.2511 -1043.51
-18.751499 -15.4155 -1043.08
-19.2341 -15.4943 -1042.77
-19.7875 -15.5881 -1042.48
-20.1852 -15.7715 -1042.05
-20.6464 -15.8735 -1041.67
-20.907301 -16.164499 -1041.11
-21.5375 -16.1469 -1040.97
-21.837 -16.446699 -1040.39
-22.337 -16.562 -1039.99
-22.908899 -16.639 -1039.71
-23.4359 -16.6985 -1039.4399
-23.8517 -16.898399 -1038.97
-24.2029 -17.1688 -1038.4301
-24.6691 -17.3482 -1037.99
-25.240999 -17.4259 -1037.73
-25.462601 -17.7924 -1037.03
-26.3715 -17.5958 -1037.04
-26.4338 -18.1567 -1036.09
-27.0762 -18.2393 -1035.8
-27.3743 -18.5401 -1035.2
-27.936001 -18.657101 -1034.79
-28.3867 -18.926901 -1034.23
-28.617701 -19.378799 -1033.42
-29.3694 -19.367701 -1033.1899
-29.6833 -19.725201 -1032.52
-30.034201 -20.0305 -1031.91
-30.5875 -20.1318 -1031.5601
-31.0769 -20.361 -1031.0699
-31.493999 -20.676399 -1030.4399
-31.7787 -20.999399 -1029.77
-32.726898 -22.1726 -1027.62
-32.9814 -22.7054 -1026.65
-33.577099 -22.9361 -1026.04
-33.525398 -23.6943 -1024.77
-34.065102 -24.0772 -1024.09
-34.839298 -24.2082 -1023.59
-34.98 -24.9489 -1022.35
-35.910999 -24.9648 -1022.03
-36.015301 -25.812 -1020.63
-36.534199 -26.1628 -1019.86
-37.089199 -26.846001 -1018.54
-37.036701 -28.064699 -1016.6
-37.743801 -29.839399 -1013.44
-37.698601 -31.1667 -1011.38
31.5161 -22.2334 -1047.34
30.8424 -21.9027 -1047.66
30.2708 -21.662701 -1047.89
29.698099 -21.4247 -1048.14
29.036501 -21.0772 -1048.4399
28.3797 -20.783199 -1048.6899
27.794901 -20.617201 -1048.76
27.209999 -20.432301 -1048.83
26.5928 -20.189501 -1049.03
25.9296 -19.915501 -1049.29
25.453501 -19.7735 -1049.37
24.8167 -19.502501 -1049.59
24.165701 -19.234699 -1049.8
23.505899 -18.9786 -1050.04
22.998501 -18.8188 -1050.1
22.499901 -18.657499 -1050.17
21.816401 -18.3962 -1050.41
21.2794 -18.223301 -1050.5
20.7199 -18.056999 -1050.59
20.1577 -17.8757 -1050.6801
19.6376 -17.7237 -1050.74
19.0793 -17.577999 -1050.8101
18.4667 -17.3613 -1050.9301
17.828199 -17.1602 -1051.08
17.276199 -17.014799 -1051.15
16.603201 -16.765499 -1051.3199
16.018101 -16.5879 -1051.4
15.5618 -16.5028 -1051.39
15.1635 -16.506201 -1051.28
14.4116 -16.2064 -1051.51
13.9976 -16.1917 -1051.38
13.4193 -16.0306 -1051.4301
12.8771 -15.9163 -1051.46
12.2769 -15.767 -1051.52
11.6088 -15.5605 -1051.67
11.178 -15.5282 -1051.58
10.5552 -15.3538 -1051.6801
9.9439697 -15.1554 -1051.75
9.6332397 -15.2406 -1051.48
8.9612398 -15.0254 -1051.61
8.5032997 -14.9476 -1051.61
7.8958101 -14.793 -1051.72
7.17413 -14.5586 -1051.89
7.0086098 -14.7952 -1051.47
5.95819 -14.2603 -1051.9399
6.2002001 -14.8871 -1051.04
5.3068199 -14.4916 -1051.36
4.5595698 -14.2169 -1051.52
4.4856 -14.5341 -1051
3.5847199 -14.136 -1051.33
3.28198 -14.2635 -1051.03
2.59851 -14.0763 -1051.11
1.95056 -13.9048 -1051.1801
1.88281 -14.241 -1050.6
0.87616003 -13.7685 -1051.03
0.772461 -14.1013 -1050.5
0.0968628 -13.8936 -1050.5699
-0.57678199 -13.7343 -1050.65
-0.714661 -14.0276 -1050.13
-1.51923 -13.7318 -1050.33
-1.75885 -13.9334 -1049.9399
-2.42786 -13.7779 -1049.97
-3.04584 -13.6675 -1049.95
-3.3809199 -13.8266 -1049.61
-4.0689702 -13.6202 -1049.71
-4.3748202 -13.7419 -1049.38
-5.0893602 -13.5014 -1049.5699
-5.64819 -13.3987 -1049.5699
-5.8750601 -13.7143 -1048.97
-6.76758 -13.438 -1049.12
-6.9095502 -13.7765 -1048.53
-7.4467201 -13.7634 -1048.36
-8.17554 -13.5815 -1048.42
-8.3856802 -13.8365 -1047.9399
-9.2024498 -13.5708 -1048.09
-9.3073702 -13.9279 -1047.49
-9.9678297 -13.7887 -1047.45
-10.467 -13.8079 -1047.3
-10.6451 -14.1433 -1046.75
-11.6385 -13.664 -1047.16
-11.9645 -13.8693 -1046.86
-13.015 -13.8699 -1046.34
-13.0239 -14.3654 -1045.58
-13.9608 -14.034 -1045.78
-14.1365 -14.4049 -1045.15
-14.8318 -14.2254 -1045.1899
-15.3177 -14.2321 -1045.01
-15.8531 -14.2643 -1044.8101
-16.0994 -14.5624 -1044.28
-16.6765 -14.5616 -1044.08
-17.3703 -14.4629 -1044
-17.6926 -14.6598 -1043.53
-18.171 -14.7656 -1043.24
-18.5516 -14.9416 -1042.8
-19.0515 -15.0488 -1042.49
-19.552401 -15.159 -1042.15
-20.129 -15.1929 -1041.92
-20.711901 -15.1736 -1041.73
-20.972401 -15.4566 -1041.1899
-21.3279 -15.6859 -1040.71
-21.952499 -15.6963 -1040.49
-22.2645 -15.9951 -1039.89
-22.7192 -16.180799 -1039.46
-23.3344 -16.1635 -1039.29
-23.8668 -16.232599 -1038.98
-24.173 -16.571501 -1038.39
-24.6313 -16.7561 -1037.9
-25.2719 -16.774799 -1037.6801
-25.490601 -17.1252 -1037.02
-26.0751 -17.179001 -1036.73
-26.4216 -17.514299 -1036.08
-26.7456 -17.845501 -1035.42
-27.4779 -17.8099 -1035.27
-28.007401 -17.9902 -1034.8199
-28.3638 -18.259899 -1034.23
-28.632299 -18.6991 -1033.45
-29.2029 -18.8549 -1032.98
-29.5746 -19.1989 -1032.3
-29.7897 -19.6653 -1031.52
-30.566999 -19.593399 -1031.35
-30.8701 -19.994499 -1030.64
-31.397499 -20.1401 -1030.25
-32.011002 -20.1576 -1029.99
-33.2229 -19.804001 -1030.1801
-33.134998 -21.895 -1026.8101
-33.207901 -22.5961 -1025.65
-33.9543 -22.6696 -1025.22
-34.1721 -23.319201 -1024.15
-34.900002 -23.4557 -1023.63
-35.4417 -23.8459 -1022.88
-35.689098 -24.496599 -1021.77
-35.917999 -25.1495 -1020.6
-36.212299 -25.7404 -1019.56
-36.082401 -27.023001 -1017.55
-37.213299 -27.1119 -1016.94
-37.4356 -29.518101 -1012.99
-37.979401 -30.3123 -1011.53
-39.175999 -30.358101 -1011.11
32.2682 -22.048901 -1046.84
31.582399 -21.7129 -1047.1899
30.876301 -21.3727 -1047.53
30.254499 -21.0646 -1047.79
29.6141 -20.7327 -1048.1
29.0427 -20.496401 -1048.3
28.6217 -20.417801 -1048.28
27.8885 -20.1427 -1048.49
27.2302 -19.8923 -1048.71
26.702299 -19.694901 -1048.83
26.113001 -19.448099 -1049.03
25.4697 -19.1786 -1049.28
24.851299 -18.931499 -1049.48
24.2869 -18.7328 -1049.6
23.644501 -18.493 -1049.8199
23.079901 -18.2747 -1049.95
22.515699 -18.0798 -1050.0699
21.9039 -17.8466 -1050.24
21.334499 -17.648001 -1050.36
20.6395 -17.408501 -1050.58
20.1495 -17.2747 -1050.6
19.5394 -17.0816 -1050.74
18.9914 -16.9505 -1050.8
18.4526 -16.792801 -1050.86
17.902201 -16.634501 -1050.9399
17.3517 -16.4849 -1050.99
16.7749 -16.317699 -1051.0699
16.1696 -16.132799 -1051.16
15.6982 -16.067301 -1051.14
15.2531 -16.002501 -1051.09
14.557 -15.7534 -1051.25
13.9369 -15.5662 -1051.34
13.3208 -15.4042 -1051.45
12.8789 -15.3476 -1051.37
12.3043 -15.213 -1051.41
11.7385 -15.0715 -1051.45
11.2455 -15.0047 -1051.4
10.5325 -14.758 -1051.58
10.0644 -14.6848 -1051.51
9.7213097 -14.7628 -1051.3199
9.0653696 -14.5209 -1051.4399
8.4790602 -14.3435 -1051.5699
7.95819 -14.2718 -1051.55
7.1417799 -13.9912 -1051.75
7.0913701 -14.3203 -1051.1801
6.2463398 -13.9612 -1051.48
5.8484502 -13.9872 -1051.27
5.3467398 -13.9536 -1051.2
4.7135 -13.7972 -1051.27
4.3836098 -13.879 -1051.01
3.60901 -13.6028 -1051.23
3.3680999 -13.768 -1050.85
2.69086 -13.5932 -1050.92
2.14856 -13.4953 -1050.88
1.9039299 -13.6641 -1050.52
1.0017101 -13.3126 -1050.83
0.70184302 -13.4558 -1050.5
0.177063 -13.397 -1050.4301
-0.51049799 -13.1907 -1050.5
-0.76782203 -13.3762 -1050.11
-1.60431 -13.0609 -1050.35
-1.7356 -13.3811 -1049.83
-2.4314001 -13.2019 -1049.9
-3.16486 -12.9781 -1050.01
-3.18225 -13.3798 -1049.35
-4.1730299 -12.9445 -1049.75
-4.35535 -13.1826 -1049.28
-5.02246 -12.9457 -1049.4399
-5.4860201 -12.9019 -1049.34
-5.6754799 -13.27 -1048.73
-6.698 -12.9005 -1048.98
-6.8548598 -13.2463 -1048.41
-7.4523301 -13.1711 -1048.3101
-7.9930401 -13.1286 -1048.17
-8.3063402 -13.3018 -1047.78
-9.03333 -13.1169 -1047.85
-9.25385 -13.3822 -1047.37
-9.8613901 -13.3232 -1047.28
-10.3673 -13.3131 -1047.09
-10.7493 -13.4586 -1046.74
-11.3373 -13.3781 -1046.6899
-11.6188 -13.5724 -1046.2
-12.3566 -13.413 -1046.22
-12.8591 -13.4428 -1046.03
-13.1372 -13.716 -1045.55
-14.1243 -13.2971 -1045.88
-13.9958 -13.8927 -1044.9399
-14.7013 -13.7276 -1045.03
-15.3542 -13.6007 -1045
-15.681 -13.8132 -1044.5699
-16.2649 -13.8014 -1044.4
-16.694799 -13.9296 -1044.03
-17.080299 -14.1151 -1043.63
-17.5975 -14.1917 -1043.37
-17.835899 -14.4993 -1042.79
-18.5098 -14.4276 -1042.6801
-18.966299 -14.5465 -1042.3101
-19.3964 -14.671 -1041.9399
-20.024799 -14.6543 -1041.8101
-20.483101 -14.7502 -1041.5
-20.9006 -14.9054 -1041.1
-21.380301 -15.0004 -1040.75
-22.198999 -14.885 -1040.73
-22.5021 -15.1535 -1040.13
-22.7073 -15.5799 -1039.4399
-23.3043 -15.5838 -1039.24
-23.8386 -15.6415 -1038.92
-24.1779 -15.9004 -1038.38
-24.704 -16.0443 -1037.97
-24.9366 -16.437099 -1037.29
-25.443501 -16.554199 -1036.9399
-26.0919 -16.562901 -1036.71
-26.5063 -16.804001 -1036.1801
-26.6516 -17.292101 -1035.33
-27.268999 -17.392099 -1034.97
-27.8214 -17.5268 -1034.6
-28.0581 -17.860399 -1033.88
-28.5993 -18.0933 -1033.4
-29.127501 -18.3204 -1032.89
-29.2645 -18.8281 -1031.96
-29.7787 -19.0802 -1031.41
-30.465 -19.1124 -1031.17
-30.9911 -19.297701 -1030.6801
-31.314501 -19.6395 -1030.03
-31.6763 -19.875999 -1029.51
-32.384899 -19.8438 -1029.34
-32.246799 -21.172899 -1027.17
-33.031502 -21.323299 -1026.72
-33.4048 -21.7932 -1025.89
-33.811199 -22.1691 -1025.1
-34.0616 -22.743299 -1024.0601
-34.4893 -23.178499 -1023.24
-34.744801 -23.7848 -1022.16
-35.379501 -24.076401 -1021.46
-36.052601 -24.4195 -1020.75
-36.2607 -25.019899 -1019.66
-36.558498 -25.807199 -1018.17
-37.1124 -26.5707 -1016.85
-37.047901 -27.749901 -1014.92
-37.274502 -30.3043 -1010.7
-38.247398 -30.525101 -1010.05
31.6789 -21.264299 -1046.96
31.1539 -21.0797 -1047.11
30.4391 -20.746201 -1047.4301
29.802401 -20.4499 -1047.7
29.321699 -20.247101 -1047.8199
28.661301 -19.9431 -1048.04
27.917999 -19.6387 -1048.34
27.370501 -19.4433 -1048.49
26.7712 -19.1842 -1048.7
26.143801 -18.9298 -1048.9399
25.536699 -18.6884 -1049.14
24.868799 -18.4119 -1049.37
24.3088 -18.2071 -1049.5
23.766899 -18.023001 -1049.62
23.098801 -17.7342 -1049.84
22.5075 -17.5254 -1049.99
21.962601 -17.351101 -1050.1
21.3167 -17.1054 -1050.3
20.7407 -16.938 -1050.42
20.232401 -16.8067 -1050.47
19.575899 -16.556101 -1050.64
18.943701 -16.3673 -1050.78
18.360001 -16.177799 -1050.88
17.768499 -15.9941 -1050.98
17.1786 -15.8117 -1051.0699
16.7834 -15.7954 -1050.98
16.262199 -15.6823 -1051
15.6053 -15.4341 -1051.14
15.0735 -15.3206 -1051.17
14.5955 -15.242 -1051.13
13.9898 -15.0915 -1051.22
13.4235 -14.9592 -1051.26
12.875 -14.8259 -1051.3
12.2656 -14.6463 -1051.38
11.7908 -14.5866 -1051.3101
11.1964 -14.4244 -1051.38
10.6966 -14.3349 -1051.34
10.1633 -14.2582 -1051.34
9.7502403 -14.2477 -1051.22
9.0652504 -14.0038 -1051.38
8.5157499 -13.8156 -1051.47
7.9174199 -13.7083 -1051.47
7.2111802 -13.5124 -1051.5601
7.23035 -13.8861 -1050.95
6.3532701 -13.518 -1051.26
6.0447998 -13.6188 -1051.02
5.3823199 -13.4646 -1051.09
4.86169 -13.3632 -1051.05
4.3586402 -13.3127 -1050.97
3.5924699 -13.0265 -1051.1801
3.3445401 -13.2195 -1050.8
2.7883899 -13.1216 -1050.75
2.22137 -13.0308 -1050.73
1.9151 -13.1433 -1050.4399
1.1643699 -12.8859 -1050.61
0.795349 -12.9946 -1050.35
0.21301299 -12.9018 -1050.3199
-0.44457999 -12.7102 -1050.38
-0.741943 -12.8833 -1050.02
-1.54932 -12.5799 -1050.23
-1.71106 -12.8726 -1049.72
-2.2983401 -12.7502 -1049.7
-3.1006501 -12.4942 -1049.89
-3.1140101 -12.8993 -1049.21
-4.0225201 -12.5153 -1049.51
-4.1984901 -12.7879 -1049.04
-4.87396 -12.5293 -1049.23
-5.58496 -12.2861 -1049.39
-5.6153598 -12.7636 -1048.6
-6.6598501 -12.3835 -1048.88
-6.6479502 -12.8543 -1048.13
-7.4973102 -12.5828 -1048.29
-7.9135699 -12.6396 -1048.04
-8.2190599 -12.8436 -1047.64
-8.9137602 -12.6773 -1047.66
-9.2186298 -12.8652 -1047.27
-9.9087496 -12.7209 -1047.25
-10.3625 -12.7732 -1047.02
-10.6976 -12.9335 -1046.63
-11.2337 -12.9552 -1046.46
-11.6376 -13.0552 -1046.14
-12.311 -12.9237 -1046.1
-12.9666 -12.8421 -1046.0699
-12.9279 -13.3542 -1045.27
-13.934 -12.944 -1045.59
-14.0447 -13.3527 -1044.9399
-14.8292 -13.0562 -1045.1
-15.0985 -13.276 -1044.6899
-15.5848 -13.3347 -1044.4399
-16.2006 -13.318 -1044.26
-16.694 -13.3906 -1043.98
-17.111601 -13.5446 -1043.62
-17.546301 -13.683 -1043.24
-18.0135 -13.7727 -1042.92
-18.402201 -13.94 -1042.5
-18.881701 -14.027 -1042.1801
-19.5721 -13.9798 -1042.11
-19.943001 -14.132 -1041.72
-20.6511 -14.0512 -1041.63
-20.9725 -14.2985 -1041.1
-21.323299 -14.5055 -1040.64
-21.919399 -14.5306 -1040.41
-22.563 -14.5517 -1040.15
-22.6071 -15.0851 -1039.26
-23.155199 -15.1504 -1039.04
-23.709999 -15.154 -1038.77
-24.0825 -15.4385 -1038.25
-24.5345 -15.643 -1037.78
-24.880501 -15.8994 -1037.1801
-25.629299 -15.871 -1037.0699
-26.1234 -15.9572 -1036.71
-26.5511 -16.1728 -1036.22
-26.6996 -16.6672 -1035.38
-27.261101 -16.7743 -1034.98
-27.809099 -16.975401 -1034.52
-28.3929 -17.0961 -1034.16
-28.5518 -17.5597 -1033.34
-29.132601 -17.708799 -1032.9
-29.5179 -18.0375 -1032.24
-29.957001 -18.3631 -1031.55
-30.3827 -18.618601 -1031.01
-30.8514 -18.8326 -1030.47
-31.1089 -19.2327 -1029.74
-31.5536 -19.4109 -1029.3101
-32.4856 -19.1602 -1029.4
-32.532299 -21.125999 -1026.2
-33.166 -21.356199 -1025.61
-33.7668 -21.601999 -1025.0699
-34.206699 -21.9951 -1024.26
-34.580601 -22.4911 -1023.36
-35.071999 -22.8596 -1022.56
-35.179501 -23.6245 -1021.28
-35.5271 -24.218901 -1020.23
-36.272701 -24.400499 -1019.68
-36.498299 -26.4321 -1016.26
-37.135101 -27.0688 -1015.07
-37.594398 -27.952101 -1013.48
-37.7892 -30.4582 -1009.26
31.726101 -20.738199 -1046.8199
31.273001 -20.6278 -1046.88
30.435499 -20.241899 -1047.25
29.8866 -20.0242 -1047.39
29.3489 -19.780199 -1047.5699
28.701799 -19.489799 -1047.86
27.35 -18.856001 -1048.4301
26.8307 -18.691 -1048.58
26.1464 -18.3671 -1048.85
25.478901 -18.067101 -1049.1
24.8806 -17.8557 -1049.28
24.241699 -17.607201 -1049.48
23.7341 -17.4589 -1049.5699
23.0891 -17.1766 -1049.77
22.5956 -17.050699 -1049.85
21.9865 -16.835199 -1050.01
21.4835 -16.7122 -1050.0601
20.822599 -16.4618 -1050.25
20.2043 -16.239599 -1050.4
19.692699 -16.102699 -1050.4399
19.1467 -15.9668 -1050.51
18.552601 -15.7748 -1050.61
18.025801 -15.6441 -1050.65
17.3255 -15.3799 -1050.84
16.7771 -15.2422 -1050.9
16.218599 -15.0983 -1050.96
15.7995 -15.0799 -1050.88
15.2051 -14.8792 -1050.97
14.5785 -14.7138 -1051.08
14.0731 -14.6156 -1051.0699
13.5712 -14.5019 -1051.05
12.9511 -14.3295 -1051.15
12.386 -14.1831 -1051.1899
11.8873 -14.1348 -1051.16
11.359 -14.0229 -1051.15
10.7441 -13.8367 -1051.23
10.1467 -13.6491 -1051.3
9.7272902 -13.6682 -1051.16
9.1226196 -13.4701 -1051.24
8.5648203 -13.3127 -1051.36
8.0456495 -13.2756 -1051.26
7.4130902 -13.1487 -1051.27
7.14856 -13.2787 -1050.96
6.4700899 -13.063 -1051.08
6.0746498 -13.0849 -1050.92
5.42694 -12.8691 -1051
4.9359102 -12.8626 -1050.92
4.6477699 -13.0186 -1050.62
3.5756199 -12.4693 -1051.12
3.58746 -12.8583 -1050.5
2.84705 -12.6148 -1050.63
2.1904299 -12.4616 -1050.71
1.88177 -12.5699 -1050.39
1.06818 -12.2487 -1050.64
0.80059803 -12.4521 -1050.26
0.29199201 -12.4116 -1050.1801
-0.40240499 -12.1761 -1050.26
-0.49804699 -12.5128 -1049.71
-1.4564199 -12.104 -1050.05
-1.67468 -12.315 -1049.62
-2.2665401 -12.2387 -1049.58
-2.96912 -12.033 -1049.67
-3.01508 -12.4346 -1049.01
-3.98682 -12.0166 -1049.4
-4.1346402 -12.2655 -1048.91
-4.89258 -11.9573 -1049.16
-5.5454102 -11.7488 -1049.29
-5.7882099 -12.0674 -1048.73
-6.4320102 -12.0058 -1048.6
-6.5433998 -12.3811 -1047.9399
-7.3175001 -12.1902 -1048.05
-7.8868999 -12.1427 -1047.9301
-8.1501503 -12.3411 -1047.51
-8.8663902 -12.1635 -1047.54
-9.1709003 -12.3512 -1047.15
-9.8217201 -12.2402 -1047.12
-10.2432 -12.3376 -1046.83
-10.6682 -12.4151 -1046.54
-11.2552 -12.3976 -1046.41
-11.701 -12.4666 -1046.13
-12.2377 -12.453 -1045.97
-12.7928 -12.4306 -1045.8199
-13.0235 -12.6972 -1045.29
-13.7479 -12.5546 -1045.3199
-13.7665 -13.0241 -1044.5699
-14.752 -12.5771 -1044.95
-15.3166 -12.5374 -1044.84
-15.6042 -12.7687 -1044.36
-16.086399 -12.8709 -1044.09
-16.4282 -13.0725 -1043.65
-17.1437 -12.9822 -1043.59
-17.613501 -13.0429 -1043.27
-18.049999 -13.1652 -1042.9399
-18.558701 -13.2109 -1042.66
-18.933399 -13.4015 -1042.24
-19.3755 -13.5204 -1041.91
-19.769501 -13.7163 -1041.5
-20.4035 -13.6753 -1041.3
-20.9548 -13.7457 -1041.02
-21.2736 -14.0003 -1040.52
-21.773399 -14.1071 -1040.1899
-22.119699 -14.3547 -1039.65
-22.6028 -14.489 -1039.26
-23.215799 -14.4832 -1039.03
-23.664499 -14.6304 -1038.66
-24.0818 -14.8488 -1038.23
-24.7113 -14.9155 -1037.9399
-24.845301 -15.3327 -1037.13
-25.555201 -15.3481 -1036.92
-25.832899 -15.6574 -1036.36
-26.3696 -15.7539 -1035.98
-26.836399 -15.9734 -1035.5
-27.405399 -16.061501 -1035.12
-27.774099 -16.4235 -1034.42
-27.9713 -16.8703 -1033.64
-28.7374 -16.8353 -1033.48
-28.9578 -17.239599 -1032.71
-29.5119 -17.409599 -1032.25
-29.996599 -17.695999 -1031.63
-30.4244 -17.985701 -1030.98
-30.7911 -18.326401 -1030.34
-31.181299 -18.612 -1029.76
-31.488501 -18.947399 -1029.13
-32.4772 -18.5961 -1029.34
-32.300999 -19.5492 -1027.91
-33.230701 -20.698099 -1025.7
-33.8475 -20.927401 -1025.14
-34.274502 -21.3293 -1024.3199
-34.581799 -21.8575 -1023.35
-34.823299 -22.4681 -1022.27
-35.405102 -22.823299 -1021.54
-35.813599 -23.3291 -1020.57
-35.748001 -24.198 -1019.13
-36.736198 -24.391701 -1018.52
-36.837502 -25.431 -1016.82
31.769501 -20.2202 -1046.67
31.247299 -20.0341 -1046.8101
30.6068 -19.809 -1046.96
29.924801 -19.5215 -1047.22
29.367701 -19.268 -1047.42
28.7621 -18.9767 -1047.6899
28.0224 -18.6049 -1048.0601
27.4167 -18.334999 -1048.29
26.7904 -18.0891 -1048.54
26.1453 -17.819599 -1048.77
25.589399 -17.6304 -1048.92
25.0268 -17.417299 -1049.0601
24.450701 -17.213301 -1049.2
23.852301 -16.996 -1049.37
23.256001 -16.7633 -1049.54
22.6038 -16.492701 -1049.74
21.996201 -16.2882 -1049.9
21.509199 -16.1744 -1049.95
20.9359 -15.9845 -1050.0699
20.3214 -15.7626 -1050.21
19.8078 -15.6567 -1050.25
19.134899 -15.3915 -1050.4399
18.6409 -15.2918 -1050.46
18.1031 -15.1528 -1050.51
17.332899 -14.8401 -1050.75
16.8787 -14.7801 -1050.72
16.287001 -14.5962 -1050.8199
15.767 -14.4765 -1050.84
15.2356 -14.3717 -1050.87
14.7142 -14.2777 -1050.87
14.1423 -14.1117 -1050.9301
13.5657 -13.9573 -1050.98
13.0479 -13.8644 -1050.98
12.5233 -13.7418 -1050.98
11.9949 -13.6231 -1051
11.3919 -13.4201 -1051.09
10.9028 -13.3145 -1051.0601
10.2868 -13.1502 -1051.15
9.8443003 -13.1353 -1051.0601
9.3055401 -13.0296 -1051.08
8.7241201 -12.8338 -1051.1899
8.2299805 -12.7656 -1051.1
7.5311899 -12.5687 -1051.1899
7.0064101 -12.4779 -1051.14
6.6427598 -12.5499 -1050.9301
6.0153198 -12.4479 -1050.96
5.4254799 -12.2923 -1050.99
5.00635 -12.3006 -1050.85
4.6715698 -12.4064 -1050.5699
3.8408799 -12.1038 -1050.8
3.5497999 -12.266 -1050.48
2.90259 -12.1114 -1050.52
2.2358999 -11.9307 -1050.59
1.92749 -12.0663 -1050.28
1.14459 -11.774 -1050.5
0.972839 -12.0334 -1050.03
0.192688 -11.7633 -1050.1899
-0.32446301 -11.6974 -1050.11
-0.49084499 -11.9919 -1049.64
-1.40967 -11.5822 -1049.9399
-1.63483 -11.8016 -1049.5
-2.2830801 -11.6765 -1049.53
-3.01282 -11.477 -1049.64
-3.0177 -11.864 -1048.97
-4.0970502 -11.3374 -1049.4399
-4.2973599 -11.5819 -1049.02
-4.9003901 -11.4164 -1049.12
-5.4496498 -11.2966 -1049.14
-5.6876798 -11.5765 -1048.58
-6.4282799 -11.4658 -1048.52
-6.6859698 -11.7325 -1048.02
-7.3361201 -11.6102 -1047.99
-7.8776898 -11.5904 -1047.85
-8.2556801 -11.7072 -1047.54
-8.8878803 -11.6162 -1047.49
-9.1773701 -11.7933 -1047.08
-9.6637602 -11.8365 -1046.88
-10.0915 -11.9002 -1046.61
-10.5392 -11.9945 -1046.36
-11.2787 -11.7931 -1046.39
-11.5096 -12.0781 -1045.89
-12.16 -11.9779 -1045.8101
-12.7631 -11.917 -1045.6899
-13.1799 -12.0151 -1045.37
-13.6467 -12.0703 -1045.14
-13.8632 -12.3858 -1044.6
-14.4191 -12.3444 -1044.49
-15.2701 -12.0725 -1044.7
-15.3832 -12.466 -1044.02
-16.2279 -12.1929 -1044.14
-17.8477 -12.7609 -1042.71
-18.4995 -12.6857 -1042.6
-19.014 -12.7402 -1042.3199
-19.2092 -13.1038 -1041.7
-19.839899 -13.0949 -1041.5
-20.259199 -13.239 -1041.08
-20.7698 -13.3421 -1040.76
-21.1733 -13.5162 -1040.34
-21.7335 -13.613 -1040.08
-22.0823 -13.8307 -1039.55
-22.75 -13.7869 -1039.4
-23.0693 -14.0569 -1038.85
-23.637501 -14.1031 -1038.6
-23.931299 -14.416 -1037.99
-24.499001 -14.4909 -1037.6801
-24.766399 -14.8432 -1036.99
-25.184799 -15.0683 -1036.5
-25.9312 -14.9934 -1036.37
-26.0427 -15.4742 -1035.5699
-26.7824 -15.4248 -1035.38
-27.2775 -15.6061 -1034.9399
-27.638901 -15.9607 -1034.26
-27.989799 -16.257799 -1033.65
-28.4765 -16.4778 -1033.12
-28.921101 -16.710501 -1032.63
-29.367701 -16.9515 -1032.09
-30.036301 -17.063499 -1031.72
-30.1548 -17.5944 -1030.76
-30.693899 -17.816099 -1030.1899
-31.0865 -18.114 -1029.6
-31.5884 -18.2628 -1029.1899
-32.277599 -18.215799 -1029.04
-32.9161 -18.394899 -1028.6
-32.986599 -19.176001 -1027.33
-32.898102 -20.271 -1025.4301
-34.039101 -20.1241 -1025.33
-34.134602 -20.8752 -1024.16
-34.467701 -21.305799 -1023.27
-34.900902 -21.764299 -1022.38
-35.324402 -22.256399 -1021.44
-35.653702 -22.8396 -1020.41
-35.9953 -23.3568 -1019.41
-36.222 -25.338699 -1016.17
-37.314499 -25.5611 -1015.4
-37.079201 -26.9275 -1013.14
32.505299 -20.0805 -1046.15
31.8773 -19.785299 -1046.4399
31.323 -19.553499 -1046.63
30.576799 -19.247101 -1046.88
29.9793 -18.9904 -1047.08
29.4377 -18.768101 -1047.27
28.169399 -18.133499 -1047.84
27.569099 -17.8962 -1048.0601
26.8876 -17.5987 -1048.36
26.251801 -17.330999 -1048.59
25.6381 -17.093201 -1048.78
25.063999 -16.900999 -1048.92
24.490999 -16.702 -1049.0699
23.8571 -16.4314 -1049.28
23.224501 -16.1931 -1049.48
22.6234 -15.9403 -1049.65
22.058201 -15.7821 -1049.77
21.534401 -15.6267 -1049.84
20.932501 -15.4085 -1049.99
20.458 -15.3046 -1049.99
19.930401 -15.146 -1050.0601
19.3029 -14.9659 -1050.22
18.632999 -14.7061 -1050.4
17.981001 -14.4813 -1050.55
17.441299 -14.3511 -1050.5699
16.857 -14.2253 -1050.67
16.3106 -14.0476 -1050.7
15.8759 -14.0079 -1050.64
15.3378 -13.8755 -1050.6899
14.7477 -13.7098 -1050.76
14.148 -13.5418 -1050.83
13.7353 -13.4831 -1050.73
13.0742 -13.2755 -1050.89
12.4255 -13.0329 -1051.0601
11.8133 -12.8321 -1051.22
11.2406 -12.6455 -1051.33
10.6591 -12.4728 -1051.4399
10.1868 -12.4019 -1051.4301
9.6107798 -12.2864 -1051.46
9.1008301 -12.1871 -1051.41
8.62677 -12.1017 -1051.37
8.0830097 -12.0295 -1051.35
7.5546298 -11.9599 -1051.3
6.9958501 -11.855 -1051.27
6.4190102 -11.7614 -1051.27
5.8800001 -11.6681 -1051.21
5.3123202 -11.5953 -1051.1899
4.8403902 -11.5398 -1051.09
4.5689702 -11.6947 -1050.74
3.85657 -11.4942 -1050.79
3.5208099 -11.5984 -1050.52
2.8456399 -11.4411 -1050.55
2.2689199 -11.3564 -1050.53
1.95789 -11.4855 -1050.2
1.25281 -11.2517 -1050.34
0.966003 -11.4109 -1049.99
0.32678199 -11.282 -1050.01
-0.215271 -11.1782 -1049.97
-0.50329602 -11.3567 -1049.62
-1.33539 -11.0336 -1049.84
-1.61523 -11.2641 -1049.4399
-2.21576 -11.146 -1049.41
-2.7669699 -11.0863 -1049.34
-3.04474 -11.2871 -1048.95
-3.97211 -10.8856 -1049.27
-4.3544302 -10.9571 -1049
-4.8330698 -10.8895 -1049
-5.28052 -10.8152 -1048.91
-5.6251202 -11.05 -1048.47
-6.4268799 -10.8954 -1048.46
-6.5632901 -11.2685 -1047.8199
-7.3062701 -11.0614 -1047.89
-7.71173 -11.1549 -1047.62
-8.1895103 -11.1857 -1047.4
-8.7943697 -11.112 -1047.34
-9.1727304 -11.2409 -1047.02
-9.6061401 -11.3002 -1046.75
-10.0909 -11.3521 -1046.54
-10.3655 -11.576 -1046.1
-11.1489 -11.3354 -1046.2
-11.5594 -11.4404 -1045.86
-12.5141 -11.5553 -1045.38
-12.9394 -11.6526 -1045.08
-13.5501 -11.6227 -1044.96
-13.847 -11.8362 -1044.51
-14.4302 -11.7809 -1044.39
-15.0718 -11.657 -1044.33
-15.1496 -12.1599 -1043.5699
-16.025999 -11.8336 -1043.78
-18.0457 -12.0324 -1042.85
-18.349001 -12.2416 -1042.39
-18.7715 -12.4053 -1041.98
-19.176001 -12.5833 -1041.59
-19.826401 -12.5395 -1041.42
-20.166599 -12.7467 -1040.9399
-20.7005 -12.8586 -1040.64
-21.143999 -12.9871 -1040.25
-21.6364 -13.1159 -1039.9
-22.106001 -13.2249 -1039.54
-22.6236 -13.3076 -1039.23
-23.0548 -13.4729 -1038.79
-23.3948 -13.7274 -1038.29
-24.0439 -13.7755 -1038.02
-24.4324 -13.9743 -1037.58
-24.953899 -14.0943 -1037.2
-25.3381 -14.3253 -1036.63
-25.6777 -14.6199 -1036.05
-26.2006 -14.7507 -1035.66
-26.753599 -14.9007 -1035.3101
-27.343201 -14.9957 -1034.96
-27.440001 -15.5352 -1034.03
-28.327 -15.3928 -1033.97
-28.212999 -16.0949 -1032.78
-28.937599 -16.1208 -1032.53
-29.265699 -16.482401 -1031.89
-29.742201 -16.6999 -1031.37
-30.1395 -16.9998 -1030.73
-30.7332 -17.107599 -1030.3199
-31.006001 -17.5541 -1029.46
-31.3339 -17.9286 -1028.84
-32.1614 -17.751499 -1028.85
-32.480202 -18.185499 -1028.03
-33.297699 -18.2987 -1027.61
-33.491901 -18.997299 -1026.45
-33.228699 -20.1703 -1024.49
-33.9254 -20.392599 -1023.93
-34.360802 -20.7701 -1023.18
-34.6866 -21.349701 -1022.15
-35.215099 -21.738001 -1021.35
-35.7393 -22.132299 -1020.5
-35.8848 -22.8405 -1019.31
-36.751999 -23.0033 -1018.77
-36.847698 -24.1516 -1016.88
-37.168301 -25.002199 -1015.38
-37.4146 -26.037701 -1013.57
-37.7817 -27.1082 -1011.72
-37.948399 -28.5998 -1009.14
31.3598 -18.982201 -1046.47
30.5716 -18.6556 -1046.78
29.9485 -18.384701 -1047.02
29.4517 -18.177401 -1047.1801
28.880699 -17.918501 -1047.41
28.200701 -17.579 -1047.73
27.504801 -17.268299 -1048.04
26.879101 -16.9807 -1048.27
26.207399 -16.7085 -1048.53
25.6171 -16.509701 -1048.71
25.118 -16.3463 -1048.78
24.4638 -16.079599 -1048.99
23.878099 -15.871 -1049.16
23.3349 -15.6693 -1049.27
22.7409 -15.462 -1049.4301
22.1562 -15.2557 -1049.58
21.570601 -15.0486 -1049.7
21.0156 -14.8917 -1049.8101
20.534599 -14.8166 -1049.83
19.841101 -14.4962 -1050.04
19.282301 -14.3485 -1050.14
18.770599 -14.2384 -1050.17
18.0881 -13.9819 -1050.34
17.489 -13.8242 -1050.4399
17.006201 -13.7393 -1050.4399
16.4662 -13.5968 -1050.47
15.9409 -13.4845 -1050.5
15.3034 -13.2687 -1050.66
14.6688 -13.0578 -1050.77
14.3194 -13.0674 -1050.61
13.6341 -12.7981 -1050.84
13.0381 -12.5645 -1051
12.3477 -12.2939 -1051.25
11.7686 -12.1329 -1051.37
11.3 -12.0354 -1051.39
10.7684 -11.9013 -1051.4399
10.2936 -11.8366 -1051.37
9.7218599 -11.7312 -1051.38
9.08533 -11.5396 -1051.45
8.6024199 -11.4725 -1051.4
8.0758696 -11.3882 -1051.37
7.5069599 -11.2817 -1051.37
7.0027499 -11.213 -1051.28
6.47821 -11.1401 -1051.23
5.9741201 -11.1095 -1051.17
5.4368901 -11.0246 -1051.11
4.88837 -10.937 -1051.1
4.34058 -10.8261 -1051.0601
3.93469 -10.9031 -1050.8
3.47736 -10.8978 -1050.65
2.93402 -10.8318 -1050.5601
2.4086299 -10.8021 -1050.45
1.80743 -10.7211 -1050.4399
1.3804899 -10.6977 -1050.28
0.81530797 -10.6137 -1050.24
0.38488799 -10.6308 -1050.0699
-0.140503 -10.5503 -1049.99
-0.56256098 -10.6088 -1049.76
-1.08801 -10.5938 -1049.6
-1.62866 -10.5589 -1049.49
-1.99268 -10.6777 -1049.1899
-2.7104499 -10.4662 -1049.25
-3.10376 -10.594 -1048.98
-3.8689001 -10.368 -1049.11
-4.2301002 -10.4245 -1048.85
-4.8578501 -10.2426 -1048.99
-5.3104901 -10.1944 -1048.9
-5.7533002 -10.3607 -1048.55
-6.47791 -10.2558 -1048.4301
-6.5246601 -10.7097 -1047.72
-7.1395302 -10.6103 -1047.65
-7.6953702 -10.5557 -1047.54
-8.0261202 -10.7465 -1047.17
-8.7132597 -10.6003 -1047.2
-9.1967802 -10.6142 -1046.96
-9.8153095 -10.5616 -1046.89
-10.0995 -10.7411 -1046.48
-10.6127 -10.7636 -1046.28
-11.0473 -10.8526 -1046.01
-11.5069 -10.9214 -1045.75
-12.0681 -10.877 -1045.59
-12.3973 -11.0717 -1045.1899
-12.9543 -11.0374 -1045.02
-13.4719 -11.0973 -1044.8101
-13.8891 -11.1742 -1044.47
-14.3785 -11.2632 -1044.24
-15.0507 -11.1397 -1044.1801
-15.2589 -11.4513 -1043.6
-15.9915 -11.3056 -1043.63
-18.5114 -11.5583 -1042.42
-18.594601 -12.0119 -1041.64
-19.7757 -12.003 -1041.27
-20.2985 -12.0602 -1041.01
-20.936501 -12.0223 -1040.84
-21.124201 -12.3844 -1040.1899
-21.6152 -12.5009 -1039.83
-22.02 -12.6725 -1039.4301
-22.3057 -12.9666 -1038.88
-23.1129 -12.829 -1038.83
-23.439501 -13.1254 -1038.25
-23.8923 -13.2808 -1037.8199
-24.296101 -13.5013 -1037.36
-24.7631 -13.6229 -1036.95
-25.2391 -13.8012 -1036.5
-25.841499 -13.8781 -1036.2
-26.206301 -14.1683 -1035.61
-26.6437 -14.3708 -1035.13
-27.0322 -14.6144 -1034.59
-27.387699 -14.9832 -1033.9301
-27.8972 -15.1481 -1033.45
-28.4666 -15.2376 -1033.0699
-28.8904 -15.5376 -1032.45
-29.271099 -15.8412 -1031.84
-29.7679 -16.072399 -1031.33
-30.2841 -16.2752 -1030.86
-30.764601 -16.470501 -1030.3199
-30.9673 -16.9583 -1029.46
-31.4879 -17.180401 -1028.98
-32.069199 -17.2411 -1028.67
-32.616299 -17.483 -1028.0601
-32.869099 -18.1373 -1026.99
-33.085098 -18.6717 -1026
-33.855301 -19.767799 -1023.87
-34.513599 -19.9793 -1023.31
-34.905602 -20.490601 -1022.4
-35.285801 -20.966999 -1021.44
-35.9081 -21.2488 -1020.77
-35.6563 -22.394699 -1019.05
-36.3279 -22.708 -1018.31
-36.573101 -23.7176 -1016.6
-36.800499 -24.6553 -1014.94
-37.507401 -25.242399 -1013.82
-37.706902 -26.409 -1011.77
-37.120399 -28.6145 -1008.35
34.641602 -20.1546 -1044.5601
31.4573 -18.4907 -1046.3
30.7125 -18.171801 -1046.54
30.070499 -17.8769 -1046.8101
29.487 -17.609301 -1047.05
28.8825 -17.336399 -1047.3199
28.285101 -17.0756 -1047.5699
27.655199 -16.7971 -1047.8199
27.0184 -16.534599 -1048.04
26.428499 -16.2894 -1048.22
25.802299 -16.0536 -1048.4399
25.155899 -15.8029 -1048.64
24.6637 -15.6458 -1048.73
24.0618 -15.4091 -1048.9
23.3734 -15.1463 -1049.15
22.714399 -14.8786 -1049.37
22.1698 -14.7011 -1049.47
21.5226 -14.4648 -1049.66
20.984301 -14.309 -1049.75
20.393801 -14.1317 -1049.85
19.8675 -13.9759 -1049.9301
19.347799 -13.8404 -1049.98
18.721001 -13.6275 -1050.12
18.1387 -13.4695 -1050.2
17.684299 -13.4108 -1050.16
16.9659 -13.1073 -1050.37
16.4818 -13.0386 -1050.38
16.066401 -12.9851 -1050.3101
15.5187 -12.8344 -1050.37
14.803 -12.5172 -1050.59
14.2751 -12.3692 -1050.6801
13.5765 -12.0721 -1050.97
12.9536 -11.8379 -1051.17
12.46 -11.7242 -1051.23
11.8557 -11.5292 -1051.3199
11.4875 -11.5427 -1051.1801
10.9896 -11.486 -1051.15
10.3107 -11.2772 -1051.26
9.7804003 -11.1942 -1051.24
9.2699003 -11.0899 -1051.23
8.7130699 -10.9614 -1051.22
8.1626596 -10.8738 -1051.2
7.6591802 -10.7833 -1051.15
7.0382099 -10.6424 -1051.22
6.5707402 -10.6207 -1051.11
6.10675 -10.587 -1051.01
5.57935 -10.5034 -1050.96
5.0810499 -10.4511 -1050.87
4.5025001 -10.3403 -1050.89
3.89117 -10.2273 -1050.88
3.36414 -10.1744 -1050.8101
2.8615699 -10.1355 -1050.6801
2.3023701 -10.0715 -1050.63
1.8456399 -10.0483 -1050.49
1.3759201 -10.0564 -1050.35
0.85095203 -9.9706097 -1050.29
0.30822799 -9.9167805 -1050.23
-0.14325 -9.9402199 -1050.05
-0.53106701 -10.0052 -1049.83
-1.20129 -9.8601398 -1049.8199
-1.6571701 -9.8888903 -1049.64
-2.28479 -9.7854605 -1049.59
-2.6410501 -9.8926697 -1049.27
-3.2542701 -9.7846699 -1049.21
-3.6993999 -9.8390198 -1049
-4.22504 -9.7586098 -1048.9301
-4.7606802 -9.6734304 -1048.95
-5.3881202 -9.5265799 -1048.98
-5.6486802 -9.8001404 -1048.4301
-6.2670298 -9.8566599 -1048.17
-6.59235 -10.0641 -1047.71
-7.1477699 -10.0185 -1047.59
-7.6040602 -10.0666 -1047.39
-8.0042696 -10.1847 -1047.09
-8.8552904 -9.87714 -1047.27
-9.1046104 -10.1198 -1046.8199
-9.38696 -10.3496 -1046.39
-9.9404297 -10.3045 -1046.23
-10.4626 -10.3163 -1046.05
-10.9882 -10.3281 -1045.87
-11.6149 -10.2459 -1045.78
-11.9402 -10.414 -1045.4
-12.4932 -10.4167 -1045.22
-12.8618 -10.5756 -1044.87
-13.5072 -10.4832 -1044.78
-13.957 -10.595 -1044.49
-14.4517 -10.6003 -1044.23
-15.0128 -10.6017 -1044.0601
-15.0637 -11.0634 -1043.3199
-15.8524 -10.8561 -1043.38
-16.3923 -10.8953 -1043.14
-16.875799 -10.9594 -1042.87
-17.5588 -10.8463 -1042.83
-17.825701 -11.0492 -1042.37
-18.506599 -11.0211 -1042.25
-18.4531 -11.5906 -1041.3199
-19.1719 -11.4529 -1041.3
-19.942801 -11.2737 -1041.34
-20.1618 -11.5885 -1040.79
-20.773899 -11.5565 -1040.63
-20.975401 -11.904 -1039.99
-21.3251 -12.1481 -1039.5
-21.9629 -12.092 -1039.34
