# .PCD v0.7 - Point Cloud Data file format
VERSION 0.7
FIELDS x y z
SIZE 4 4 4
TYPE F F F
COUNT 1 1 1
WIDTH 1706
HEIGHT 1
VIEWPOINT 0 0 0 1 0 0 0
POINTS 1706
DATA ascii
35.1054 -17.3293 -1044.2
34.589802 -17.254601 -1044.47
34.0672 -17.1805 -1044.75
33.8978 -16.970301 -1045.09
33.494801 -16.850599 -1045.38
32.743999 -16.848801 -1045.59
32.319199 -16.7271 -1045.86
31.9804 -16.6063 -1046.15
31.385599 -16.531099 -1046.4399
31.014299 -16.3799 -1046.78
30.559799 -16.3155 -1047
30.061899 -16.2707 -1047.1801
29.537701 -16.202801 -1047.41
29.108299 -16.1078 -1047.65
28.6786 -16.027 -1047.9
28.0464 -15.9899 -1048.13
27.6388 -15.8767 -1048.37
26.9741 -15.8686 -1048.58
26.6385 -15.7397 -1048.83
26.1136 -15.687 -1049.0601
25.5669 -15.6504 -1049.26
25.0446 -15.5877 -1049.48
24.5093 -15.5159 -1049.6801
24.0233 -15.4654 -1049.88
23.4998 -15.4002 -1050.0699
22.860399 -15.4046 -1050.24
22.272699 -15.3741 -1050.4301
21.747601 -15.3329 -1050.62
21.3552 -15.2618 -1050.83
20.6096 -15.2976 -1050.96
20.0527 -15.2573 -1051.12
19.372299 -15.2774 -1051.27
18.877199 -15.2213 -1051.45
18.3162 -15.1956 -1051.6
17.6395 -15.2271 -1051.74
17.043301 -15.2353 -1051.88
16.422701 -15.2428 -1052
15.7589 -15.2815 -1052.12
15.2357 -15.2604 -1052.24
14.5274 -15.2915 -1052.34
13.7261 -15.3587 -1052.41
12.9152 -15.4565 -1052.48
12.3229 -15.4299 -1052.5699
11.6857 -15.4431 -1052.67
10.8953 -15.5203 -1052.73
10.2382 -15.5403 -1052.8199
9.5798302 -15.5862 -1052.92
8.7305899 -15.6963 -1052.99
8.1242104 -15.7277 -1053.0601
7.5346699 -15.7468 -1053.13
6.8021202 -15.7765 -1053.27
6.2276602 -15.7634 -1053.4399
46.502201 -46.137501 -991.646
49.853298 -42.3806 -997.12701
49.868198 -41.662899 -998.435
50.8381 -40.739399 -999.755
51.9338 -39.5667 -1001.29
51.259499 -39.2603 -1002.19
51.450298 -38.752201 -1003.08
52.1269 -37.897301 -1004.26
52.720901 -37.1632 -1005.22
52.481201 -36.791199 -1006.04
52.5858 -36.2952 -1006.95
52.941002 -35.646999 -1007.86
52.436501 -35.348099 -1008.55
52.673199 -34.844501 -1009.42
52.5126 -34.445 -1010.13
52.871799 -33.841999 -1011.02
53.074902 -33.362999 -1011.82
52.632999 -33.1087 -1012.47
52.8004 -32.532902 -1013.28
52.917801 -32.026501 -1014.08
53.0424 -31.639601 -1014.73
52.7565 -31.366199 -1015.32
52.3153 -31.123899 -1015.89
52.448399 -30.671301 -1016.56
52.806499 -30.1485 -1017.26
52.288101 -29.9597 -1017.77
52.097099 -29.667801 -1018.36
52.290001 -29.188499 -1019.06
52.004002 -28.910801 -1019.62
52.1511 -28.4701 -1020.27
51.929298 -28.1744 -1020.85
51.724998 -27.9062 -1021.39
51.271702 -27.679399 -1021.94
51.617901 -27.180201 -1022.61
51.2626 -26.9529 -1023.1
51.171501 -26.5672 -1023.76
50.8452 -26.3484 -1024.25
50.930401 -26.020901 -1024.8
50.527302 -25.819799 -1025.1899
50.103901 -25.6604 -1025.67
50.089699 -25.3043 -1026.17
49.8353 -25.059299 -1026.66
49.5182 -24.836399 -1027.1
49.117001 -24.650499 -1027.5601
48.851898 -24.441299 -1028.02
48.6866 -24.1686 -1028.49
48.2985 -23.978201 -1028.9
48.4282 -23.597401 -1029.48
48.016701 -23.406 -1029.9
47.7481 -23.157301 -1030.36
47.5452 -22.9156 -1030.8101
47.1903 -22.7279 -1031.24
47.1129 -22.444 -1031.74
46.765301 -22.2498 -1032.15
46.371799 -22.0805 -1032.54
46.065601 -21.884399 -1032.9399
45.735802 -21.671499 -1033.35
45.2369 -21.559 -1033.77
45.187599 -21.2195 -1034.27
44.863499 -21.059401 -1034.62
44.912899 -20.755699 -1035.0699
44.029499 -20.762899 -1035.36
44.158001 -20.3913 -1035.84
43.407501 -20.379 -1036.14
43.365898 -20.1203 -1036.58
42.915001 -19.963699 -1036.91
42.439499 -19.818701 -1037.28
42.734402 -19.4282 -1037.74
41.598301 -19.524599 -1038.01
41.599201 -19.242701 -1038.4301
41.442299 -19.006399 -1038.8199
40.5872 -19.016399 -1039.1
40.615002 -18.708599 -1039.51
40.189301 -18.5898 -1039.83
39.944901 -18.428699 -1040.2
39.523102 -18.308001 -1040.53
38.8862 -18.2416 -1040.8101
38.538101 -18.064301 -1041.16
38.205799 -17.9088 -1041.5
38.1283 -17.654301 -1041.89
37.4412 -17.6348 -1042.16
37.111698 -17.450899 -1042.49
36.6908 -17.326599 -1042.8
36.294601 -17.221701 -1043.09
35.828098 -17.121 -1043.39
35.505199 -16.9515 -1043.71
35.044899 -16.846201 -1044
34.4842 -16.7882 -1044.27
33.937901 -16.7101 -1044.53
33.879902 -16.4522 -1044.91
33.412601 -16.369801 -1045.1899
32.882401 -16.278099 -1045.45
32.401402 -16.197201 -1045.72
32.040501 -16.046 -1046.01
31.517099 -15.9484 -1046.3101
31.130199 -15.8336 -1046.64
30.762501 -15.7361 -1046.85
30.2491 -15.6738 -1047.04
29.7059 -15.6148 -1047.26
29.1143 -15.5869 -1047.49
28.6581 -15.4901 -1047.73
28.1868 -15.3989 -1047.97
27.716101 -15.3358 -1048.22
27.0926 -15.3091 -1048.4399
26.844999 -15.1442 -1048.6899
26.1075 -15.1717 -1048.89
25.5284 -15.1259 -1049.09
25.261999 -14.9998 -1049.35
24.698099 -14.9576 -1049.54
24.2642 -14.854 -1049.75
23.525101 -14.8779 -1049.91
22.8461 -14.8953 -1050.08
22.2903 -14.8474 -1050.27
21.838699 -14.7767 -1050.47
21.335199 -14.7436 -1050.67
20.697001 -14.7273 -1050.8101
20.0096 -14.7547 -1050.95
19.4939 -14.7252 -1051.13
18.946501 -14.6777 -1051.3
18.2356 -14.702 -1051.4399
17.679199 -14.6839 -1051.59
17.153601 -14.674 -1051.74
16.417801 -14.7258 -1051.84
15.765 -14.7318 -1051.95
15.1344 -14.7733 -1052.0699
14.5563 -14.7574 -1052.1801
13.8362 -14.8061 -1052.27
13.1132 -14.8409 -1052.36
12.6099 -14.7995 -1052.47
11.8969 -14.8598 -1052.55
10.9777 -14.9753 -1052.59
10.2032 -15.0429 -1052.65
9.4995098 -15.1043 -1052.72
8.83887 -15.1493 -1052.78
8.2625704 -15.1709 -1052.85
7.6496 -15.1883 -1052.95
6.8408198 -15.256 -1053.08
6.35815 -15.1938 -1053.24
3.3803699 -15.5616 -1053.33
42.585899 -48.907299 -986.54401
46.9883 -45.245098 -991.56702
48.944401 -43.8615 -993.505
48.528301 -43.1623 -995.13202
50.4533 -41.560902 -997.10101
50.076099 -41.0467 -998.33801
51.1996 -39.2994 -1001.05
51.219898 -38.752499 -1002.06
51.819901 -38.0294 -1002.99
51.881599 -37.442402 -1004
52.293098 -36.8531 -1004.97
52.205002 -36.393902 -1005.84
52.4902 -35.780899 -1006.79
52.455399 -35.317699 -1007.58
52.356899 -34.8741 -1008.41
53.3685 -34.037399 -1009.43
53.109699 -33.632099 -1010.17
52.945999 -33.2798 -1010.98
53.0998 -32.802101 -1011.66
53.080399 -32.391102 -1012.39
53.462799 -31.789499 -1013.26
52.977402 -31.477501 -1013.95
53.031502 -31.1 -1014.57
52.8256 -30.799 -1015.16
52.5602 -30.480301 -1015.78
52.454498 -30.1702 -1016.38
52.6535 -29.688601 -1017.06
52.6366 -29.3349 -1017.69
52.297699 -29.076401 -1018.22
52.110401 -28.730801 -1018.85
52.0802 -28.3741 -1019.48
51.719601 -28.108801 -1020.03
52.064899 -27.6168 -1020.7
51.682201 -27.3864 -1021.23
51.646702 -27.0268 -1021.84
51.4119 -26.7355 -1022.38
51.460602 -26.378799 -1022.99
51.105701 -26.087601 -1023.59
50.830299 -25.835699 -1024.11
50.740601 -25.546801 -1024.6
50.365898 -25.345501 -1025.01
49.991001 -25.1688 -1025.47
50.080299 -24.775999 -1026
49.532799 -24.652 -1026.41
49.5238 -24.3307 -1026.9399
49.208401 -24.1108 -1027.38
48.919701 -23.899599 -1027.85
48.8633 -23.587799 -1028.35
48.236301 -23.486601 -1028.71
48.563702 -23.0298 -1029.33
48.181599 -22.8351 -1029.78
47.778099 -22.6411 -1030.1899
47.531399 -22.430901 -1030.65
47.305801 -22.165899 -1031.12
47.181301 -21.8906 -1031.5699
46.702499 -21.7472 -1031.95
46.336498 -21.592199 -1032.36
45.911301 -21.4405 -1032.73
45.7911 -21.171499 -1033.1899
45.953602 -20.7703 -1033.74
45.282001 -20.6854 -1034.14
45.023399 -20.482401 -1034.49
44.875198 -20.243099 -1034.89
44.369099 -20.1201 -1035.26
44.203999 -19.878401 -1035.6801
43.596001 -19.807699 -1036.01
43.328701 -19.6141 -1036.38
42.9762 -19.429899 -1036.75
42.614601 -19.27 -1037.12
42.509499 -19.0133 -1037.53
42.0742 -18.8673 -1037.91
41.661999 -18.728901 -1038.26
41.108601 -18.619699 -1038.5699
40.837399 -18.4182 -1038.97
40.255501 -18.3496 -1039.27
40.105202 -18.121201 -1039.64
39.809898 -17.945499 -1039.99
39.548 -17.7621 -1040.34
39.194302 -17.6 -1040.6801
38.803001 -17.4352 -1041.04
38.374001 -17.3391 -1041.37
38 -17.189199 -1041.6899
37.5802 -17.0735 -1042.01
37.032902 -16.973499 -1042.29
36.626701 -16.8608 -1042.61
36.4291 -16.642401 -1042.95
35.833099 -16.6073 -1043.21
35.4641 -16.4695 -1043.53
35.094799 -16.321301 -1043.85
34.695499 -16.2071 -1044.15
34.250999 -16.0716 -1044.42
33.929001 -15.9201 -1044.74
33.2575 -15.8969 -1044.99
32.894501 -15.7691 -1045.29
32.485699 -15.6523 -1045.5601
32.197102 -15.5136 -1045.87
31.666201 -15.4052 -1046.1801
31.3841 -15.247 -1046.51
30.746799 -15.2532 -1046.66
30.2178 -15.1635 -1046.86
29.889999 -15.0493 -1047.13
29.2132 -15.0185 -1047.33
28.851101 -14.9093 -1047.59
28.0602 -14.9271 -1047.79
27.937401 -14.7389 -1048.09
27.1959 -14.7528 -1048.3
26.9069 -14.5949 -1048.54
26.5373 -14.4995 -1048.8
25.7609 -14.5255 -1048.99
25.3311 -14.4421 -1049.21
24.8074 -14.4125 -1049.4
24.250099 -14.3681 -1049.59
23.6702 -14.3293 -1049.78
23.0872 -14.3012 -1049.97
22.5637 -14.259 -1050.16
22.005199 -14.2067 -1050.34
21.3239 -14.2211 -1050.5
20.702499 -14.2184 -1050.65
20.1754 -14.1841 -1050.8199
19.629299 -14.1431 -1050.99
19.074301 -14.1212 -1051.15
18.523001 -14.0851 -1051.3101
17.761801 -14.1407 -1051.4301
17.084 -14.1586 -1051.5601
16.458401 -14.1757 -1051.6899
15.9424 -14.1419 -1051.8101
15.3025 -14.1577 -1051.9301
14.6948 -14.1748 -1052.04
13.9391 -14.2305 -1052.12
12.525 -14.3204 -1052.3101
11.8774 -14.3584 -1052.4
11.1446 -14.4124 -1052.47
10.375 -14.4843 -1052.54
9.7194796 -14.5287 -1052.61
8.8122597 -14.6483 -1052.62
8.2291899 -14.6531 -1052.7
7.7393198 -14.633 -1052.8199
6.7062402 -14.7689 -1052.88
6.37714 -14.6956 -1053.01
3.9597199 -15.0585 -1053.02
2.3215899 -15.2607 -1053.02
42.506302 -48.301498 -986.453
48.8381 -43.279099 -993.38898
46.9515 -43.2957 -994.539
50.546299 -40.282501 -998.328
49.229599 -40.195599 -999.04999
51.926899 -38.508701 -1001.08
51.889999 -37.964298 -1002.02
52.234299 -37.319099 -1002.92
51.904701 -36.932499 -1003.87
52.410301 -36.252701 -1004.86
52.752899 -35.631802 -1005.81
52.681499 -35.174301 -1006.66
52.2062 -34.888401 -1007.37
52.7603 -34.187302 -1008.37
53.123699 -33.610298 -1009.23
52.524101 -33.3894 -1009.87
53.313499 -32.633202 -1010.8
53.139 -32.245201 -1011.47
52.9286 -31.8892 -1012.18
52.726898 -31.5562 -1012.89
52.884399 -31.011 -1013.75
52.852501 -30.6416 -1014.38
53.012901 -30.218901 -1015.04
52.651901 -29.962799 -1015.6
52.951801 -29.4198 -1016.34
52.384899 -29.2882 -1016.83
52.614799 -28.820601 -1017.51
52.145401 -28.6138 -1018.03
52.241901 -28.1621 -1018.7
52.107201 -27.884399 -1019.3
51.8083 -27.6028 -1019.86
51.973099 -27.1537 -1020.51
51.9095 -26.7831 -1021.12
51.609901 -26.4972 -1021.67
51.464199 -26.198601 -1022.21
51.069599 -25.9832 -1022.74
50.895 -25.6255 -1023.4
50.919498 -25.2889 -1023.99
50.813301 -25.0287 -1024.46
50.312199 -24.849501 -1024.85
50.379799 -24.516701 -1025.36
50.222801 -24.235701 -1025.86
49.843102 -24.0392 -1026.3
49.486599 -23.8447 -1026.75
49.5359 -23.4804 -1027.29
48.993801 -23.360001 -1027.6801
48.876301 -23.0387 -1028.17
48.626499 -22.8332 -1028.63
48.398701 -22.562901 -1029.13
48.005199 -22.3867 -1029.5601
47.919899 -22.093201 -1030.0601
47.543701 -21.9055 -1030.48
47.2784 -21.6716 -1030.92
47.3088 -21.327101 -1031.42
46.8423 -21.1672 -1031.8101
46.5452 -20.993799 -1032.22
46.109798 -20.849501 -1032.62
45.689899 -20.696501 -1032.99
45.817001 -20.336399 -1033.54
45.354599 -20.156099 -1033.98
45.011501 -19.9662 -1034.33
44.873699 -19.740101 -1034.7
44.212502 -19.672899 -1035.0601
44.205299 -19.358 -1035.5
43.774799 -19.246201 -1035.88
43.631199 -18.9984 -1036.28
42.9081 -18.953199 -1036.58
42.688999 -18.7418 -1036.97
42.435799 -18.5247 -1037.35
41.857899 -18.433599 -1037.6801
41.7836 -18.160999 -1038.11
41.240799 -18.073601 -1038.4301
41.069302 -17.8454 -1038.83
40.657799 -17.690201 -1039.17
40.249599 -17.588301 -1039.51
40.004799 -17.383801 -1039.87
39.469501 -17.281 -1040.17
39.165199 -17.1224 -1040.51
38.633701 -17.0247 -1040.84
38.123501 -16.9056 -1041.14
38.155201 -16.639299 -1041.5601
37.709499 -16.5093 -1041.86
37.154202 -16.4107 -1042.15
36.6982 -16.3195 -1042.45
36.3004 -16.1849 -1042.75
36.1124 -15.9873 -1043.1
35.693298 -15.8729 -1043.4
34.9701 -15.8864 -1043.64
34.755901 -15.6866 -1043.98
34.395802 -15.5445 -1044.29
33.932499 -15.4119 -1044.58
33.5159 -15.3119 -1044.87
33.040798 -15.2162 -1045.15
32.722301 -15.0651 -1045.4399
32.042099 -15.0497 -1045.6801
31.9189 -14.8055 -1046.0699
31.2369 -14.8059 -1046.3101
30.6581 -14.779 -1046.46
30.334499 -14.6235 -1046.71
29.760099 -14.5871 -1046.9399
29.350599 -14.5047 -1047.1899
28.652 -14.4976 -1047.39
28.2439 -14.3779 -1047.66
28.075899 -14.1607 -1047.96
27.5504 -14.11 -1048.21
26.8582 -14.1007 -1048.39
26.419001 -14.0204 -1048.63
25.677601 -14.0321 -1048.8101
25.3908 -13.9318 -1049.0601
24.7278 -13.9304 -1049.23
24.403999 -13.8015 -1049.45
23.7899 -13.7828 -1049.63
23.122999 -13.7777 -1049.8101
22.5326 -13.7477 -1049.99
22.007999 -13.7062 -1050.17
21.607901 -13.6219 -1050.38
21.1334 -13.5768 -1050.5601
20.493401 -13.5796 -1050.71
19.7012 -13.6193 -1050.85
19.2967 -13.5303 -1051.04
18.4312 -13.6115 -1051.13
17.7306 -13.6494 -1051.27
17.181801 -13.619 -1051.41
16.5597 -13.6198 -1051.54
16.152 -13.5802 -1051.7
15.5225 -13.6049 -1051.8101
14.8002 -13.6247 -1051.9
13.9854 -13.7038 -1051.98
13.3527 -13.7071 -1052.09
12.9072 -13.6694 -1052.22
12.202 -13.7467 -1052.3
11.3766 -13.8325 -1052.36
9.7907696 -13.9486 -1052.47
7.5504799 -14.17 -1052.62
6.6820102 -14.2619 -1052.7
46.726002 -44.254002 -991.526
47.937401 -43.0131 -993.32501
48.064301 -42.258202 -994.71899
50.183701 -39.9146 -998.09302
50.5359 -39.198601 -999.25299
51.012798 -38.379002 -1000.64
51.6525 -37.626801 -1001.71
52.179199 -36.879902 -1002.74
52.208302 -36.304001 -1003.82
52.6492 -35.6339 -1004.76
52.580101 -35.194901 -1005.59
53.141399 -34.505501 -1006.62
52.816101 -34.0984 -1007.45
53.056801 -33.555599 -1008.29
52.717201 -33.284401 -1008.96
52.546902 -32.875599 -1009.65
53.3918 -32.0994 -1010.61
53.134399 -31.7953 -1011.3
53.019699 -31.376699 -1012.01
53.388901 -30.8395 -1012.85
53.0019 -30.463699 -1013.61
52.716801 -30.191999 -1014.21
53.272499 -29.6332 -1014.94
52.7761 -29.401199 -1015.47
52.740501 -29.025 -1016.1
52.466099 -28.7519 -1016.68
52.5135 -28.3573 -1017.33
52.577702 -27.9468 -1017.96
52.314201 -27.685499 -1018.55
52.217999 -27.317301 -1019.15
51.988499 -27.0301 -1019.75
51.817101 -26.697701 -1020.32
51.839401 -26.3466 -1020.94
51.517601 -26.0777 -1021.5
51.235802 -25.8132 -1022
50.9277 -25.523199 -1022.56
50.896999 -25.1528 -1023.27
51.022999 -24.7523 -1023.86
51.053799 -24.4091 -1024.37
50.491901 -24.335699 -1024.71
50.086399 -24.117001 -1025.12
50.041302 -23.816601 -1025.66
49.562401 -23.6502 -1026.08
49.374599 -23.378901 -1026.5699
49.264599 -23.086901 -1027.0699
49.018101 -22.860901 -1027.53
48.971901 -22.5485 -1028.04
48.650902 -22.3307 -1028.49
48.665298 -21.9977 -1029.02
48.2253 -21.8067 -1029.45
47.899799 -21.628201 -1029.88
47.363998 -21.5065 -1030.27
47.5425 -21.106899 -1030.8101
47.1996 -20.889299 -1031.24
46.897999 -20.6884 -1031.65
46.6436 -20.495501 -1032.08
46.079498 -20.370501 -1032.4399
45.6721 -20.225 -1032.8199
45.847301 -19.840599 -1033.38
45.504501 -19.5938 -1033.85
45.201698 -19.439301 -1034.22
45.091099 -19.178101 -1034.61
44.408001 -19.114799 -1034.9399
44.037998 -18.959999 -1035.3101
43.7314 -18.7701 -1035.7
43.546902 -18.5403 -1036.09
43.114601 -18.4153 -1036.45
42.470798 -18.339001 -1036.76
42.657001 -17.981501 -1037.25
42.145901 -17.8482 -1037.5699
41.920101 -17.641399 -1037.99
41.485298 -17.5191 -1038.33
41.248402 -17.3183 -1038.71
40.6838 -17.219101 -1039.01
40.467201 -17.0217 -1039.39
39.946301 -16.9093 -1039.6899
39.612301 -16.7516 -1040.03
39.137699 -16.6507 -1040.34
38.609299 -16.5452 -1040.65
38.383598 -16.346701 -1041.02
38.177799 -16.1563 -1041.39
37.679901 -16.049601 -1041.6899
37.259201 -15.9232 -1042.01
36.6674 -15.8639 -1042.28
36.2131 -15.7512 -1042.5699
35.810799 -15.6412 -1042.88
35.711899 -15.406 -1043.24
35.147202 -15.3353 -1043.5
34.9109 -15.1354 -1043.84
34.284599 -15.0966 -1044.11
33.984699 -14.9319 -1044.42
33.5602 -14.8086 -1044.72
33.000999 -14.7635 -1044.97
32.769901 -14.5733 -1045.29
32.241199 -14.5073 -1045.5699
31.729099 -14.412 -1045.89
31.202 -14.3366 -1046.14
30.792801 -14.2861 -1046.3199
30.3104 -14.1872 -1046.55
29.9041 -14.0579 -1046.8101
29.297899 -14.024 -1047.01
28.805099 -13.9418 -1047.25
28.2861 -13.8818 -1047.49
28.376801 -13.5972 -1047.86
27.3596 -13.7125 -1048.03
26.9615 -13.5916 -1048.28
26.4576 -13.5362 -1048.5
25.7267 -13.5319 -1048.6801
25.4634 -13.4007 -1048.92
24.881701 -13.3432 -1049.1
24.468599 -13.2833 -1049.3101
23.801001 -13.3022 -1049.48
23.1653 -13.2897 -1049.66
22.5856 -13.2434 -1049.83
22.0646 -13.2041 -1050.01
21.608299 -13.1454 -1050.22
21.087601 -13.0872 -1050.39
20.3965 -13.1092 -1050.54
19.799601 -13.0995 -1050.71
19.1689 -13.1005 -1050.86
18.6609 -13.0287 -1051.02
17.909 -13.0894 -1051.14
17.2899 -13.0935 -1051.27
16.695999 -13.0758 -1051.4
16.1339 -13.0806 -1051.53
15.3495 -13.1638 -1051.62
14.7606 -13.1548 -1051.75
14.0045 -13.1862 -1051.85
13.2844 -13.2575 -1051.95
12.9354 -13.1734 -1052.1
12.295 -13.166 -1052.2
11.6028 -13.1913 -1052.3
46.6982 -43.512199 -991.49103
48.354401 -42.215199 -993.42102
47.806801 -41.799999 -994.53802
49.8923 -40.209499 -996.591
50.1152 -39.419998 -997.91602
51.457401 -38.3563 -999.34302
51.019501 -37.883202 -1000.37
51.4566 -37.192799 -1001.41
52.020599 -36.426399 -1002.54
52.599899 -35.172199 -1004.57
52.6735 -34.6591 -1005.49
52.507999 -34.237301 -1006.28
52.720299 -33.6371 -1007.22
52.880299 -33.125999 -1008.08
53.2276 -32.543499 -1008.9
52.9506 -32.189098 -1009.6
53.393902 -31.5977 -1010.47
53.373299 -31.182899 -1011.19
53.089199 -30.830601 -1011.87
53.2271 -30.360399 -1012.64
53.196701 -29.8922 -1013.48
53.069801 -29.5681 -1014.14
53.231899 -29.1339 -1014.78
52.9072 -28.839701 -1015.33
52.6931 -28.5306 -1015.91
52.584801 -28.225901 -1016.55
52.680698 -27.796801 -1017.19
52.382301 -27.5424 -1017.75
52.4235 -27.144899 -1018.41
52.0849 -26.850201 -1018.96
52.386398 -26.380699 -1019.66
51.653702 -26.2859 -1020.09
52.258701 -25.677401 -1020.85
51.950802 -25.410801 -1021.39
51.260601 -25.3288 -1021.84
51.770901 -24.700199 -1022.64
51.8326 -24.2882 -1023.32
50.877102 -24.313999 -1023.7
50.881302 -23.959999 -1024.1899
50.558498 -23.793301 -1024.58
50.333801 -23.5436 -1025
50.1171 -23.3016 -1025.49
49.706402 -23.120899 -1025.9399
49.4832 -22.8351 -1026.4301
49.619598 -22.454901 -1026.96
49.152 -22.323099 -1027.37
48.820499 -22.121201 -1027.84
48.642502 -21.8652 -1028.3101
48.4496 -21.563 -1028.8
48.011799 -21.434299 -1029.22
47.735199 -21.183201 -1029.67
47.645599 -20.9065 -1030.17
47.439098 -20.625299 -1030.63
47.204498 -20.4179 -1031.0699
47.054901 -20.1588 -1031.52
46.424801 -20.061701 -1031.87
46.331699 -19.803499 -1032.33
45.796799 -19.6625 -1032.6801
45.805099 -19.3613 -1033.1899
45.6259 -19.0751 -1033.7
45.1996 -18.939699 -1034.05
45.148899 -18.6628 -1034.4399
44.451698 -18.5952 -1034.79
44.446098 -18.306299 -1035.24
43.915199 -18.201599 -1035.5699
43.577999 -18.0324 -1035.92
43.201401 -17.8687 -1036.28
42.528702 -17.841499 -1036.6
42.437 -17.5571 -1037.03
42.258701 -17.321699 -1037.4399
42.086399 -17.099501 -1037.85
41.5457 -16.9872 -1038.17
41.123402 -16.8536 -1038.53
40.512001 -16.7924 -1038.8199
40.4641 -16.5341 -1039.22
39.773399 -16.501499 -1039.49
39.516998 -16.3036 -1039.84
39.350201 -16.081699 -1040.21
38.5093 -16.1143 -1040.47
38.394199 -15.8775 -1040.85
38.1143 -15.6709 -1041.2
37.563 -15.612 -1041.5
37.335999 -15.3879 -1041.85
36.882999 -15.2816 -1042.15
36.447399 -15.1793 -1042.46
36.033798 -15.0794 -1042.76
35.466599 -15.021 -1043.02
35.3102 -14.7913 -1043.36
34.853298 -14.6667 -1043.67
34.302601 -14.6018 -1043.9399
33.855099 -14.5117 -1044.23
33.693001 -14.2702 -1044.5699
33.023399 -14.2506 -1044.8
32.782101 -14.073 -1045.12
32.390999 -13.9463 -1045.4399
32.136799 -13.7454 -1045.8
31.4681 -13.7435 -1046.01
30.7819 -13.7449 -1046.13
30.4046 -13.6583 -1046.4
30.007 -13.5404 -1046.65
29.2605 -13.5534 -1046.85
29.071899 -13.3703 -1047.14
28.494699 -13.3036 -1047.36
28.2341 -13.1706 -1047.66
27.3183 -13.2325 -1047.86
26.9664 -13.1041 -1048.12
26.8501 -12.9011 -1048.4
25.7773 -13.0374 -1048.55
25.5679 -12.8657 -1048.79
25.2048 -12.7554 -1049.01
24.5273 -12.7818 -1049.16
23.788099 -12.813 -1049.3101
23.189501 -12.7811 -1049.49
22.624701 -12.7515 -1049.6801
22.0875 -12.7159 -1049.87
21.690901 -12.6177 -1050.0699
21.1008 -12.5825 -1050.23
20.240499 -12.6865 -1050.36
19.7262 -12.6569 -1050.54
19.305201 -12.5554 -1050.71
18.7213 -12.5422 -1050.86
18.1057 -12.5479 -1051.01
17.4221 -12.5655 -1051.14
16.787399 -12.5779 -1051.26
16.1059 -12.601 -1051.37
15.4637 -12.6234 -1051.48
14.8206 -12.6436 -1051.62
14.265 -12.6115 -1051.76
13.7671 -12.5949 -1051.91
13.1716 -12.5551 -1052.05
12.377 -12.5995 -1052.17
47.5214 -41.971901 -993.12598
51.2197 -38.482899 -998.00201
50.845001 -38.041698 -999.04303
51.3955 -37.206001 -1000.24
51.958199 -36.463902 -1001.39
51.794601 -35.956699 -1002.32
52.2658 -35.2365 -1003.51
52.861401 -34.5583 -1004.47
53.0793 -33.959202 -1005.4
52.6693 -33.6394 -1006.16
52.462502 -33.273701 -1006.93
53.132099 -32.518799 -1007.92
52.812901 -32.1702 -1008.61
53.352699 -31.5732 -1009.52
53.423302 -31.091299 -1010.29
53.178699 -30.795099 -1010.97
53.165798 -30.331499 -1011.71
53.1525 -29.901199 -1012.45
53.167599 -29.430599 -1013.27
52.934299 -29.082701 -1013.95
52.995499 -28.692499 -1014.57
52.845299 -28.369101 -1015.16
52.620602 -28.0965 -1015.76
52.481098 -27.749901 -1016.34
52.442902 -27.3974 -1016.98
52.525299 -26.9503 -1017.61
52.320202 -26.6698 -1018.22
52.056999 -26.361799 -1018.77
51.847599 -26.049999 -1019.38
52.082298 -25.6161 -1020.03
51.844799 -25.319401 -1020.57
51.701 -25.0124 -1021.17
51.546299 -24.719601 -1021.73
52.009201 -24.1387 -1022.51
51.126499 -24.092899 -1023.02
51.1115 -23.718399 -1023.6
51.1259 -23.3591 -1024.09
50.6408 -23.257 -1024.45
50.4482 -22.9991 -1024.86
50.3867 -22.694901 -1025.37
50.031399 -22.4741 -1025.83
49.557701 -22.3468 -1026.28
49.034302 -22.2138 -1026.6801
49.230999 -21.798201 -1027.24
49.111301 -21.513399 -1027.73
48.742001 -21.319201 -1028.15
48.505001 -21.074499 -1028.65
48.283901 -20.819099 -1029.11
48.1628 -20.550501 -1029.59
47.7831 -20.3566 -1030.03
47.3834 -20.1733 -1030.45
47.1917 -19.935101 -1030.9
46.900002 -19.7197 -1031.3101
46.630402 -19.505199 -1031.73
46.276402 -19.3225 -1032.13
45.922798 -19.1556 -1032.55
46.057301 -18.775499 -1033.05
45.712399 -18.577299 -1033.53
45.244202 -18.438999 -1033.89
45.093601 -18.217501 -1034.28
44.1147 -18.242701 -1034.5601
44.3759 -17.851 -1035.03
43.846401 -17.7414 -1035.39
43.557899 -17.5481 -1035.77
43.1031 -17.4286 -1036.1
42.898998 -17.208799 -1036.51
42.631802 -17.0012 -1036.9
42.0574 -16.9258 -1037.22
42.120899 -16.6047 -1037.6801
41.663898 -16.4809 -1038.02
41.145401 -16.350401 -1038.35
40.726398 -16.224701 -1038.7
40.192799 -16.160999 -1039
40.006802 -15.9297 -1039.37
39.784199 -15.7372 -1039.73
39.327499 -15.6252 -1040.05
38.787998 -15.5279 -1040.35
38.445301 -15.3565 -1040.6801
38.1143 -15.1951 -1041.03
37.814098 -15.0056 -1041.36
37.403702 -14.891 -1041.6899
36.780201 -14.8571 -1041.97
36.447102 -14.694 -1042.29
36.210602 -14.5114 -1042.62
35.828602 -14.3953 -1042.92
35.1805 -14.3437 -1043.17
34.748402 -14.2377 -1043.46
34.4123 -14.0792 -1043.78
34.232899 -13.8859 -1044.14
33.465302 -13.8794 -1044.37
33.059799 -13.7636 -1044.65
32.859299 -13.5488 -1044.97
32.285 -13.4865 -1045.25
31.928699 -13.32 -1045.6
31.550501 -13.2434 -1045.85
30.9977 -13.1848 -1046
30.652201 -13.0521 -1046.27
29.9995 -13.0507 -1046.48
29.3972 -13.0408 -1046.71
28.8477 -12.9666 -1046.9399
28.449301 -12.8491 -1047.1899
28.3057 -12.6614 -1047.49
27.348301 -12.7193 -1047.6899
27.177 -12.5389 -1048
26.9624 -12.3737 -1048.28
25.831499 -12.4991 -1048.39
25.587999 -12.3596 -1048.64
25.260599 -12.2631 -1048.87
24.501801 -12.3152 -1049
23.8986 -12.2831 -1049.16
23.337799 -12.2523 -1049.36
22.634199 -12.2559 -1049.53
22.0513 -12.2223 -1049.7
21.638901 -12.1587 -1049.9
21.0912 -12.11 -1050.0699
20.510099 -12.0883 -1050.24
19.849899 -12.093 -1050.38
19.371201 -12.0368 -1050.5601
18.9527 -11.9785 -1050.75
18.276699 -12.011 -1050.88
17.5042 -12.0558 -1050.99
16.8927 -12.0398 -1051.12
16.2806 -12.0489 -1051.24
15.5748 -12.0906 -1051.35
14.9258 -12.0908 -1051.5
14.4118 -12.0299 -1051.6801
13.5033 -11.8767 -1052.08
12.8636 -11.8839 -1052.23
12.106 -11.9328 -1052.36
47.991402 -41.293598 -993.08197
49.414101 -40.0457 -994.646
50.591999 -38.195599 -997.68103
51.796001 -36.564098 -1000.17
51.738701 -36.052898 -1001.2
51.586102 -35.543301 -1002.09
52.0079 -34.842499 -1003.28
52.431099 -34.194401 -1004.2
52.972198 -33.502201 -1005.22
53.179501 -32.944401 -1006.1
53.126202 -32.496799 -1006.92
52.847401 -32.1227 -1007.69
53.444599 -31.454 -1008.58
53.381199 -31.046 -1009.35
53.183498 -30.675699 -1010.09
53.104698 -30.261999 -1010.76
53.175201 -29.816 -1011.53
53.2159 -29.364401 -1012.3
53.1894 -28.944599 -1013.01
52.967701 -28.5711 -1013.78
53.477901 -27.990101 -1014.49
53.019001 -27.807699 -1015.01
52.7146 -27.529499 -1015.6
52.8946 -27.0818 -1016.27
52.755402 -26.7834 -1016.86
52.733002 -26.395 -1017.49
52.3367 -26.150101 -1018.06
52.290501 -25.7896 -1018.66
52.246601 -25.4126 -1019.28
52.053001 -25.131701 -1019.85
51.692101 -24.895201 -1020.37
51.736301 -24.497 -1020.99
51.597301 -24.1367 -1021.58
51.6133 -23.7815 -1022.26
51.482601 -23.411699 -1022.92
51.288601 -23.119101 -1023.47
51.070702 -22.874901 -1023.93
50.711102 -22.6938 -1024.3199
50.695 -22.408701 -1024.76
50.069401 -22.3239 -1025.13
50.000198 -22.010799 -1025.65
49.845798 -21.7195 -1026.16
49.723 -21.4424 -1026.64
49.1008 -21.344 -1027.03
48.967701 -21.0741 -1027.52
48.9907 -20.7244 -1028.05
48.394798 -20.6138 -1028.4301
48.379101 -20.268999 -1028.95
48.0695 -20.0667 -1029.4
47.861198 -19.8304 -1029.86
47.322601 -19.699301 -1030.25
47.1143 -19.437799 -1030.71
46.812698 -19.2635 -1031.13
46.642799 -19.0028 -1031.5601
46.3834 -18.807501 -1031.98
46.142799 -18.5627 -1032.42
46.039101 -18.269699 -1032.86
45.4902 -18.157801 -1033.3101
45.377602 -17.888201 -1033.74
45.208801 -17.685101 -1034.12
44.493099 -17.607201 -1034.4399
44.418701 -17.3304 -1034.88
44.019199 -17.1768 -1035.24
43.6982 -17.0186 -1035.62
43.148399 -16.9126 -1035.9399
42.765701 -16.7693 -1036.3101
42.630501 -16.513 -1036.73
42.108501 -16.4175 -1037.0699
42.048599 -16.121901 -1037.48
41.6586 -15.9706 -1037.85
41.045898 -15.916 -1038.16
40.6007 -15.7748 -1038.5
40.353298 -15.6116 -1038.86
40.237202 -15.3201 -1039.23
39.786301 -15.2357 -1039.55
39.599499 -15.0453 -1039.92
39.034801 -14.9417 -1040.23
38.759899 -14.7623 -1040.58
38.222698 -14.6496 -1040.88
37.819099 -14.5315 -1041.2
37.352798 -14.4013 -1041.5
36.868099 -14.3202 -1041.8
36.525101 -14.2001 -1042.13
36.171001 -14.0541 -1042.45
35.842201 -13.8515 -1042.74
35.301601 -13.8008 -1043.02
34.797501 -13.7047 -1043.3
34.3969 -13.584 -1043.6
34.251499 -13.3567 -1043.96
33.642899 -13.2992 -1044.21
33.3699 -13.1395 -1044.53
32.8964 -13.0344 -1044.8199
32.5802 -12.8901 -1045.11
32.139099 -12.7468 -1045.46
31.628401 -12.7216 -1045.6801
31.122999 -12.6644 -1045.85
30.377001 -12.6886 -1046.0601
30.0644 -12.5474 -1046.33
29.5734 -12.4535 -1046.5699
29.021099 -12.4068 -1046.8
28.464199 -12.3745 -1047.02
28.2047 -12.1949 -1047.29
27.2841 -12.2614 -1047.5
27.196199 -12.03 -1047.8199
26.9643 -11.8584 -1048.1
25.7386 -12.0242 -1048.22
25.733101 -11.7989 -1048.49
25.2299 -11.7682 -1048.6899
24.646099 -11.7543 -1048.85
24.0411 -11.7276 -1049.01
23.293301 -11.744 -1049.16
22.6021 -11.7759 -1049.35
22.308399 -11.6547 -1049.58
21.781 -11.6053 -1049.76
21.197001 -11.5868 -1049.9301
20.560699 -11.5901 -1050.08
19.9562 -11.5514 -1050.24
19.3929 -11.5286 -1050.41
18.871901 -11.4952 -1050.5601
18.1236 -11.5515 -1050.6801
17.517799 -11.5424 -1050.8199
16.9259 -11.5185 -1050.95
16.128099 -11.5849 -1051.05
15.5477 -11.5747 -1051.2
15.1321 -11.4724 -1051.42
14.705 -11.3762 -1051.66
14.1869 -11.3434 -1051.86
13.5226 -11.3444 -1052.01
12.7054 -11.4164 -1052.12
12.258 -11.3454 -1052.29
11.6066 -11.3611 -1052.41
10.8262 -11.4418 -1052.49
48.372601 -41.309101 -991.67401
48.480301 -40.553001 -992.98297
49.2472 -39.598801 -994.41302
48.437401 -39.011799 -995.81299
50.5881 -37.6436 -997.52502
51.0284 -36.8573 -998.74701
51.003201 -36.312401 -999.84399
51.646702 -35.490101 -1000.98
52.814999 -34.544601 -1002.25
52.399799 -34.092999 -1003.19
52.647598 -33.570599 -1004.04
52.663601 -33.074699 -1004.93
52.820099 -32.5144 -1005.83
53.134201 -31.950899 -1006.74
53.109901 -31.471701 -1007.57
53.046001 -31.047899 -1008.31
53.255901 -30.533199 -1009.16
52.745998 -30.294701 -1009.77
53.074299 -29.775801 -1010.58
53.199501 -29.271799 -1011.35
53.191299 -28.8253 -1012.09
53.229599 -28.415199 -1012.81
52.972198 -27.996599 -1013.58
53.086899 -27.611 -1014.24
53.4935 -27.0945 -1014.94
52.836399 -26.9799 -1015.44
52.8162 -26.584801 -1016.05
52.849701 -26.175301 -1016.71
52.557301 -25.923901 -1017.27
52.308201 -25.635099 -1017.86
52.340199 -25.2379 -1018.5
52.312599 -24.867901 -1019.11
52.219799 -24.5567 -1019.69
51.867199 -24.2962 -1020.24
51.828098 -23.9252 -1020.83
51.756199 -23.584499 -1021.46
51.8181 -23.195 -1022.12
51.397301 -22.9282 -1022.72
51.313 -22.5655 -1023.31
51.316399 -22.2528 -1023.83
50.8517 -22.121901 -1024.21
50.568199 -21.9223 -1024.58
50.6329 -21.586 -1025.08
50.058701 -21.472799 -1025.48
49.597599 -21.2953 -1025.91
49.454899 -21.0172 -1026.41
49.423801 -20.7029 -1026.9301
48.9081 -20.5637 -1027.33
48.751202 -20.282301 -1027.8101
48.5037 -20.064301 -1028.29
48.3675 -19.774099 -1028.78
48.059399 -19.5298 -1029.22
47.9408 -19.267599 -1029.71
47.3708 -19.1462 -1030.0699
47.259102 -18.893299 -1030.55
47.087898 -18.6394 -1030.99
46.535198 -18.542 -1031.33
46.471298 -18.2293 -1031.8
45.886398 -18.1423 -1032.17
46.001202 -17.778099 -1032.6899
45.886501 -17.49 -1033.21
45.471802 -17.3235 -1033.6
45.2342 -17.1203 -1033.95
44.3792 -17.1273 -1034.26
44.530399 -16.804701 -1034.72
43.993999 -16.659201 -1035.0699
43.7845 -16.443701 -1035.47
43.364101 -16.3216 -1035.8
43.008499 -16.1653 -1036.17
42.692799 -15.9737 -1036.54
42.358898 -15.8143 -1036.9301
42.167599 -15.5683 -1037.3101
41.622398 -15.4594 -1037.64
41.251202 -15.3118 -1038.02
40.764801 -15.215 -1038.36
40.500599 -15.0207 -1038.7
40.241299 -14.8242 -1039.04
39.925999 -14.6853 -1039.39
39.369099 -14.5873 -1039.7
38.944599 -14.4382 -1040.03
38.913601 -14.187 -1040.4301
38.373199 -14.0816 -1040.72
37.821999 -14.0118 -1041.02
37.4478 -13.8614 -1041.34
36.9338 -13.8014 -1041.65
36.734402 -13.5781 -1041.99
36.2952 -13.4723 -1042.28
35.7234 -13.4049 -1042.54
35.3834 -13.2644 -1042.86
35.0117 -13.1182 -1043.16
34.451302 -13.0588 -1043.4301
34.322102 -12.7983 -1043.78
33.676899 -12.7877 -1044.03
33.2328 -12.6801 -1044.3199
32.9716 -12.5189 -1044.64
32.478901 -12.4106 -1044.9301
32.014599 -12.2971 -1045.26
31.499701 -12.2397 -1045.47
31.1406 -12.1513 -1045.67
30.6521 -12.0625 -1045.91
30.013901 -12.0434 -1046.14
29.6756 -11.9088 -1046.4
29.049999 -11.8514 -1046.61
28.5933 -11.7846 -1046.86
28.104099 -11.6811 -1047.09
27.3832 -11.6835 -1047.3
27.2764 -11.4937 -1047.62
26.8923 -11.3802 -1047.88
25.865999 -11.4821 -1048.04
25.7297 -11.3046 -1048.3
25.137501 -11.2925 -1048.47
24.7141 -11.2014 -1048.67
24.0448 -11.2164 -1048.84
23.3557 -11.2185 -1049.01
22.994801 -11.0775 -1049.23
22.464199 -11.0648 -1049.4301
21.8207 -11.0646 -1049.6
21.1896 -11.0473 -1049.75
20.4886 -11.0947 -1049.89
20.0124 -11.0233 -1050.08
19.5714 -10.955 -1050.26
18.820299 -10.9815 -1050.37
18.259501 -10.9442 -1050.52
17.601 -10.9846 -1050.66
16.8281 -11.0424 -1050.76
16.4841 -10.92 -1050.96
15.8651 -10.8932 -1051.17
15.3972 -10.822 -1051.41
14.8978 -10.7539 -1051.62
14.223 -10.7539 -1051.78
13.7452 -10.7048 -1051.95
13.0848 -10.719 -1052.0601
12.4236 -10.7276 -1052.16
11.6382 -10.8095 -1052.23
10.9016 -10.883 -1052.3101
10.3564 -10.878 -1052.42
9.71173 -10.9007 -1052.48
48.627102 -39.981701 -992.73199
49.030899 -39.142899 -994.26501
48.573898 -38.4799 -995.69702
50.930302 -36.9972 -997.41602
51.360199 -36.1675 -998.68701
51.209099 -35.680698 -999.72601
51.943802 -34.877102 -1000.89
51.949001 -34.353298 -1001.86
52.127701 -33.703899 -1002.92
52.936001 -32.9482 -1003.96
53.001999 -32.427101 -1004.84
53.172401 -31.897301 -1005.77
53.308601 -31.3568 -1006.61
53.188 -30.9368 -1007.41
53.0345 -30.557699 -1008.13
53.332802 -29.9825 -1008.98
53.435398 -29.514601 -1009.75
53.0359 -29.2493 -1010.4
53.478901 -28.657 -1011.24
53.200901 -28.305799 -1011.9
53.049999 -27.960899 -1012.59
53.569302 -27.2766 -1013.53
52.977001 -27.1381 -1014.04
52.889301 -26.8487 -1014.64
52.919899 -26.4126 -1015.3
53.0229 -26.0012 -1015.95
52.601398 -25.7703 -1016.47
52.504002 -25.4251 -1017.06
52.692902 -24.9869 -1017.77
52.576698 -24.6359 -1018.37
52.414501 -24.3442 -1018.97
52.286098 -24.005699 -1019.53
52.242599 -23.6616 -1020.14
52.072498 -23.3235 -1020.69
51.6609 -23.1243 -1021.25
51.992901 -22.6387 -1021.97
51.513699 -22.3957 -1022.52
51.753101 -21.919201 -1023.22
51.373001 -21.7209 -1023.67
50.935699 -21.570601 -1024.05
50.6385 -21.370199 -1024.4399
50.666302 -21.0511 -1024.91
50.221199 -20.8936 -1025.34
49.799198 -20.715 -1025.78
49.584 -20.4538 -1026.25
49.237701 -20.274799 -1026.7
49.300999 -19.905899 -1027.23
48.9324 -19.743799 -1027.67
48.5289 -19.5191 -1028.11
48.5812 -19.2089 -1028.64
48.150299 -19.004101 -1029.05
47.910599 -18.7775 -1029.49
47.3764 -18.644699 -1029.91
47.304901 -18.35 -1030.39
46.9473 -18.1835 -1030.79
46.818501 -17.9154 -1031.23
46.527199 -17.722401 -1031.65
46.104698 -17.5604 -1032.03
45.923698 -17.318199 -1032.49
45.750099 -17.0502 -1033
45.3409 -16.879 -1033.4
45.139599 -16.6786 -1033.76
44.376598 -16.613899 -1034.0699
44.4631 -16.308901 -1034.53
43.9296 -16.183901 -1034.88
43.861301 -15.9353 -1035.29
43.565498 -15.7438 -1035.67
42.9981 -15.6546 -1035.99
42.657799 -15.4836 -1036.36
42.387501 -15.2811 -1036.76
42.129501 -15.0679 -1037.14
41.756802 -14.9087 -1037.49
41.297199 -14.7777 -1037.84
40.84 -14.6646 -1038.1801
40.636799 -14.4628 -1038.54
40.081799 -14.3732 -1038.83
40.073601 -14.1128 -1039.24
39.569901 -13.9894 -1039.55
38.963699 -13.9398 -1039.85
38.766102 -13.7435 -1040.24
38.422298 -13.5588 -1040.5601
37.906101 -13.4732 -1040.85
37.429401 -13.3639 -1041.16
37.026199 -13.2661 -1041.48
36.803398 -13.0641 -1041.8199
36.411301 -12.9161 -1042.13
35.9487 -12.8228 -1042.42
35.4506 -12.7438 -1042.6899
35.119301 -12.5699 -1043.02
34.737999 -12.4532 -1043.3101
34.225601 -12.3573 -1043.58
33.719398 -12.281 -1043.86
33.2449 -12.1702 -1044.14
33.093498 -11.9561 -1044.49
32.385101 -11.9521 -1044.75
32.0396 -11.784 -1045.1
31.707001 -11.6631 -1045.33
31.1376 -11.6571 -1045.49
30.501301 -11.6244 -1045.71
30.125999 -11.5053 -1045.97
29.737499 -11.3737 -1046.23
29.3132 -11.2705 -1046.5
28.7283 -11.2178 -1046.72
28.089399 -11.1805 -1046.91
27.748699 -11.089 -1047.16
27.3759 -10.9532 -1047.4301
26.863501 -10.8894 -1047.65
25.974899 -10.9408 -1047.83
25.569401 -10.8625 -1048.05
25.1359 -10.7876 -1048.27
24.6031 -10.7375 -1048.47
24.111401 -10.6615 -1048.67
23.515499 -10.6573 -1048.87
22.8284 -10.6517 -1049.04
22.5165 -10.5568 -1049.27
22.002199 -10.4986 -1049.45
21.3402 -10.5002 -1049.59
20.6688 -10.5115 -1049.76
20.145901 -10.4805 -1049.9399
19.674601 -10.4115 -1050.11
18.9695 -10.4309 -1050.24
18.3491 -10.4306 -1050.38
17.8874 -10.3537 -1050.5601
17.319901 -10.3326 -1050.73
16.6541 -10.3202 -1050.92
15.9771 -10.3004 -1051.13
15.6138 -10.1924 -1051.36
14.9006 -10.2172 -1051.52
14.3981 -10.1801 -1051.6801
13.8193 -10.1485 -1051.8101
13.131 -10.1911 -1051.92
12.5097 -10.2006 -1052.02
11.7723 -10.2541 -1052.1
11.0195 -10.3256 -1052.17
10.3846 -10.3609 -1052.25
9.7627602 -10.3918 -1052.3199
8.9271202 -10.4868 -1052.36
8.27106 -10.5291 -1052.42
46.638401 -40.851501 -990.90002
47.746799 -39.784302 -992.26001
48.522999 -38.7435 -993.92902
51.429699 -36.2234 -997.44299
51.217999 -35.125401 -999.51898
52.2374 -34.244801 -1000.79
52.356098 -33.6572 -1001.77
52.2062 -33.124298 -1002.79
52.665798 -32.498901 -1003.7
53.022499 -31.906 -1004.67
52.778599 -31.4891 -1005.47
53.206402 -30.8549 -1006.4
53.008202 -30.448799 -1007.19
53.237701 -29.938601 -1008.01
53.091499 -29.565201 -1008.75
53.691101 -28.8724 -1009.62
53.233799 -28.6262 -1010.26
52.894001 -28.323999 -1010.94
53.172699 -27.799101 -1011.73
53.3563 -27.3286 -1012.5
53.421101 -26.844101 -1013.29
53.1348 -26.527901 -1013.9
53.071301 -26.2048 -1014.53
52.8218 -25.928699 -1015.07
52.9025 -25.5217 -1015.74
52.3936 -25.3272 -1016.24
52.721901 -24.8179 -1016.94
52.530998 -24.518101 -1017.54
52.283901 -24.2227 -1018.12
52.186199 -23.8619 -1018.72
52.270401 -23.474701 -1019.34
52.027199 -23.2218 -1019.9
51.907398 -22.8867 -1020.47
51.725399 -22.5844 -1021.04
51.552601 -22.278099 -1021.64
51.770199 -21.7843 -1022.37
51.498901 -21.510201 -1022.97
51.291401 -21.211901 -1023.48
51.118301 -20.976 -1023.93
50.581902 -20.8578 -1024.26
50.782799 -20.5028 -1024.74
49.893398 -20.5049 -1025.08
49.920898 -20.152599 -1025.62
49.538399 -19.984301 -1026.0601
49.503799 -19.6507 -1026.5699
49.400902 -19.353001 -1027.0601
48.9734 -19.196899 -1027.5
48.528198 -18.9979 -1027.92
48.4235 -18.7383 -1028.42
48.291 -18.466299 -1028.89
48.206402 -18.159201 -1029.39
47.6451 -18.041401 -1029.77
47.4659 -17.806101 -1030.23
47.223801 -17.5488 -1030.66
47.103901 -17.2325 -1031.13
46.8507 -17.002701 -1031.59
46.1782 -16.9835 -1031.92
46.022598 -16.726601 -1032.37
45.791901 -16.479099 -1032.8199
45.398899 -16.327101 -1033.23
45.188999 -16.1126 -1033.6
44.3311 -16.1038 -1033.87
44.449001 -15.8086 -1034.33
43.9459 -15.6798 -1034.6899
43.855999 -15.4158 -1035.11
43.3456 -15.2978 -1035.4301
43.001598 -15.1457 -1035.8
42.728199 -14.9321 -1036.1899
42.420898 -14.7393 -1036.58
42.0364 -14.5885 -1036.9399
41.7421 -14.4025 -1037.3199
41.391998 -14.2401 -1037.6801
40.858799 -14.1451 -1038
40.636501 -13.9468 -1038.37
40.2789 -13.7961 -1038.6899
39.848099 -13.674 -1039.02
39.4053 -13.5461 -1039.35
39.036098 -13.4011 -1039.6899
38.930801 -13.1406 -1040.0601
38.410801 -13.0479 -1040.36
37.9128 -12.9651 -1040.67
37.500702 -12.8022 -1040.97
37.4398 -12.5611 -1041.36
37.002399 -12.4594 -1041.67
36.541 -12.3463 -1041.97
36.0322 -12.2795 -1042.24
35.486301 -12.2101 -1042.51
34.961102 -12.139 -1042.8101
34.6422 -11.9834 -1043.11
34.128101 -11.8752 -1043.37
33.880901 -11.6989 -1043.71
33.3466 -11.6312 -1043.98
33.251598 -11.3915 -1044.34
32.620201 -11.3248 -1044.61
32.147598 -11.219 -1044.9301
31.693199 -11.1417 -1045.12
30.9258 -11.2191 -1045.28
30.540199 -11.0906 -1045.54
30.1014 -11.0147 -1045.79
29.747 -10.8565 -1046.05
29.373301 -10.7231 -1046.3199
28.785101 -10.6824 -1046.54
28.182301 -10.6601 -1046.76
27.8272 -10.5513 -1047.02
27.2129 -10.5153 -1047.22
26.8615 -10.3993 -1047.45
26.2134 -10.3936 -1047.66
25.652201 -10.3482 -1047.87
25.191299 -10.2584 -1048.09
24.742399 -10.1763 -1048.3199
24.120001 -10.1664 -1048.5
23.452801 -10.1566 -1048.6801
22.948099 -10.1143 -1048.88
22.5222 -10.0348 -1049.09
22.055599 -9.9675598 -1049.28
21.433901 -9.9419603 -1049.4399
20.797899 -9.9354897 -1049.6
20.135099 -9.9445801 -1049.74
19.547501 -9.9404001 -1049.91
19.005501 -9.92416 -1050.0699
18.5193 -9.8387499 -1050.29
17.91 -9.7851295 -1050.5
17.3083 -9.7755699 -1050.6801
16.7901 -9.7265902 -1050.88
16.2707 -9.64221 -1051.1
15.8124 -9.6068096 -1051.29
15.0562 -9.6639099 -1051.38
14.2566 -9.7310495 -1051.46
13.8171 -9.6770601 -1051.64
13.3252 -9.6022596 -1051.78
12.6367 -9.6272001 -1051.87
11.8151 -9.7245502 -1051.9399
11.0059 -9.8185101 -1051.99
10.2178 -9.8979797 -1052.04
9.5974703 -9.9003 -1052.12
8.9898701 -9.9200096 -1052.2
8.24792 -9.9881601 -1052.25
7.4805899 -10.062 -1052.28
46.9254 -40.2687 -990.64502
49.324799 -37.936401 -993.953
50.510399 -36.013199 -996.99902
51.080601 -35.2495 -998.23798
52.1063 -34.295601 -999.54797
51.358398 -34.0667 -1000.37
52.417999 -33.097801 -1001.6
52.133202 -32.633499 -1002.59
53.169701 -31.815599 -1003.66
52.739399 -31.438999 -1004.42
53.212502 -30.814699 -1005.39
53.251598 -30.351801 -1006.24
53.385601 -29.806101 -1007.1
52.997898 -29.5114 -1007.76
53.538399 -28.8841 -1008.64
53.310799 -28.5086 -1009.36
52.837799 -28.2798 -1010
53.041302 -27.759199 -1010.78
53.2034 -27.2974 -1011.57
53.284401 -26.8344 -1012.29
53.673302 -26.303101 -1013.14
53.602001 -25.836 -1013.85
53.243801 -25.6164 -1014.39
53.168598 -25.2768 -1014.99
53.0872 -24.9541 -1015.62
53.244301 -24.4916 -1016.27
52.812401 -24.2883 -1016.78
52.762501 -23.935801 -1017.43
52.610401 -23.580601 -1018
52.430401 -23.291401 -1018.58
52.271301 -22.985701 -1019.17
52.005402 -22.7164 -1019.72
52.0284 -22.337999 -1020.31
51.7654 -22.1 -1020.85
51.291599 -21.8815 -1021.36
51.785198 -21.2712 -1022.21
51.558899 -20.9645 -1022.79
51.322399 -20.694099 -1023.32
50.807098 -20.606199 -1023.68
50.790298 -20.2927 -1024.12
51.027 -19.931601 -1024.6
49.900002 -19.990299 -1024.91
49.858501 -19.6639 -1025.4301
49.418201 -19.499701 -1025.85
49.591702 -19.1152 -1026.4
49.276699 -18.905001 -1026.84
49.0145 -18.6584 -1027.33
48.943401 -18.3629 -1027.83
48.559898 -18.195101 -1028.26
48.2001 -17.9737 -1028.6899
48.120701 -17.6782 -1029.1899
47.491901 -17.5791 -1029.5601
47.2985 -17.296101 -1030.04
47.520302 -16.8885 -1030.65
47.1007 -16.744499 -1031.09
46.942402 -16.472 -1031.5699
46.590302 -16.2929 -1031.97
46.2388 -16.1031 -1032.34
45.875401 -15.933 -1032.73
45.421299 -15.7997 -1033.08
45.329498 -15.5427 -1033.46
44.2873 -15.6381 -1033.6899
44.605499 -15.2458 -1034.1899
44.031799 -15.1512 -1034.55
43.7598 -14.9408 -1034.9
43.649502 -14.7037 -1035.3101
42.9967 -14.6336 -1035.64
42.860901 -14.3892 -1036.04
42.4576 -14.235 -1036.41
42.243301 -14.0335 -1036.8
41.4883 -14.0054 -1037.08
41.326199 -13.749 -1037.5
40.9655 -13.6038 -1037.84
40.724899 -13.4121 -1038.21
40.312599 -13.2861 -1038.53
39.761002 -13.2232 -1038.8199
39.449001 -13.0309 -1039.1801
39.186699 -12.8402 -1039.54
38.884899 -12.665 -1039.89
38.428001 -12.5323 -1040.1801
37.934898 -12.4481 -1040.51
37.371101 -12.3581 -1040.78
37.430099 -12.0506 -1041.1801
36.577301 -12.0841 -1041.4
36.369701 -11.916 -1041.75
36.1973 -11.7266 -1042.09
35.610401 -11.6408 -1042.36
35.072601 -11.5593 -1042.63
34.791801 -11.4112 -1042.96
34.520401 -11.2464 -1043.29
33.926102 -11.1888 -1043.54
33.411701 -11.0892 -1043.8
32.9846 -10.9802 -1044.1
32.784 -10.7767 -1044.46
32.324001 -10.6581 -1044.77
31.7402 -10.6299 -1044.9399
31.2757 -10.5622 -1045.15
30.6635 -10.5247 -1045.37
30.351101 -10.4137 -1045.66
29.819901 -10.3328 -1045.89
29.266701 -10.2689 -1046.11
28.782101 -10.2025 -1046.36
28.313 -10.112 -1046.61
27.7938 -10.0441 -1046.8199
27.3269 -9.9778099 -1047.0601
26.860201 -9.8944397 -1047.29
26.1884 -9.88974 -1047.48
25.83 -9.77283 -1047.73
25.501301 -9.6465797 -1047.97
24.9403 -9.5903597 -1048.17
24.217501 -9.5965595 -1048.34
23.446699 -9.6428204 -1048.5
22.9641 -9.5635996 -1048.71
22.4895 -9.5306396 -1048.91
21.984501 -9.4970703 -1049.1
21.4084 -9.4475403 -1049.26
20.849701 -9.4243202 -1049.4301
20.1991 -9.42593 -1049.58
19.700001 -9.3890104 -1049.76
19.313499 -9.2991304 -1049.96
18.7307 -9.2510099 -1050.1801
17.998199 -9.2514 -1050.4
17.443199 -9.1968699 -1050.58
16.9203 -9.1573496 -1050.73
16.3892 -9.1062899 -1050.91
15.7377 -9.1372099 -1051.05
15.0295 -9.1849403 -1051.13
14.48 -9.1632404 -1051.25
13.8984 -9.1122999 -1051.4399
13.3467 -9.0869102 -1051.59
12.5067 -9.1764202 -1051.65
11.7209 -9.2472801 -1051.71
11.036 -9.2947397 -1051.79
10.4063 -9.3332796 -1051.9
9.7955303 -9.3345299 -1051.99
9.01752 -9.4067402 -1052.04
8.2838097 -9.4723501 -1052.09
7.5885601 -9.5385704 -1052.14
6.1585102 -9.6542397 -1052.1899
47.564301 -39.489399 -990.677
49.049702 -38.189499 -992.17603
49.398399 -37.375801 -993.80701
50.974899 -35.3922 -996.93799
51.666698 -34.498001 -998.22803
52.060101 -33.813 -999.37799
52.438702 -33.077801 -1000.49
52.4869 -32.548401 -1001.49
52.0877 -32.131199 -1002.43
52.684399 -31.4307 -1003.37
52.987701 -30.8377 -1004.29
53.476299 -30.1938 -1005.29
53.2001 -29.8417 -1006.06
52.905602 -29.470501 -1006.8
53.566399 -28.799601 -1007.72
53.2798 -28.464199 -1008.42
53.271099 -28.0238 -1009.16
53.481602 -27.5284 -1009.95
53.111099 -27.237801 -1010.63
53.893501 -26.506399 -1011.54
53.605701 -26.1966 -1012.18
53.500301 -25.805799 -1012.88
53.904499 -25.2344 -1013.75
53.107101 -25.1467 -1014.2
53.192902 -24.7605 -1014.82
53.141998 -24.3871 -1015.41
52.873798 -24.127701 -1016.01
52.578999 -23.8557 -1016.54
52.828201 -23.3848 -1017.26
52.2976 -23.204 -1017.75
52.373299 -22.7736 -1018.39
52.1688 -22.4874 -1018.96
52.449001 -22.035101 -1019.63
51.854599 -21.894699 -1020.07
51.713402 -21.610701 -1020.63
52.096001 -21.0867 -1021.31
52.025101 -20.697001 -1022.01
51.305401 -20.573999 -1022.53
51.076 -20.318899 -1023.06
50.773899 -20.094601 -1023.5
50.6996 -19.817101 -1023.93
50.967701 -19.417101 -1024.41
50.122601 -19.405199 -1024.77
49.833099 -19.163401 -1025.24
49.7421 -18.882 -1025.73
49.4548 -18.683201 -1026.2
49.197399 -18.419399 -1026.64
48.875999 -18.194599 -1027.1
48.8008 -17.8997 -1027.61
48.636902 -17.641399 -1028.09
48.537701 -17.3535 -1028.58
48.008999 -17.2164 -1028.98
47.632702 -17.0331 -1029.41
47.254601 -16.761 -1029.95
47.338299 -16.448799 -1030.51
46.9193 -16.268999 -1030.9
47.001801 -15.9455 -1031.4
46.552898 -15.7936 -1031.8
46.492298 -15.5009 -1032.25
45.880501 -15.4051 -1032.58
45.6852 -15.193 -1032.97
45.320301 -15.0552 -1033.28
44.412998 -15.0869 -1033.55
44.980801 -14.6116 -1034.09
44.152699 -14.5933 -1034.38
43.889801 -14.383 -1034.76
43.680199 -14.1788 -1035.15
42.7701 -14.2006 -1035.42
42.852501 -13.8904 -1035.85
42.350899 -13.7706 -1036.2
42.1805 -13.5521 -1036.61
41.693901 -13.4167 -1036.95
41.367199 -13.2291 -1037.3101
41.054798 -13.0731 -1037.67
40.536598 -12.9806 -1037.97
40.2663 -12.7922 -1038.33
39.893299 -12.6605 -1038.67
39.584202 -12.4969 -1039.02
39.047199 -12.3941 -1039.3199
38.9431 -12.1616 -1039.71
38.406502 -12.0695 -1040
38.149399 -11.8698 -1040.36
37.705898 -11.7572 -1040.67
37.446999 -11.5674 -1041.02
36.677898 -11.5512 -1041.25
36.581699 -11.3374 -1041.63
36.093201 -11.2404 -1041.89
35.5509 -11.1787 -1042.17
35.0728 -11.0599 -1042.45
34.7882 -10.8989 -1042.78
34.404499 -10.7724 -1043.09
33.9175 -10.685 -1043.36
33.521702 -10.5708 -1043.63
33.173 -10.4122 -1043.95
32.700001 -10.3022 -1044.28
32.181 -10.1934 -1044.5699
31.6008 -10.166 -1044.72
31.259199 -10.0685 -1044.95
30.734501 -9.9924002 -1045.21
30.2782 -9.9070101 -1045.45
29.691 -9.8585196 -1045.6801
29.432301 -9.7008104 -1045.97
28.892599 -9.6368999 -1046.1899
28.157301 -9.6465502 -1046.39
27.5994 -9.6061401 -1046.61
27.141399 -9.5374804 -1046.84
26.758499 -9.4249001 -1047.09
26.439301 -9.2868299 -1047.34
25.7164 -9.3108501 -1047.53
25.333599 -9.1996498 -1047.76
24.850401 -9.1296396 -1047.97
24.146999 -9.1281099 -1048.15
23.5154 -9.12152 -1048.3199
22.9484 -9.0870705 -1048.53
22.7218 -8.9433899 -1048.77
22.1479 -8.9017897 -1048.95
21.4473 -8.9285297 -1049.1
20.8589 -8.8994398 -1049.26
20.1647 -8.9151897 -1049.4
19.8528 -8.8106098 -1049.61
19.3076 -8.7696199 -1049.77
18.761499 -8.7340698 -1049.98
18.111 -8.6669302 -1050.2
17.4062 -8.6993704 -1050.37
16.9666 -8.6317396 -1050.54
16.368 -8.6223402 -1050.6801
15.7393 -8.6504498 -1050.78
14.9958 -8.71033 -1050.87
14.231 -8.7492104 -1050.96
13.8738 -8.6393099 -1051.16
13.2397 -8.6338797 -1051.3
12.5676 -8.6918898 -1051.39
11.8392 -8.7685499 -1051.46
10.9905 -8.8508301 -1051.52
10.4422 -8.8276396 -1051.6899
9.9784498 -8.7501497 -1051.84
9.11658 -8.8573904 -1051.89
8.3775597 -8.9077797 -1051.9301
6.9019799 -9.0811796 -1051.96
6.2116699 -9.1729097 -1051.97
48.234299 -39.500999 -988.81799
47.308701 -39.114498 -990.31
48.891998 -37.004799 -993.52899
50.686401 -35.492901 -995.52698
51.224499 -34.722599 -996.82501
51.285099 -34.130299 -997.948
51.134701 -33.651501 -998.93597
52.564098 -31.989599 -1001.28
52.499699 -31.4695 -1002.32
52.883499 -30.8454 -1003.21
53.059101 -30.263399 -1004.14
53.335602 -29.7006 -1005.05
53.093399 -29.361401 -1005.83
53.188702 -28.838499 -1006.65
53.262199 -28.346001 -1007.49
53.3354 -27.9056 -1008.26
53.613602 -27.3857 -1009.09
53.4188 -27.033501 -1009.74
53.306999 -26.639601 -1010.49
53.468201 -26.170099 -1011.27
53.331001 -25.8004 -1011.93
53.394199 -25.3416 -1012.63
53.377399 -24.8925 -1013.45
