# .PCD v0.7 - Point Cloud Data file format
VERSION 0.7
FIELDS x y z
SIZE 4 4 4
TYPE F F F
COUNT 1 1 1
WIDTH 1699
HEIGHT 1
VIEWPOINT 0 0 0 1 0 0 0
POINTS 1699
DATA ascii
46.631401 13.6364 -983.32397
46.934399 13.8522 -983.85199
46.945702 13.975 -984.27399
47.049702 14.143 -984.737
47.372601 14.3558 -985.24298
47.568401 14.5376 -985.68201
47.6367 14.677 -986.11902
47.595402 14.7932 -986.539
47.598301 14.907 -986.98602
47.9814 15.1778 -987.52002
47.711899 15.2347 -987.93402
47.963799 15.4924 -988.466
48.363899 15.7284 -989.03302
48.235802 15.8406 -989.44397
48.495399 16.070801 -989.94598
48.400501 16.1577 -990.35303
48.755901 16.409401 -990.87701
48.798801 16.555099 -991.336
48.477501 16.6173 -991.71198
49.037998 16.932301 -992.30103
48.9216 17.0497 -992.77899
48.971699 17.2024 -993.30103
49.102402 17.392401 -993.82098
48.909801 17.4995 -994.24902
49.2523 17.7346 -994.82001
49.153599 17.8521 -995.21899
49.3969 18.057501 -995.77502
49.1516 18.130699 -996.17603
49.083099 18.2687 -996.651
49.160801 18.4457 -997.185
49.2663 18.5982 -997.75403
49.271801 18.767099 -998.30701
49.296001 18.946199 -998.84003
49.487499 19.151199 -999.41602
49.493301 19.3141 -999.901
49.159698 19.386101 -1000.3
49.1101 19.52 -1000.8
48.956299 19.639601 -1001.27
48.815899 19.733999 -1001.76
48.720299 19.9214 -1002.29
48.722599 20.0658 -1002.85
48.663101 20.259899 -1003.42
48.670502 20.4445 -1004
48.211102 20.468901 -1004.43
48.063 20.579901 -1004.93
48.393101 20.8557 -1005.53
48.0107 20.923901 -1006
47.954601 21.064899 -1006.52
47.911598 21.227699 -1007.09
47.629002 21.341499 -1007.62
47.336399 21.4373 -1008.16
47.244099 21.625099 -1008.79
46.970001 21.7355 -1009.34
46.628399 21.813299 -1009.85
46.7407 22.031401 -1010.46
46.551998 22.177299 -1010.99
46.192001 22.2379 -1011.47
45.729698 22.3011 -1012
45.573502 22.4503 -1012.6
45.397499 22.594999 -1013.2
45.270302 22.781601 -1013.82
44.709099 22.823099 -1014.41
44.5159 22.9928 -1015.08
43.9067 23.0042 -1015.59
43.744499 23.1833 -1016.2
43.568802 23.314199 -1016.78
43.301201 23.4445 -1017.38
42.352402 23.3773 -1017.87
42.480701 23.6462 -1018.59
41.888901 23.6714 -1019.18
41.5378 23.822599 -1019.89
40.992699 23.9056 -1020.57
40.544498 24.012501 -1021.22
40.000099 24.096399 -1021.86
39.666 24.280001 -1022.52
38.9072 24.2868 -1023.06
38.855999 24.5245 -1023.84
38.036301 24.534401 -1024.47
36.924099 24.457001 -1025.03
36.077099 24.5326 -1025.74
35.8722 24.738899 -1026.6
34.3969 24.622999 -1027.28
34.0014 24.829599 -1028.16
32.610199 24.7752 -1028.86
32.1931 24.9816 -1029.71
31.5485 25.0072 -1030.35
27.615801 24.611601 -1032.09
24.9293 24.917299 -1034.6
31.922701 5.5296001 -965.28003
32.495399 5.7426801 -965.68701
33.0396 5.9735098 -966.08899
33.642899 6.2435598 -966.52502
34.2523 6.5223699 -966.95099
34.732101 6.7337298 -967.33301
35.293499 6.9752498 -967.74402
35.714001 7.1943402 -968.11902
36.239101 7.4293499 -968.54498
36.617199 7.6068702 -968.94098
37.044102 7.8256798 -969.35901
37.581299 8.1031799 -969.80499
38.066502 8.3246498 -970.263
38.555698 8.5693398 -970.729
39.032799 8.8337097 -971.15802
39.3475 8.9635897 -971.56598
39.7458 9.1722097 -971.98297
40.1362 9.3979197 -972.40002
40.2719 9.5480299 -972.76501
40.729401 9.7803297 -973.24103
41.034302 9.9597797 -973.67999
41.509998 10.2331 -974.15698
41.835602 10.4629 -974.61298
42.200298 10.6663 -975.09302
42.532101 10.8692 -975.53601
42.6595 11.0198 -975.927
42.977798 11.1967 -976.35101
43.324501 11.4048 -976.80798
43.483799 11.5529 -977.21899
43.8582 11.8027 -977.69397
44.080399 11.9696 -978.15802
44.315899 12.1427 -978.62201
44.5695 12.3609 -979.10498
44.953098 12.6118 -979.617
45.093899 12.7578 -980.03699
45.285801 12.9292 -980.46002
45.3671 13.0687 -980.85303
45.480099 13.22 -981.276
45.741299 13.3946 -981.73602
46.094799 13.6271 -982.23999
46.124802 13.761 -982.67102
46.4319 13.9875 -983.18701
46.724499 14.2157 -983.70502
47.041401 14.4462 -984.22101
46.928501 14.5603 -984.61102
47.366299 14.8198 -985.12201
47.151299 14.8672 -985.474
47.412998 15.088 -985.93298
47.750401 15.3325 -986.45502
47.5793 15.416 -986.836
47.970501 15.6647 -987.383
47.910801 15.7937 -987.81897
48.112598 15.9782 -988.34601
48.327 16.1873 -988.85699
48.048599 16.207701 -989.24701
48.578899 16.506001 -989.80402
48.567001 16.6231 -990.20898
48.749802 16.825701 -990.69299
48.669601 16.944401 -991.133
48.943199 17.1506 -991.659
49.1031 17.3561 -992.17102
49.085098 17.4781 -992.65302
49.014301 17.621799 -993.14801
49.185299 17.8153 -993.68903
49.247101 17.9897 -994.18701
49.260399 18.122 -994.646
49.120899 18.207701 -995.06097
49.3876 18.452999 -995.60797
49.290199 18.567499 -996.06403
49.0667 18.617901 -996.50299
48.9608 18.749201 -996.98199
49.325298 18.976 -997.62701
49.515598 19.1957 -998.23199
49.324402 19.281099 -998.69202
49.953499 19.5944 -999.38098
48.307999 20.341299 -1002.61
48.568802 20.598801 -1003.28
48.8069 20.8545 -1003.87
48.489399 20.9557 -1004.36
48.238701 21.045 -1004.84
48.350498 21.242001 -1005.37
48.1968 21.388901 -1005.89
48.085899 21.5182 -1006.41
47.861 21.626699 -1006.92
47.669998 21.7337 -1007.48
47.5993 21.934299 -1008.08
47.4739 22.0846 -1008.7
47.102699 22.1714 -1009.22
46.833302 22.270399 -1009.73
46.613701 22.4046 -1010.26
46.647598 22.6005 -1010.84
46.226501 22.669701 -1011.33
46.244999 22.869499 -1011.96
45.4478 22.7999 -1012.37
45.490002 23.029301 -1013.06
45.103901 23.133699 -1013.63
45.288101 23.4224 -1014.37
44.600601 23.4517 -1014.93
44.099602 23.493401 -1015.45
43.6586 23.5811 -1016
43.811001 23.810499 -1016.66
43.0364 23.7967 -1017.15
42.5219 23.862 -1017.72
42.443001 24.066401 -1018.41
41.987 24.177401 -1019.09
41.323101 24.2383 -1019.7
41.032501 24.3934 -1020.43
40.516499 24.4748 -1021.11
40.166801 24.604401 -1021.79
39.2127 24.572399 -1022.35
38.8801 24.694901 -1022.98
38.172501 24.756201 -1023.64
37.851799 24.920401 -1024.35
36.759201 24.8559 -1024.9301
36.426201 25.0739 -1025.74
35.044201 24.945999 -1026.39
34.427502 25.098 -1027.1899
33.557098 25.187 -1028.03
32.8451 25.2696 -1028.83
30.5131 25.223301 -1030.16
31.413799 25.771999 -1031.4301
27.033701 24.999901 -1031.9301
25.8428 25.145599 -1033.16
23.875299 25.113001 -1034.3101
-894.17999 -170.48399 -1011.9
-903.01398 -169.968 -1020.41
31.527399 5.8999901 -965.09802
32.105999 6.14709 -965.49103
32.7878 6.40414 -965.94098
33.305099 6.6160302 -966.35199
33.911098 6.8928199 -966.776
34.482498 7.1512499 -967.18799
35.092899 7.4051499 -967.62
35.656601 7.6587801 -968.03497
36.063999 7.8412199 -968.42102
36.559399 8.0857801 -968.84399
36.967602 8.30618 -969.255
37.494301 8.5313997 -969.71698
38.030701 8.79175 -970.18799
38.366501 8.9895897 -970.59998
38.740299 9.2058096 -971.00702
39.061298 9.3813801 -971.39801
39.496799 9.5949697 -971.82397
40.041401 9.86691 -972.28998
40.438499 10.0891 -972.724
40.665199 10.2752 -973.10999
40.994202 10.4499 -973.56201
41.3578 10.6262 -974.02698
41.778301 10.8882 -974.51398
41.9827 11.073 -974.94501
42.3596 11.2818 -975.40601
42.571098 11.4604 -975.81598
42.8148 11.6308 -976.21899
43.090099 11.8077 -976.64801
43.441502 12.0171 -977.11401
43.6171 12.1711 -977.53998
43.863098 12.371 -977.99597
44.1777 12.5646 -978.47601
44.386902 12.739 -978.95697
44.650101 12.9634 -979.42902
44.973301 13.1904 -979.90503
45.170799 13.3598 -980.33301
45.369598 13.5553 -980.745
45.532001 13.7077 -981.16602
45.919998 13.9251 -981.68402
45.759201 14.005 -982.03802
46.195999 14.2928 -982.55499
46.523399 14.5112 -983.07501
46.569199 14.6546 -983.52197
46.895901 14.8876 -984.03003
47.013401 15.0516 -984.466
47.207298 15.2295 -984.91699
47.4543 15.4233 -985.37299
47.568199 15.5659 -985.80402
47.737499 15.7589 -986.263
47.8983 15.9234 -986.72699
48.022202 16.0804 -987.20898
48.070702 16.235001 -987.685
48.357498 16.444901 -988.24298
48.5518 16.6625 -988.745
48.554699 16.790899 -989.18298
48.446201 16.9009 -989.59497
48.932598 17.161699 -990.13501
48.884998 17.2873 -990.57397
48.8974 17.4412 -991.034
48.870201 17.591299 -991.48297
48.802101 17.7104 -991.93903
49.075401 17.906401 -992.49298
49.0951 18.114201 -992.99103
49.264999 18.272301 -993.54797
48.940201 18.3064 -993.979
49.254101 18.5644 -994.50201
49.186699 18.663799 -994.95203
49.456799 19.0634 -995.95001
49.2691 19.1255 -996.44501
45.1591 19.747801 -1001.34
48.6395 20.915701 -1002.58
48.7323 21.1159 -1003.21
49.184101 21.432199 -1003.85
47.985802 21.299299 -1004.13
48.3535 21.5625 -1004.75
47.689098 21.502501 -1005.11
47.803902 21.745899 -1005.67
48.206402 22.022499 -1006.31
47.543201 21.986099 -1006.72
47.5839 22.1702 -1007.32
47.448399 22.3071 -1007.9
47.2234 22.4529 -1008.49
47.056099 22.581699 -1009.07
46.8386 22.7006 -1009.61
46.683998 22.8806 -1010.16
46.3983 22.969101 -1010.65
46.3839 23.157499 -1011.23
46.247101 23.300301 -1011.82
45.662998 23.3211 -1012.3
45.497299 23.4835 -1012.91
45.145901 23.5998 -1013.47
44.9226 23.752001 -1014.13
44.382801 23.7938 -1014.7
44.243999 23.975599 -1015.33
43.964901 24.074499 -1015.91
43.820702 24.266399 -1016.47
43.273602 24.317301 -1017.02
43.155701 24.4811 -1017.68
42.7323 24.5765 -1018.3
42.141499 24.6383 -1018.93
41.123501 24.597401 -1019.46
41.192699 24.879999 -1020.29
40.533401 24.954901 -1020.93
40.118999 25.0774 -1021.6
39.175201 25.0497 -1022.17
38.5742 25.1101 -1022.77
37.9562 25.190399 -1023.43
37.342701 25.2411 -1024.15
36.917999 25.4109 -1024.9
36.2701 25.506599 -1025.64
34.922699 25.4007 -1026.24
34.523602 25.630501 -1027.16
33.8605 25.7589 -1027.98
32.742901 25.7575 -1028.73
31.703899 25.763901 -1029.49
30.225 25.6441 -1030.1801
28.1313 25.3922 -1030.86
27.752899 25.7195 -1032
25.922701 25.6996 -1033.1
21.1049 24.8638 -1033.83
-891.909 -169.70599 -1007.82
-894.315 -169.24899 -1011.57
-895.47803 -167.733 -1017.21
-899.02399 -167.131 -1021.59
-898.72601 -165.48599 -1025.53
30.6581 6.1089501 -964.55798
31.385401 6.4092698 -964.98401
32.089699 6.6798401 -965.42401
32.7281 6.9535799 -965.85999
33.264 7.1862502 -966.26703
33.739899 7.40521 -966.64203
34.315102 7.6546001 -967.06201
34.7318 7.8378 -967.43402
35.200298 8.0466003 -967.82098
35.8936 8.36026 -968.28601
36.390701 8.59445 -968.716
36.918701 8.8399401 -969.16602
37.127998 8.9651499 -969.526
37.735802 9.2348604 -970.026
38.156601 9.4597797 -970.45398
38.6633 9.7028503 -970.90302
39.0616 9.9025602 -971.323
39.240101 10.0342 -971.67102
39.722801 10.2697 -972.117
40.174301 10.5322 -972.56097
40.4669 10.7082 -972.98199
40.8176 10.9079 -973.42401
41.225498 11.1344 -973.89899
41.628799 11.3857 -974.37097
42.070301 11.5995 -974.85797
42.416901 11.7954 -975.32098
42.608501 11.9855 -975.72803
42.827499 12.1485 -976.12903
42.8843 12.2536 -976.5
43.2719 12.4654 -976.98401
43.378399 12.6247 -977.37701
43.776798 12.8728 -977.87
43.7896 13.0036 -978.26801
44.397301 13.3173 -978.82898
44.8069 13.5733 -979.328
45.015301 13.7783 -979.76202
45.128399 13.9106 -980.159
45.366402 14.0764 -980.56799
45.583 14.269 -980.98602
45.938499 14.4681 -981.48199
46.215801 14.6673 -981.94501
46.3092 14.8087 -982.39099
46.576199 14.9927 -982.88
46.901699 15.2341 -983.40002
46.8018 15.3367 -983.80402
47.082298 15.5344 -984.29901
47.2612 15.7048 -984.75598
47.455799 15.8805 -985.19202
47.682899 16.0793 -985.65698
47.595501 16.204 -986.05798
47.805698 16.4086 -986.53003
47.934799 16.5758 -987.03497
48.133598 16.7593 -987.52802
48.1688 16.9147 -988.013
48.506802 17.153299 -988.57397
48.305801 17.2402 -988.97498
48.569302 17.440901 -989.46198
48.4011 17.5126 -989.85699
48.819 17.767599 -990.40503
49.182201 18.055901 -990.93799
48.898899 18.118999 -991.36603
48.996799 18.3036 -991.85101
48.8022 18.3332 -992.29797
49.135601 18.641899 -992.888
49.299599 18.832701 -993.41199
48.848598 18.836599 -993.81598
49.162998 19.1129 -994.33502
49.008701 19.209101 -994.75598
48.9529 19.328699 -995.224
48.6343 19.3592 -995.58698
48.9935 19.650801 -996.20801
49.0368 19.8846 -996.685
48.606899 19.953899 -997.099
48.027 19.9597 -997.42499
49.240299 21.3176 -1001.39
48.0182 21.2929 -1002.26
48.317902 21.541 -1002.93
47.846802 21.570101 -1003.36
47.987202 21.7899 -1003.96
47.834202 21.9039 -1004.42
48.119701 22.144501 -1004.99
47.418301 22.109301 -1005.39
47.935101 22.389299 -1006.08
47.628399 22.5049 -1006.56
47.248402 22.594801 -1007.05
47.5042 22.899799 -1007.73
47.2472 23.0329 -1008.31
47.005901 23.1472 -1008.86
46.844101 23.264999 -1009.43
46.6567 23.390301 -1009.97
46.4953 23.537001 -1010.51
46.2416 23.648399 -1011.05
45.902699 23.7402 -1011.58
45.616501 23.871599 -1012.14
45.0966 23.915199 -1012.68
44.895802 24.0508 -1013.28
44.644699 24.182199 -1013.94
44.348801 24.3255 -1014.56
43.897701 24.3967 -1015.1
43.940701 24.5966 -1015.76
43.720299 24.7764 -1016.35
43.1143 24.796101 -1016.82
42.493599 24.8419 -1017.36
42.208199 24.933001 -1018
41.962299 25.091101 -1018.7
41.351501 25.151199 -1019.3
40.769798 25.290899 -1019.97
40.533901 25.429001 -1020.7
39.996899 25.507601 -1021.34
39.046299 25.504499 -1021.88
38.638199 25.6 -1022.56
38.244499 25.7299 -1023.26
37.912498 25.941099 -1024.02
36.4034 25.7693 -1024.5601
35.921001 25.967501 -1025.37
35.003201 25.988899 -1026.17
34.592602 26.178101 -1027.0601
33.088402 26.063499 -1027.74
32.260601 26.1269 -1028.61
30.957701 26.103201 -1029.3199
30.4687 26.324301 -1030.2
29.877399 26.5147 -1031.23
27.3204 26.232 -1032
24.8407 25.959 -1032.89
23.356899 26.172501 -1034.49
-892.93402 -170.311 -1002.29
-891.40399 -168.76401 -1004.98
-899.51599 -171.089 -1005.24
-891.38 -168.535 -1007.34
-898.742 -169.28799 -1010.88
-894.008 -166.72 -1013.88
-901.94501 -168.487 -1014.73
-895.04102 -166.263 -1016.6
31.218901 6.9300499 -964.867
31.950001 7.2288198 -965.31299
32.5341 7.4725599 -965.73102
33.146198 7.74231 -966.15198
33.8158 8.0378103 -966.58698
34.313 8.23596 -966.97803
34.647202 8.3844004 -967.32501
35.182499 8.6207304 -967.73602
35.697399 8.8430796 -968.151
36.120399 9.0425396 -968.552
36.729 9.3187304 -969.02301
37.2873 9.5833101 -969.48999
37.608799 9.7588196 -969.896
38.146599 10.0234 -970.35699
38.2896 10.1376 -970.70099
38.769798 10.3826 -971.13898
39.2542 10.6157 -971.57098
39.480999 10.7779 -971.94299
39.896999 10.9878 -972.39099
40.297501 11.1947 -972.83197
40.769299 11.4445 -973.31702
41.0737 11.6325 -973.76202
41.422298 11.8585 -974.23297
41.688499 12.0571 -974.65399
42.019699 12.2435 -975.10602
42.092999 12.3759 -975.47101
42.580898 12.6447 -975.93402
42.937698 12.8621 -976.37598
43.183201 13.0371 -976.79901
43.567699 13.2705 -977.25
43.9235 13.4943 -977.71399
44.250801 13.6837 -978.19
44.563499 13.8905 -978.67401
44.779202 14.0654 -979.112
45.132401 14.2831 -979.58301
45.178101 14.407 -979.96997
45.403099 14.5839 -980.38702
45.7416 14.8057 -980.85999
45.9384 14.9826 -981.30103
45.940102 15.0953 -981.69397
46.282398 15.317 -982.20099
46.656399 15.5683 -982.737
46.8428 15.7454 -983.23102
46.620201 15.8238 -983.59003
46.965302 16.040001 -984.09998
47.317101 16.2621 -984.61298
47.475201 16.430099 -985.05603
47.512699 16.592199 -985.49402
47.354401 16.6884 -985.86603
47.408199 16.818701 -986.27399
47.857498 17.106501 -986.90002
48.023102 17.3002 -987.383
47.893101 17.4049 -987.81
48.021099 17.561399 -988.30902
48.2202 17.766899 -988.80499
48.448898 17.9601 -989.27698
48.5229 18.120399 -989.70697
48.588402 18.2857 -990.17102
48.554798 18.399 -990.60602
48.7234 18.569099 -991.112
48.792801 18.716999 -991.586
49.088402 18.923599 -992.14502
49.091202 19.0937 -992.60199
49.393101 19.350901 -993.18402
49.429001 19.4935 -993.68597
49.205002 19.573299 -994.06598
49.4599 19.775801 -994.56598
49.4659 19.927401 -995.03003
49.752102 20.154499 -995.58002
49.756401 20.3211 -996.06
49.385399 20.3776 -996.47498
49.4049 20.559999 -997.00403
49.5215 20.795799 -997.54901
50.012901 21.118299 -998.22198
49.974899 21.261999 -998.74402
49.781601 21.317699 -999.18903
49.493 21.3559 -999.58502
49.487598 21.5165 -1000.09
49.158298 21.580099 -1000.54
48.923302 21.804399 -1001.56
48.8549 21.957399 -1002.1
48.872601 22.136 -1002.68
48.791599 22.3011 -1003.23
48.958698 22.515699 -1003.81
48.444 22.517799 -1004.22
48.572399 22.712799 -1004.77
48.778599 22.927 -1005.36
48.192501 22.940599 -1005.78
48.279202 23.1483 -1006.35
48.1633 23.2967 -1006.93
47.9557 23.4426 -1007.48
47.814602 23.598 -1008.09
47.433498 23.6807 -1008.63
47.244801 23.8032 -1009.15
47.126598 23.971201 -1009.72
46.662701 23.9911 -1010.17
46.490299 24.109501 -1010.73
46.3745 24.2782 -1011.33
45.900002 24.3368 -1011.84
45.519001 24.4457 -1012.43
45.3139 24.597601 -1013.05
45.0811 25.086599 -1014.47
44.0681 25.028601 -1014.88
44.048199 25.177999 -1015.57
43.9473 25.329399 -1016.22
42.428902 25.0711 -1016.5
42.301601 25.247101 -1017.18
42.293301 25.532499 -1017.87
41.856499 25.6499 -1018.52
41.273701 25.7162 -1019.16
40.818001 25.841101 -1019.84
40.544601 25.965 -1020.57
40.0499 26.075899 -1021.19
39.5397 26.176001 -1021.84
38.624001 26.109301 -1022.33
38.519001 26.363701 -1023.1
37.770302 26.4023 -1023.79
36.545101 26.3367 -1024.33
36.254601 26.518999 -1025.2
35.701302 26.6581 -1026
34.680698 26.7309 -1026.8101
32.917 26.555099 -1027.46
32.312801 26.7335 -1028.45
31.0884 26.7682 -1029.25
29.8221 27.102501 -1031.11
26.389 26.550501 -1031.73
-883.50702 -167.13699 -1001.52
-892.23102 -168.811 -1001.86
-892.77301 -168.16299 -1004.46
-891.48499 -167.196 -1007.05
-893.51599 -167.045 -1008.05
-895.164 -166.729 -1010.58
-894.43298 -165.51199 -1012.99
-902.75403 -165.42799 -1020.32
-897.06799 -162.867 -1024.4301
30.9307 7.4217801 -964.72198
31.6129 7.6947899 -965.15302
32.291 7.9724398 -965.58502
32.8535 8.2383404 -965.987
33.261398 8.4008503 -966.35602
33.819 8.6496296 -966.75702
34.530899 8.9384804 -967.20801
34.986198 9.1274996 -967.59802
35.4361 9.3562002 -967.98901
35.8927 9.5935698 -968.39099
36.2883 9.7895498 -968.79498
36.859001 10.0496 -969.26001
37.3046 10.2736 -969.70801
37.687599 10.4577 -970.14301
38.065498 10.6449 -970.552
38.483501 10.861 -970.96899
38.9562 11.086 -971.40302
39.312302 11.2849 -971.81598
39.803501 11.5536 -972.263
40.050701 11.7339 -972.65997
40.532001 11.9888 -973.13202
40.888401 12.1983 -973.57599
41.394798 12.4593 -974.06897
41.764198 12.6785 -974.513
41.985802 12.826 -974.90997
42.3694 13.0587 -975.33301
42.713402 13.2506 -975.745
43.118301 13.4714 -976.19897
43.480202 13.6777 -976.659
43.613201 13.8136 -977.05402
43.824402 14.0002 -977.48999
44.173302 14.2037 -977.96802
44.495701 14.4267 -978.47101
44.735401 14.6236 -978.93701
45.110802 14.8811 -979.41699
45.162899 14.996 -979.79602
45.3195 15.1574 -980.198
45.487099 15.2913 -980.63599
45.914101 15.5477 -981.15601
45.856899 15.6463 -981.534
46.129501 15.8606 -982.03601
46.486 16.121401 -982.57501
46.453899 16.222601 -982.97101
46.714699 16.430901 -983.45599
46.634701 16.5298 -983.841
46.9328 16.740801 -984.32501
47.162399 16.9051 -984.784
47.645599 17.180599 -985.29199
47.742599 17.2827 -985.72803
47.960999 17.471399 -986.19397
48.260201 17.7202 -986.68597
48.340599 17.8808 -987.14502
48.664001 18.096001 -987.70398
48.505001 18.199301 -988.10797
48.661598 18.3734 -988.57001
48.769199 18.535601 -989.04602
48.866199 18.7104 -989.48602
49.125702 18.914101 -989.99402
49.0751 19.0201 -990.43298
49.1054 19.1852 -990.88898
49.1096 19.304701 -991.37201
49.149799 19.4776 -991.86499
49.2523 19.666401 -992.38898
49.520802 19.9051 -992.96899
49.346901 20.0114 -993.39001
49.459301 20.195801 -993.88098
49.402401 20.2871 -994.31598
49.520802 20.471701 -994.81403
49.350601 20.5875 -995.25098
49.497398 20.7763 -995.78003
49.5826 20.951099 -996.31201
49.538601 21.106199 -996.823
49.6796 21.313801 -997.39502
49.519001 21.4688 -997.87402
49.515099 21.615999 -998.40302
49.625 21.794901 -998.93903
49.454601 21.878201 -999.36798
49.284199 21.993401 -999.81598
49.3713 22.188 -1000.38
49.0476 22.223499 -1000.82
49.163601 22.438499 -1001.4
48.972 22.5567 -1001.9
48.964401 22.716999 -1002.47
49.043999 22.923201 -1003.06
48.755901 23.0133 -1003.54
48.763699 23.207199 -1004.07
48.4744 23.250999 -1004.51
48.623001 23.4706 -1005.08
48.3475 23.544399 -1005.58
48.1259 23.6541 -1006.08
48.099701 23.8363 -1006.68
47.978802 24.007601 -1007.26
47.766899 24.137501 -1007.83
47.6208 24.295401 -1008.41
47.339699 24.375799 -1008.94
46.893101 24.4401 -1009.43
46.966301 24.647499 -1009.99
46.585098 24.711599 -1010.49
46.632401 24.9356 -1011.11
46.113899 24.9697 -1011.6
46.054699 25.150801 -1012.24
45.682701 25.2451 -1012.82
45.529202 25.412201 -1013.5
45.143501 25.468201 -1014.12
44.509899 25.4508 -1014.71
44.236801 25.5951 -1015.19
44.072601 25.796101 -1015.76
43.732601 25.9011 -1016.35
43.389599 26.016399 -1017.02
43.0397 26.1647 -1017.6
41.961498 26.110201 -1018.14
42.432899 26.498199 -1019.05
41.2216 26.474701 -1019.59
41.059799 26.7369 -1020.42
39.1926 26.428101 -1020.8
38.925499 26.5839 -1021.51
38.513901 26.6996 -1022.19
38.361301 26.8734 -1022.92
37.456699 26.8827 -1023.53
36.534401 26.8962 -1024.1801
36.163898 27.0557 -1024.99
35.270401 27.0991 -1025.7
34.4548 27.2234 -1026.52
33.809399 27.3631 -1027.4
31.617701 27.0532 -1027.97
31.226601 27.3452 -1028.97
29.5863 27.243099 -1029.8199
27.014999 26.8647 -1030.48
27.028 27.3531 -1031.92
-889.30603 -166.881 -1001.87
-894.08801 -167.487 -1003.75
-891.297 -166.25101 -1005.23
31.334999 8.2300396 -964.99597
31.9753 8.4646597 -965.42499
32.650002 8.7624502 -965.85699
33.178699 8.9972801 -966.25598
33.673401 9.2030897 -966.64001
34.078499 9.3870201 -966.99298
34.705799 9.6187401 -967.43799
35.296299 9.8765001 -967.86603
35.696301 10.0832 -968.25098
36.292599 10.3748 -968.70801
36.686001 10.5549 -969.11902
37.146999 10.7728 -969.56897
37.561699 11.0094 -970
38.0373 11.255 -970.43597
38.555401 11.52 -970.86798
38.784199 11.7006 -971.20801
39.344501 11.9192 -971.659
39.764599 12.1283 -972.078
40.104401 12.3181 -972.47699
40.543301 12.5463 -972.922
40.945599 12.7621 -973.37402
41.6166 13.0678 -973.92102
41.726101 13.189 -974.302
42.122299 13.4033 -974.75201
42.474899 13.6351 -975.18402
42.743698 13.8192 -975.58899
42.994801 13.9945 -976.00403
43.238098 14.179 -976.42401
43.546101 14.3798 -976.88898
43.8046 14.5803 -977.35101
44.0947 14.7789 -977.82001
44.535801 15.0267 -978.37799
44.465199 15.1421 -978.73199
44.688499 15.3073 -979.14301
45.052299 15.5013 -979.62201
45.1968 15.656 -980.00897
45.4543 15.8264 -980.43201
45.953499 16.0826 -980.914
46.083801 16.221201 -981.328
46.213402 16.384701 -981.771
46.453098 16.5695 -982.242
46.8634 16.7966 -982.76202
47.049099 16.9701 -983.22498
47.3284 17.185699 -983.70398
47.263901 17.312201 -984.08801
47.566898 17.501499 -984.55701
47.8521 17.716101 -985.03699
47.907501 17.873199 -985.47101
48.031399 18.0352 -985.94202
48.240898 18.222099 -986.44702
48.3391 18.402599 -986.914
48.547401 18.6224 -987.44299
48.6754 18.807199 -987.948
48.723301 18.9596 -988.39099
48.732101 19.0693 -988.841
48.841 19.226999 -989.29102
49.011799 19.4266 -989.77002
49.026402 19.559601 -990.21399
49.226398 19.752399 -990.72601
48.865501 19.803101 -991.10699
49.171001 20.037701 -991.66998
49.410599 20.269699 -992.22198
49.527599 20.4655 -992.76599
49.441299 20.561399 -993.20898
49.556599 20.7428 -993.70898
49.456501 20.863701 -994.117
49.752201 21.086 -994.68298
49.726799 21.2307 -995.14001
49.244999 21.2209 -995.51099
49.3214 21.409599 -996.05298
49.440498 21.614401 -996.59998
49.739899 21.8787 -997.229
49.709999 22.009501 -997.74402
49.373798 22.059099 -998.16901
49.612202 22.3071 -998.72699
49.483501 22.4137 -999.17999
49.624199 22.620501 -999.71899
49.344002 22.716801 -1000.17
49.197601 22.7885 -1000.64
49.034 22.9424 -1001.14
49.016201 23.119699 -1001.7
48.928299 23.261499 -1002.27
49.0937 23.469601 -1002.88
48.7766 23.577299 -1003.34
48.8633 23.7603 -1003.88
48.628502 23.833799 -1004.35
48.483898 23.983299 -1004.85
48.4631 24.139601 -1005.41
47.879299 24.135 -1005.82
48.210602 24.4233 -1006.5
48.022598 24.559999 -1007.07
47.828602 24.714899 -1007.64
47.528099 24.815201 -1008.18
47.246899 24.9062 -1008.71
47.066898 25.0403 -1009.24
46.9939 25.1994 -1009.78
46.7976 25.3412 -1010.34
46.271599 25.382999 -1010.79
46.151699 25.5147 -1011.4
46.0522 25.7192 -1012.03
45.500301 25.7456 -1012.55
45.619598 25.9909 -1013.28
45.0984 26.089001 -1013.85
44.877602 26.194901 -1014.43
44.6548 26.337299 -1015.02
43.9142 26.3104 -1015.48
44.108002 26.6036 -1016.19
43.323101 26.5933 -1016.72
42.980701 26.6973 -1017.33
42.309101 26.7486 -1017.91
41.970001 26.891199 -1018.58
41.6465 27.0515 -1019.31
41.0966 27.1208 -1019.98
40.4478 27.1588 -1020.57
40.370399 27.409901 -1021.33
39.7258 27.4858 -1021.94
38.9683 27.558599 -1022.59
38.486801 27.7061 -1023.38
36.729698 27.4851 -1023.97
35.675499 27.536699 -1024.6801
34.860699 27.615 -1025.49
33.8992 27.5875 -1026.23
33.786301 27.880501 -1027.22
32.404999 27.873301 -1027.91
31.802999 28.006599 -1028.86
29.9946 27.8972 -1029.5
28.8827 27.915501 -1030.5699
19.2421 27.1541 -1034.1899
-886.729 -165.38 -998.948
30.4088 8.4419603 -964.43103
31.124399 8.7172203 -964.87
31.8062 8.9940205 -965.30402
32.388802 9.2463102 -965.711
32.943699 9.4713697 -966.117
33.385399 9.6601601 -966.479
33.758099 9.8314505 -966.815
34.424599 10.1069 -967.26099
34.9216 10.3233 -967.67798
35.418499 10.5533 -968.09497
35.987099 10.841 -968.52698
36.516499 11.0877 -968.95801
37.158699 11.3848 -969.43201
37.6707 11.6121 -969.862
38.120098 11.8237 -970.26599
38.501999 12.0074 -970.65601
38.892799 12.2182 -971.04401
39.388699 12.4426 -971.47601
39.7896 12.6455 -971.90198
40.161999 12.8654 -972.32202
40.379799 13.0002 -972.72699
40.9091 13.286 -973.216
41.3619 13.5319 -973.69397
41.680099 13.7031 -974.159
41.897301 13.8799 -974.565
42.0839 14.0498 -974.948
42.652599 14.3391 -975.45697
42.7817 14.4666 -975.84601
43.2687 14.7258 -976.28003
43.518902 14.8828 -976.68597
43.830002 15.0512 -977.15503
43.937901 15.2008 -977.53497
44.409901 15.457 -978.05103
45.0275 15.7354 -978.59497
45.252602 15.8958 -978.99902
45.582901 16.106199 -979.44598
45.986801 16.3391 -979.90601
45.998501 16.458099 -980.27802
46.001202 16.570999 -980.66803
46.222698 16.746201 -981.117
46.5191 16.991199 -981.59698
46.742199 17.1805 -982.07397
47.160702 17.442101 -982.617
47.1245 17.564699 -983.04102
47.134701 17.680401 -983.45599
47.596401 17.958599 -983.97803
47.771198 18.108 -984.42902
47.835098 18.2535 -984.862
48.067299 18.4615 -985.35199
48.151901 18.642401 -985.78802
48.306801 18.804701 -986.26501
48.320999 18.929899 -986.72302
48.528099 19.150499 -987.26398
48.611599 19.3134 -987.737
48.7075 19.463301 -988.19897
48.937599 19.679501 -988.68597
48.879299 19.757401 -989.10199
49.119598 20.003201 -989.59998
48.908501 20.0625 -989.99799
49.242401 20.2869 -990.53998
49.046398 20.3832 -990.96399
49.2906 20.587799 -991.505
49.3531 20.7827 -992.04102
49.4091 20.934099 -992.54901
49.4771 21.118299 -993.03003
49.572498 21.2794 -993.52002
49.2337 21.3148 -993.87598
49.633499 21.553699 -994.46301
49.414001 21.641001 -994.89099
49.373299 21.764999 -995.37299
49.575699 21.974199 -995.92999
49.031601 21.9678 -996.34998
49.854 22.409901 -997.065
49.748901 22.5187 -997.54602
49.318501 22.4923 -997.98297
49.299301 22.8344 -998.93402
49.813 23.113199 -999.58197
49.574699 23.253901 -1000.03
49.670799 23.4765 -1000.57
49.207298 23.497101 -1001
49.078999 23.6628 -1001.53
49.299999 23.895399 -1002.16
49.688499 24.1745 -1002.81
48.610901 24.042299 -1003.13
48.748798 24.253201 -1003.69
48.7215 24.3976 -1004.2
48.379299 24.4748 -1004.65
48.496399 24.6761 -1005.22
48.405102 24.836901 -1005.77
48.0424 24.914101 -1006.26
47.8508 25.042299 -1006.85
47.757401 25.2402 -1007.44
47.479198 25.3344 -1007.99
47.2463 25.462 -1008.51
47.024799 25.576599 -1009.03
46.810699 25.682301 -1009.54
46.629002 25.8106 -1010.1
46.667999 26.0114 -1010.71
46.589298 26.1761 -1011.31
46.107201 26.2509 -1011.84
45.573502 26.3062 -1012.35
45.652901 26.564899 -1013.09
45.273998 26.6469 -1013.7
44.884899 26.742599 -1014.23
44.872898 26.9888 -1014.87
44.340698 27.0021 -1015.37
43.8979 27.059799 -1015.95
43.627499 27.1789 -1016.59
43.053001 27.238501 -1017.12
42.558601 27.355 -1017.72
42.287102 27.516001 -1018.43
41.6339 27.575701 -1019.1
41.173599 27.704 -1019.76
40.540501 27.7631 -1020.35
40.123501 27.8752 -1021.01
39.8046 28.0236 -1021.68
39.029099 28.0436 -1022.29
39.055099 28.3382 -1023.11
37.698399 28.200001 -1023.67
36.8955 28.233 -1024.41
36.705101 28.5441 -1025.35
33.445099 28.4715 -1026.99
32.0065 28.300501 -1027.72
30.679701 28.2628 -1028.4399
30.383101 28.547001 -1029.37
28.876301 28.4664 -1030.28
26.8939 28.3755 -1031.29
20.475201 27.243999 -1031.95
-893.79999 -164.48801 -1002.88
-895.01898 -164.42 -1003.72
30.253401 8.9710398 -964.32599
30.953899 9.2564402 -964.74402
31.4734 9.4458599 -965.13202
32.097698 9.6925402 -965.55603
32.699299 9.95786 -965.96301
33.1936 10.1818 -966.33398
33.687401 10.4037 -966.71002
34.3214 10.6733 -967.12903
35.044102 10.9667 -967.58002
35.605202 11.2003 -967.98401
35.9841 11.3768 -968.34399
36.700699 11.661 -968.82898
37.348099 11.9398 -969.29999
37.7393 12.1472 -969.70697
38.148399 12.3377 -970.11401
38.4795 12.5091 -970.49701
38.999699 12.7533 -970.92902
39.505699 13.0038 -971.37903
39.6894 13.1664 -971.74902
39.971901 13.3248 -972.16101
40.502602 13.6152 -972.64899
40.974899 13.8806 -973.09601
41.105499 14.0086 -973.48602
41.5802 14.2549 -973.96198
41.987999 14.463 -974.38098
42.508499 14.674 -974.836
42.833599 14.8642 -975.22803
43.267601 15.0697 -975.67401
43.630199 15.2506 -976.08899
43.955002 15.4366 -976.53601
43.997299 15.5787 -976.90601
44.3381 15.7984 -977.37701
44.618 15.9923 -977.85303
45.006199 16.2281 -978.34399
45.202702 16.4109 -978.771
45.479801 16.606501 -979.21802
45.782398 16.806299 -979.65503
45.915501 16.9659 -980.07098
46.090302 17.1376 -980.51001
46.451698 17.374201 -981.005
46.617298 17.546301 -981.461
46.8181 17.740101 -981.92401
46.918499 17.8909 -982.39203
47.409698 18.1712 -982.95898
47.455101 18.3228 -983.38202
47.405499 18.4207 -983.76398
47.6497 18.609301 -984.20801
47.851101 18.818001 -984.66803
47.8414 18.921499 -985.09497
48.0466 19.1089 -985.58301
48.277901 19.2994 -986.08899
48.193699 19.400999 -986.51001
48.416901 19.618999 -987.05902
48.5326 19.7834 -987.54102
48.738701 19.987101 -988.03101
48.765701 20.133101 -988.48102
48.884499 20.305099 -988.92401
48.890202 20.425301 -989.36499
49.148399 20.6514 -989.89801
49.256302 20.787399 -990.38599
49.317902 20.9618 -990.87799
49.3573 21.1387 -991.36603
49.4272 21.2927 -991.88898
49.473 21.4597 -992.40399
49.280499 21.563601 -992.82703
49.395802 21.736799 -993.315
49.264301 21.8204 -993.742
49.341999 21.996901 -994.21301
49.403099 22.1805 -994.66901
49.271702 22.299299 -995.24597
50.0462 22.698099 -995.88098
48.639801 22.4583 -996.07703
49.3162 22.8323 -996.742
49.088799 22.951401 -997.263
49.932701 23.369699 -997.83899
47.768299 22.825399 -998.01703
50.442699 23.768299 -999.12402
50.239601 23.8311 -999.5
49.4277 23.8158 -999.84198
48.887001 23.7896 -1000.26
48.544998 24.020599 -1001.27
49.107498 24.373899 -1001.97
49.193199 24.561199 -1002.55
48.139301 24.437901 -1002.89
48.900799 24.8263 -1003.57
48.137798 24.7596 -1003.92
48.355999 25.004 -1004.5
48.617199 25.270399 -1005.11
48.150002 25.281 -1005.57
48.277302 25.5278 -1006.18
47.909 25.622801 -1006.72
47.772202 25.7687 -1007.29
47.624901 25.906799 -1007.87
47.283199 26.009501 -1008.38
46.822701 26.0375 -1008.86
47.365299 26.385201 -1009.54
46.799099 26.402901 -1009.97
46.613998 26.533899 -1010.56
46.2136 26.600599 -1011.07
46.076 26.7696 -1011.7
45.779099 26.885799 -1012.27
45.387501 27.0079 -1012.85
45.110199 27.1626 -1013.48
44.873699 27.2852 -1014.09
44.029701 27.234501 -1014.54
44.194099 27.4706 -1015.18
43.991402 27.6159 -1015.79
43.512402 27.7169 -1016.36
42.999901 27.7612 -1016.91
42.800301 27.9424 -1017.61
42.195499 28.0114 -1018.21
41.758701 28.129 -1018.92
41.325401 28.2917 -1019.59
40.5131 28.2742 -1020.16
40.605999 28.5396 -1020.91
39.729801 28.525801 -1021.41
39.123501 28.6089 -1022.09
38.6161 28.704901 -1022.74
37.942501 28.7848 -1023.46
36.8904 28.7724 -1024.13
36.2299 28.9174 -1024.91
35.437099 28.9846 -1025.76
35.296902 29.2852 -1026.8
32.9697 28.9904 -1027.35
31.447701 29.045601 -1028.26
28.4186 28.560801 -1028.89
28.689199 28.981001 -1030.03
26.202 28.7171 -1030.9399
-888.81598 -161.435 -1005.37
30.5695 9.6468496 -964.56799
31.3636 9.9327402 -965.03101
32.0522 10.2226 -965.45398
32.751202 10.5019 -965.87
33.313499 10.7451 -966.23297
33.796001 10.9441 -966.578
34.386799 11.1639 -966.97101
35.074699 11.4284 -967.40503
35.665298 11.694 -967.81598
36.066299 11.878 -968.19897
36.466999 12.0712 -968.60999
37.051102 12.329 -969.08698
37.489899 12.5367 -969.51099
37.897598 12.7599 -969.93201
38.260399 12.9603 -970.336
38.8564 13.2415 -970.79602
39.183701 13.4102 -971.16998
39.491901 13.6228 -971.54498
40.194199 13.9063 -972.04199
40.684502 14.1147 -972.47302
41.126099 14.3276 -972.89697
41.5359 14.5581 -973.33301
41.8773 14.7466 -973.76001
42.262901 14.9519 -974.19
42.6292 15.1724 -974.61298
42.8284 15.3011 -974.99103
43.246498 15.5116 -975.461
43.440201 15.7069 -975.83899
43.749599 15.8972 -976.28003
44.146198 16.131399 -976.77301
44.3703 16.300501 -977.21997
44.703499 16.517099 -977.71002
44.891102 16.6945 -978.14203
45.161598 16.8997 -978.59698
45.5681 17.1436 -979.08099
45.679001 17.263399 -979.47998
45.935398 17.485399 -979.92102
46.006802 17.619301 -980.32898
46.235199 17.7911 -980.77197
46.512501 18.014 -981.25201
46.7271 18.196699 -981.73798
46.9034 18.3715 -982.22601
47.230202 18.6106 -982.74103
47.484699 18.8062 -983.224
47.593899 18.9697 -983.64203
47.7756 19.128799 -984.091
47.789902 19.2309 -984.51001
47.8102 19.3703 -984.95099
48.0215 19.572599 -985.41101
48.285198 19.759701 -985.953
48.277802 19.9095 -986.38202
48.3675 20.0749 -986.888
48.495998 20.263599 -987.38397
48.589699 20.416901 -987.84302
48.693699 20.5802 -988.31897
48.833 20.747499 -988.77802
48.957802 20.9053 -989.25
49.029202 21.097099 -989.72498
49.0135 21.222 -990.20099
49.2141 21.423 -990.71301
49.127102 21.563801 -991.18201
49.338501 21.777599 -991.72803
49.366199 21.9426 -992.23999
49.197399 22.0359 -992.69702
49.5854 22.296101 -993.23901
49.317001 22.382999 -993.638
49.224201 22.4631 -994.07001
49.320702 22.640499 -994.53302
49.346401 22.877199 -995.125
49.543499 23.108 -995.617
48.519501 22.936199 -995.93298
49.2267 23.2838 -996.65503
49.725201 23.590799 -997.284
49.768398 23.775101 -997.80902
47.8605 23.8384 -999.40302
50.246101 24.678801 -1000.46
47.410999 24.507601 -1002.01
48.2612 24.9834 -1002.79
48.853802 25.3134 -1003.43
48.219799 25.2913 -1003.82
48.4547 25.5313 -1004.4
48.441502 25.6896 -1004.95
47.847099 25.698999 -1005.39
47.942101 25.9077 -1006
47.416199 25.936701 -1006.5
47.431099 26.1555 -1007.11
47.415699 26.3463 -1007.72
47.0844 26.452499 -1008.21
46.950699 26.583 -1008.78
46.711899 26.688999 -1009.26
46.647598 26.8402 -1009.84
46.451599 26.988199 -1010.41
46.0056 27.059 -1010.93
45.994301 27.2509 -1011.56
46.020401 27.4554 -1012.23
45.222801 27.4659 -1012.72
45.002602 27.620399 -1013.35
44.925598 27.754 -1013.99
44.378502 27.803301 -1014.5
43.940899 27.9046 -1015.02
43.630501 28.004299 -1015.59
43.6315 28.243099 -1016.27
43.428799 28.3794 -1016.88
42.6422 28.405899 -1017.43
42.143002 28.49 -1018.09
41.644699 28.601801 -1018.74
41.416 28.791901 -1019.47
40.447102 28.7372 -1019.97
40.261501 28.895201 -1020.65
39.506699 28.926201 -1021.19
39.270599 29.1182 -1021.93
38.6418 29.205299 -1022.57
38.372799 29.3904 -1023.35
36.989498 29.2614 -1023.94
36.698002 29.4958 -1024.8101
35.3479 29.449499 -1025.51
34.905102 29.649 -1026.41
33.8521 29.6199 -1027.22
32.620899 29.6273 -1027.96
-887.74701 -161.49899 -1000.38
-893.30402 -162.36099 -1001.05
-891.203 -161.73 -1002.44
30.5625 10.1479 -964.474
32.062599 10.7114 -965.29303
33.205399 11.1297 -966.03699
33.7477 11.3249 -966.414
34.236099 11.5345 -966.77899
34.8713 11.8156 -967.21399
35.444901 12.0662 -967.65002
35.8778 12.2825 -968.05499
36.466099 12.5555 -968.51898
37.055698 12.8364 -968.974
37.368099 13.0249 -969.33099
37.828899 13.2444 -969.74298
38.2542 13.4357 -970.13702
38.907101 13.7073 -970.56799
39.460999 13.9282 -970.97998
39.8489 14.11 -971.36102
40.345001 14.3503 -971.79602
40.687801 14.5201 -972.21503
41.242901 14.7536 -972.71198
41.523602 14.9702 -973.14697
42.023102 15.2588 -973.62701
42.2117 15.3792 -974.01898
42.590698 15.5812 -974.44897
43.043701 15.8103 -974.89502
43.219601 15.9638 -975.28302
43.400902 16.1453 -975.68103
43.736099 16.35 -976.12799
44.119301 16.582199 -976.625
44.353298 16.7833 -977.05103
44.829201 17.0301 -977.58301
44.958599 17.179399 -978.02002
45.2729 17.3958 -978.48798
45.356602 17.5198 -978.883
45.683102 17.7304 -979.32202
45.9827 17.947701 -979.78497
46.1348 18.0968 -980.21399
46.393101 18.2932 -980.67297
46.540401 18.462 -981.13702
46.6656 18.6127 -981.58502
46.965401 18.8402 -982.11102
47.2141 19.048401 -982.60999
47.249599 19.1703 -983.04303
47.4189 19.327 -983.5
47.648998 19.511 -983.93799
47.767601 19.697599 -984.383
47.8801 19.8416 -984.84198
47.985802 20.017099 -985.28998
48.1199 20.189199 -985.78802
48.137001 20.363001 -986.24298
48.2896 20.5396 -986.75702
48.487301 20.736601 -987.28601
48.4874 20.872101 -987.72302
48.839699 21.122601 -988.263
48.7612 21.218599 -988.66199
49.0718 21.467699 -989.16998
48.875099 21.529699 -989.56897
48.693802 21.587799 -990.005
49.3419 21.940201 -990.625
48.847198 21.9464 -991.013
48.912998 22.1521 -991.51398
49.522301 22.456499 -992.15601
48.895302 22.438 -992.508
49.0765 22.606199 -993.00598
49.091499 22.779699 -993.46503
49.172901 22.8783 -993.94501
49.1031 23.0495 -994.37598
48.6875 23.062201 -994.836
49.452801 23.469801 -995.487
48.295898 23.492901 -995.63702
47.655602 25.124901 -1001.96
48.275799 25.460501 -1002.68
48.4543 25.652201 -1003.24
48.012402 25.709101 -1003.67
48.3307 25.988001 -1004.28
48.216202 26.107201 -1004.8
47.677299 26.1199 -1005.24
47.830002 26.371401 -1005.86
47.484299 26.451799 -1006.41
47.2714 26.5847 -1006.97
47.3731 26.819 -1007.61
46.925499 26.894899 -1008.08
46.804298 26.9944 -1008.64
46.742599 27.1663 -1009.19
46.434399 27.278 -1009.68
46.191002 27.3904 -1010.24
46.060902 27.564199 -1010.81
45.6367 27.6152 -1011.39
45.576 27.7962 -1012.02
45.0499 27.882299 -1012.59
44.776402 28.020399 -1013.19
44.395401 28.1122 -1013.77
44.438599 28.327101 -1014.41
43.904598 28.362301 -1014.9
43.502399 28.4224 -1015.44
43.289398 28.608101 -1016.08
42.835701 28.709999 -1016.63
42.866798 28.953699 -1017.38
41.962601 28.9128 -1017.92
41.5798 29.055901 -1018.61
41.190102 29.200899 -1019.27
40.360199 29.1831 -1019.81
39.7803 29.256701 -1020.43
39.6105 29.437599 -1021.09
39.545101 29.655899 -1021.83
38.236599 29.5203 -1022.33
38.059299 29.7491 -1023.09
36.577301 29.6276 -1023.67
36.283298 29.811399 -1024.53
36.186298 30.179899 -1025.5
34.901402 30.115101 -1026.22
33.324402 29.9499 -1026.84
32.761902 30.1336 -1027.76
31.08 29.997999 -1028.46
29.1056 29.833099 -1029.2
-899.08899 -162.25101 -1001.14
35.957699 12.7583 -967.95398
37.27 13.2783 -968.82397
37.6646 13.4576 -969.16998
38.216099 13.7248 -969.59198
38.716999 13.9647 -970.01398
38.935101 14.099 -970.336
39.495201 14.3557 -970.77802
39.979401 14.5629 -971.22498
40.386002 14.7856 -971.651
40.812 15.0257 -972.10498
41.224201 15.2585 -972.54901
41.5536 15.4136 -973
42.0798 15.6888 -973.49597
42.423801 15.8935 -973.92999
42.595901 16.0287 -974.315
42.848 16.2169 -974.703
43.003399 16.3515 -975.07703
43.499802 16.606501 -975.56403
43.939999 16.858101 -976.03998
43.950199 16.958401 -976.41699
44.329201 17.183001 -976.914
44.694099 17.4177 -977.41901
45.0219 17.644199 -977.90698
45.188801 17.805401 -978.33099
45.2631 17.9104 -978.72699
45.544701 18.108801 -979.164
45.919899 18.3405 -979.64899
45.934299 18.446199 -980.04797
46.332199 18.678699 -980.547
46.413898 18.830999 -981.00598
46.470901 18.974199 -981.44
46.911598 19.2584 -981.99597
47.123299 19.457199 -982.50098
47.086102 19.544399 -982.90997
47.207001 19.724199 -983.336
47.477798 19.9247 -983.78601
47.689899 20.1175 -984.27399
47.909901 20.3235 -984.74402
47.7784 20.408899 -985.14697
48.116798 20.6514 -985.67798
48.080299 20.7871 -986.14301
48.314301 20.997999 -986.67297
48.463402 21.1854 -987.19098
48.491299 21.334101 -987.63898
48.5783 21.4832 -988.09802
48.6283 21.6147 -988.53601
48.7775 21.8081 -988.99701
48.6954 21.927999 -989.435
48.708199 22.052799 -989.89398
49.107399 22.334299 -990.479
48.477001 22.2812 -990.83502
48.9133 22.591801 -991.427
49.315899 22.8465 -992.01801
48.865002 22.881701 -992.41101
49.121799 23.075701 -992.91901
49.1394 23.2314 -993.39001
48.985001 23.3379 -993.81
49.183201 23.5613 -994.33301
49.035599 23.712 -994.83002
49.033298 23.8267 -995.25
48.862499 24.0149 -995.828
48.987202 25.961201 -1002.17
47.9203 25.794701 -1002.5
48.765701 26.205799 -1003.22
47.8475 26.1112 -1003.53
48.054401 26.350901 -1004.11
47.978001 26.4946 -1004.64
47.8652 26.6495 -1005.18
47.5895 26.733101 -1005.7
47.708698 26.9734 -1006.36
47.4156 27.070801 -1006.92
47.135101 27.194201 -1007.46
46.908298 27.3057 -1007.99
46.624699 27.4186 -1008.5
46.4995 27.549 -1009.02
46.1903 27.6311 -1009.53
46.286598 27.868299 -1010.17
45.728802 27.908199 -1010.63
45.671799 28.0945 -1011.29
45.311001 28.185499 -1011.86
44.752899 28.243601 -1012.42
44.736801 28.4764 -1013.09
44.418098 28.5828 -1013.67
43.9804 28.659401 -1014.21
43.969799 28.819599 -1014.83
43.572899 28.924601 -1015.39
43.1245 29.0149 -1015.95
42.9231 29.1766 -1016.57
42.374599 29.2514 -1017.17
41.8773 29.3535 -1017.8
41.598099 29.517799 -1018.52
40.947102 29.587999 -1019.14
40.340099 29.6411 -1019.72
40.0382 29.7808 -1020.38
39.385899 29.8342 -1020.93
39.253502 30.0194 -1021.67
38.8218 30.153999 -1022.35
37.758301 30.1292 -1022.93
37.048801 30.2008 -1023.65
36.1572 30.261101 -1024.37
35.637699 30.426201 -1025.23
34.965302 30.5396 -1026.0601
33.7784 30.5462 -1026.76
33.020802 30.667601 -1027.62
32.239498 30.7556 -1028.45
29.7973 30.4501 -1029.13
-887.99103 -159.658 -998.27899
-885.75598 -158.774 -999.89899
-890.68298 -159.77901 -1000.54
-888.97101 -156.35001 -1010.25
36.946999 13.5235 -968.22498
37.4823 13.7654 -968.64099
37.902599 13.9777 -969.05103
38.3246 14.1855 -969.46399
38.770802 14.4079 -969.86603
39.290798 14.6575 -970.284
39.641399 14.8444 -970.65698
39.947498 15.0248 -971.04102
40.389599 15.2373 -971.50098
40.860699 15.4905 -971.96198
41.1549 15.6808 -972.37598
41.477402 15.8586 -972.82599
42.0242 16.142 -973.33099
42.316502 16.323999 -973.75299
42.530499 16.4911 -974.13898
42.8414 16.6759 -974.55103
43.191002 16.867001 -974.99103
43.532902 17.0725 -975.44098
43.740398 17.228901 -975.85901
44.110901 17.4569 -976.35101
44.428299 17.6612 -976.83698
44.597 17.8328 -977.27802
44.712898 18.0063 -977.70502
44.855301 18.1486 -978.13202
45.133801 18.347799 -978.58502
45.424 18.5527 -979.03198
45.760601 18.748899 -979.51099
46.015701 18.952499 -979.961
46.094002 19.0891 -980.388
46.446999 19.3286 -980.90802
46.396 19.433901 -981.31897
46.952999 19.7507 -981.91101
46.828899 19.8419 -982.31702
46.9916 19.9995 -982.78101
47.185101 20.2057 -983.22699
47.401699 20.3885 -983.67499
47.574501 20.560801 -984.133
47.902 20.775999 -984.63397
47.657001 20.844801 -985.021
47.8769 21.046 -985.52502
48.055099 21.239201 -986.04303
48.229599 21.430099 -986.56
48.269299 21.597 -987.03998
48.242802 21.695801 -987.47498
48.348 21.8776 -987.94
48.409698 22.0446 -988.36298
48.6213 22.224701 -988.87598
48.5723 22.340099 -989.315
48.6987 22.5256 -989.79498
48.8302 22.728901 -990.31097
48.8866 22.8806 -990.836
49.024502 23.0858 -991.35699
49.199699 23.279499 -991.89801
48.684502 23.268801 -992.26599
49.122398 23.542101 -992.80603
48.809502 23.5956 -993.224
49.273899 24.020599 -994.25897
49.1754 24.182301 -994.78601
49.062401 24.254801 -995.16101
48.787399 24.3857 -995.74402
49.169201 26.461201 -1002.11
47.630699 26.1758 -1002.34
48.632301 26.6409 -1003.06
47.5121 26.4664 -1003.36
47.874401 26.748899 -1003.95
47.9888 26.947399 -1004.55
47.462299 26.9669 -1005
47.845001 27.2679 -1005.68
47.591999 27.4041 -1006.22
47.2355 27.4879 -1006.75
47.172501 27.6632 -1007.37
46.762901 27.7244 -1007.86
46.4077 27.799 -1008.35
46.604 28.0376 -1008.96
46.222599 28.1138 -1009.45
46.071602 28.2672 -1010.03
45.523899 28.308399 -1010.5
45.3773 28.463699 -1011.12
45.232101 28.631901 -1011.74
45.066898 28.8255 -1012.4
44.244099 28.803801 -1012.89
44.3764 29.033701 -1013.56
44.103001 29.156799 -1014.15
43.729301 29.240499 -1014.67
43.3829 29.327999 -1015.24
43.333599 29.547701 -1015.92
42.423199 29.5077 -1016.36
41.903099 29.5718 -1016.96
41.517101 29.724199 -1017.62
41.480202 29.989201 -1018.4
40.866798 30.037399 -1019.03
40.472801 30.1537 -1019.68
39.7365 30.172701 -1020.21
39.407398 30.327801 -1020.87
38.942402 30.436701 -1021.47
38.191601 30.4487 -1022.11
37.513 30.5324 -1022.77
36.700401 30.578199 -1023.5
36.505199 30.839701 -1024.34
35.302399 30.830299 -1025.05
35.0895 31.057501 -1025.9399
33.329601 30.857201 -1026.51
32.245499 30.8626 -1027.21
31.553699 31.032101 -1028.08
30.1031 30.9741 -1028.91
28.9902 31.0497 -1029.95
-887.651 -157.164 -1001.73
-894.01001 -158.547 -1001.86
-894.328 -158.423 -1002.98
-891.01898 -155.61 -1009.48
36.404099 13.8026 -967.58698
36.833599 14.0131 -967.97699
37.4818 14.2915 -968.45398
37.9021 14.5132 -968.867
38.1805 14.6619 -969.25098
38.604599 14.8628 -969.66803
39.165001 15.1189 -970.08698
39.423 15.255 -970.44702
39.914902 15.4869 -970.88599
40.276199 15.713 -971.302
40.894699 16.0284 -971.81
41.2272 16.215099 -972.23297
41.5144 16.3894 -972.67297
41.993999 16.626499 -973.17297
42.3946 16.8372 -973.63202
42.402 16.932501 -973.974
42.739399 17.152599 -974.39203
43.009201 17.3242 -974.81299
43.4039 17.5315 -975.29303
43.599602 17.705799 -975.703
43.987499 17.943399 -976.19897
44.228001 18.131701 -976.659
44.559399 18.363501 -977.14899
44.752499 18.536301 -977.604
44.8829 18.693199 -978.03101
45.2682 18.9058 -978.52197
45.4547 19.0909 -978.93903
45.559399 19.230301 -979.349
45.8349 19.433599 -979.81299
45.9655 19.592899 -980.23798
46.084702 19.755699 -980.70099
46.258099 19.927601 -981.17999
46.485298 20.117399 -981.67297
46.931499 20.402399 -982.23401
46.856098 20.4939 -982.62402
47.050098 20.687599 -983.07599
47.143902 20.8116 -983.49799
47.4561 21.0371 -983.99597
47.5676 21.2104 -984.46399
47.459999 21.3125 -984.85602
47.650002 21.500799 -985.35699
47.9879 21.742599 -985.91602
48.228001 21.954399 -986.44299
48.080002 22.039101 -986.87598
48.159302 22.2125 -987.34698
48.342999 22.4084 -987.82001
48.109299 22.4557 -988.185
48.5811 22.735701 -988.74799
48.486599 22.8304 -989.18701
48.670502 23.045601 -989.68201
48.690399 23.1875 -990.16803
48.642601 23.327 -990.64099
48.786701 23.5285 -991.17999
49.277401 23.8416 -991.79498
48.651699 23.8106 -992.12799
48.999298 24.0322 -992.67999
48.830101 24.1273 -993.11401
48.942501 24.304001 -993.58899
48.616299 24.3386 -993.95697
49.1371 24.6894 -994.65302
50.220699 25.141899 -995.409
48.460602 24.796499 -995.52899
48.8237 25.063101 -996.09399
49.7164 25.487499 -996.80701
50.370399 25.822399 -997.56403
47.956699 25.270201 -997.48499
48.601398 26.4897 -1000.76
48.485901 26.618 -1001.3
49.0452 26.930799 -1001.96
47.6567 26.719101 -1002.23
48.509102 27.099899 -1002.93
47.667801 27.0415 -1003.27
47.900101 27.2619 -1003.85
48.152599 27.4972 -1004.46
47.332001 27.4552 -1004.86
47.304001 27.651899 -1005.43
47.124001 27.802299 -1005.99
47.022701 27.952 -1006.58
46.9921 28.1353 -1007.21
46.598598 28.201799 -1007.69
46.306599 28.317699 -1008.21
46.397301 28.512699 -1008.79
46.1236 28.5982 -1009.3
46.1996 28.8332 -1009.93
45.7789 28.889799 -1010.44
45.2967 28.9764 -1010.98
45.032001 29.0923 -1011.59
44.741901 29.2502 -1012.2
44.533298 29.4044 -1012.83
44.124001 29.483 -1013.39
43.786701 29.6161 -1013.95
43.678398 29.7826 -1014.53
42.990002 29.757799 -1015.03
42.8391 29.9221 -1015.69
42.2957 30.0061 -1016.23
42.057098 30.1798 -1016.89
41.740101 30.3284 -1017.56
41.379799 30.485001 -1018.27
40.8904 30.568001 -1018.91
40.493198 30.709 -1019.58
39.737202 30.7206 -1020.12
39.178501 30.7887 -1020.72
39.135502 31.012899 -1021.44
38.388302 31.058201 -1022.05
37.524399 31.0919 -1022.68
36.568501 31.0669 -1023.42
36.305901 31.3445 -1024.22
34.897202 31.200701 -1024.86
34.116501 31.2906 -1025.65
33.395802 31.465799 -1026.4
32.444901 31.499701 -1027.16
31.4893 31.491301 -1027.92
30.5138 31.5965 -1028.79
27.546 31.149099 -1029.33
28.4016 31.855499 -1030.98
