# .PCD v0.7 - Point Cloud Data file format
VERSION 0.7
FIELDS x y z
SIZE 4 4 4
TYPE F F F
COUNT 1 1 1
WIDTH 1563
HEIGHT 1
VIEWPOINT 0 0 0 1 0 0 0
POINTS 1563
DATA ascii
-35.226101 -48.854401 -1006.54
-34.7271 -48.9939 -1006.56
-34.708401 -49.029202 -1005.85
-34.680801 -49.053299 -1005.15
-34.227299 -49.1968 -1005.1
-34.5868 -49.124001 -1003.79
-34.0956 -49.257 -1003.76
-34.181702 -49.2593 -1002.86
-34.133301 -49.302399 -1002.18
-33.680901 -49.448101 -1002.14
-33.7491 -49.4506 -1001.26
-33.582901 -49.556999 -1000.77
-33.291401 -49.604599 -1000.43
-33.105202 -49.678699 -999.95099
-32.8937 -49.7505 -999.53003
-32.762501 -49.836899 -998.93103
-32.556499 -49.919102 -998.46997
-32.547699 -49.974701 -997.66302
-32.361301 -50.015301 -997.16302
-32.0336 -50.147999 -996.862
-31.885401 -50.211201 -996.28003
-31.587601 -50.314201 -995.91803
-31.4079 -50.353802 -995.37097
-31.266701 -50.478001 -994.78101
-31.021799 -50.5513 -994.323
-30.742901 -50.634499 -993.89301
-30.495001 -50.7346 -993.43799
-30.2446 -50.834801 -992.96997
-29.939301 -50.9282 -992.62402
-29.5695 -51.0481 -992.32703
-29.4624 -51.120499 -991.63098
-29.1353 -51.229198 -991.26801
-28.7593 -51.348701 -990.96301
-28.495001 -51.416901 -990.51202
-28.1868 -51.531799 -990.13501
-28.0966 -51.596901 -989.38
-27.8447 -51.713799 -988.87299
-27.466801 -51.844398 -988.56299
-27.300301 -51.896999 -987.91498
-26.706699 -52.060902 -987.92401
-26.4604 -52.148201 -987.38501
-26.104 -52.3195 -987.02399
-25.8235 -52.407398 -986.55701
-25.5322 -52.480499 -986.04999
-25.026899 -52.654301 -985.91498
-24.7787 -52.764702 -985.37201
-24.443399 -52.865601 -984.91602
-23.927 -53.038898 -984.76398
-23.682301 -53.1348 -984.17999
-23.211901 -53.2584 -983.93799
-22.9088 -53.392399 -983.427
-22.454399 -53.534199 -983.133
-22.0047 -53.681599 -982.87598
-21.746201 -53.764801 -982.27002
-21.369699 -53.916698 -981.86499
-20.7701 -54.093498 -981.76801
-20.315701 -54.228401 -981.487
-19.9974 -54.342499 -980.90601
-19.473801 -54.519299 -980.71899
-19.0424 -54.676399 -980.336
-18.5098 -54.8563 -980.10797
-18.1387 -54.9776 -979.67798
-17.58 -55.131699 -979.48297
-17.0158 -55.326401 -979.271
-16.7593 -55.402302 -978.61102
-16.0858 -55.589699 -978.565
-15.4976 -55.791801 -978.38501
-15.0233 -55.959999 -977.94702
-14.4253 -56.127201 -977.79999
-13.9586 -56.318699 -977.39001
-13.3571 -56.452599 -977.16302
-12.7289 -56.6898 -976.97699
-12.386 -56.811798 -976.35303
-11.633 -57.031898 -976.38501
-11.2974 -57.149899 -975.737
-10.4978 -57.375198 -975.76599
-9.88342 -57.567501 -975.50897
-9.3843403 -57.7393 -975.04102
-8.3312998 -58.049099 -975.41803
-7.8394799 -58.192001 -974.97601
-7.0834398 -58.459301 -974.87598
-6.4809599 -58.630501 -974.59003
-5.96808 -58.833599 -974.151
-5.1616802 -59.066502 -974.16803
-4.4412799 -59.3078 -974.02899
-3.7749 -59.541801 -973.72198
-3.08075 -59.733002 -973.50897
-2.51477 -59.920101 -973.07501
-1.6160901 -60.213799 -973.08301
-0.90643299 -60.413898 -972.84802
0.204712 -60.776199 -973.01801
1.2334599 -61.066399 -973.20697
1.82178 -61.245098 -972.685
2.80969 -61.5844 -972.612
4.1549702 -61.924599 -973.03998
4.94525 -62.217201 -972.57001
5.9976802 -62.528702 -972.31
7.99261 -63.068901 -973.18903
9.0945997 -63.3834 -972.82001
12.0526 -64.323502 -972.927
14.7673 -65.087303 -974.49799
-33.8806 -48.028801 -1024.58
-34.4823 -47.923 -1022.69
-34.633499 -47.872898 -1022.01
-34.985199 -47.8535 -1020.96
-35.1255 -47.8508 -1020.24
-35.210899 -47.834499 -1019.6
-35.3708 -47.8232 -1018.81
-35.467701 -47.827702 -1018.12
-35.479198 -47.850899 -1017.56
-35.7341 -47.8004 -1016.54
-35.817699 -47.811001 -1015.78
-35.787899 -47.838699 -1015.22
-35.719299 -47.855999 -1014.68
-35.798199 -47.883499 -1013.9
-35.7714 -47.9105 -1013.27
-35.739601 -47.935902 -1012.63
-35.715199 -47.958599 -1012
-35.641499 -47.993999 -1011.43
-35.539101 -48.056099 -1010.94
-35.446499 -48.085899 -1010.35
-35.480999 -48.1381 -1009.59
-35.2192 -48.217602 -1009.28
-35.3083 -48.194401 -1008.39
-35.329399 -48.2145 -1007.64
-34.873001 -48.3671 -1007.62
-35.078201 -48.333 -1006.57
-34.747101 -48.441601 -1006.34
-34.750599 -48.454399 -1005.6
-34.647099 -48.516899 -1005.07
-34.4543 -48.579399 -1004.64
-34.4874 -48.607601 -1003.83
-34.336601 -48.681099 -1003.33
-34.202 -48.7351 -1002.81
-34.119301 -48.787102 -1002.18
-33.935101 -48.885201 -1001.71
-33.804001 -48.932999 -1001.16
-33.676498 -48.994999 -1000.57
-33.478298 -49.071301 -1000.12
-33.286301 -49.144798 -999.62299
-33.0457 -49.222401 -999.23499
-33.02 -49.2663 -998.46698
-32.870998 -49.335098 -997.90601
-32.5783 -49.453201 -997.58099
-32.280102 -49.541199 -997.23102
-32.166599 -49.609798 -996.59399
-31.940901 -49.689201 -996.12701
-31.6423 -49.7882 -995.76001
-31.382 -49.867298 -995.34003
-31.3556 -49.908401 -994.56598
-31.038099 -50.024799 -994.24298
-30.894501 -50.0802 -993.60999
-30.518999 -50.191299 -993.34998
-30.312799 -50.300701 -992.83301
-30.049601 -50.3993 -992.396
-29.746901 -50.512699 -991.97803
-29.6731 -50.5644 -991.25098
-29.365601 -50.638199 -990.83197
-28.8449 -50.803902 -990.78998
-28.6747 -50.894798 -990.20502
-28.3661 -50.990601 -989.78699
-28.190599 -51.075802 -989.18201
-27.7269 -51.209801 -988.98499
-27.509701 -51.2925 -988.448
-27.2083 -51.400501 -987.99701
-26.7381 -51.543598 -987.83002
-26.5807 -51.625401 -987.15601
-26.1714 -51.745899 -986.88702
-26.121799 -51.8055 -986.034
-25.6157 -51.948898 -985.88
-25.2178 -52.0821 -985.58398
-24.8538 -52.2108 -985.19702
-24.4429 -52.356201 -984.888
-24.0982 -52.465401 -984.44202
-23.663799 -52.615299 -984.19098
-23.2955 -52.746601 -983.76898
-23.034401 -52.848801 -983.16699
-22.7038 -52.968201 -982.71002
-22.255699 -53.108601 -982.43402
-21.759899 -53.2575 -982.224
-21.3713 -53.3806 -981.82501
-20.878 -53.5508 -981.58197
-20.4736 -53.6632 -981.177
-20.1703 -53.810101 -980.63501
-19.5453 -53.9813 -980.58197
-19.0804 -54.124802 -980.255
-18.605801 -54.272301 -979.922
-18.081301 -54.4492 -979.71198
-17.806499 -54.563202 -979.07898
-17.369699 -54.715302 -978.72302
-16.7626 -54.897999 -978.586
-16.243 -55.0373 -978.28302
-15.8186 -55.2057 -977.84497
-15.1151 -55.414001 -977.841
-14.6496 -55.571499 -977.414
-14.2393 -55.702999 -976.93298
-13.3758 -55.957802 -977.112
-12.8967 -56.134102 -976.71002
-12.4258 -56.259499 -976.27899
-11.7842 -56.473999 -976.146
-11.2047 -56.6623 -975.87
-10.5663 -56.849098 -975.63898
-10.0167 -57.044998 -975.30499
-9.2849703 -57.259201 -975.21002
-8.6482496 -57.467499 -974.96503
-8.0727501 -57.636799 -974.63202
-7.3286099 -57.8354 -974.44
-6.6799898 -58.058998 -974.21503
-5.9129 -58.2882 -974.10901
-5.1883502 -58.5177 -973.96997
-4.4406099 -58.7645 -973.79602
-3.73981 -59.002701 -973.58698
-3.1066899 -59.189701 -973.25299
-2.3687699 -59.4151 -973.09302
-1.55371 -59.6744 -972.96802
-0.64947498 -59.9636 -973.07599
0.066162102 -60.213699 -972.72498
0.61096197 -60.367802 -972.19397
1.90009 -60.7323 -972.66602
2.86639 -61.022301 -972.69397
3.8746901 -61.3008 -972.71899
4.9274302 -61.636398 -972.71698
6.1033902 -62.005402 -972.85699
7.1837201 -62.368999 -972.64697
10.2963 -63.174301 -972.99597
12.3314 -63.7915 -973.79602
14.2231 -64.354698 -974.08502
-34.972198 -47.309502 -1021.57
-35.184601 -47.262001 -1020.74
-35.415199 -47.215199 -1019.83
-35.443802 -47.233898 -1019.24
-35.5452 -47.233799 -1018.52
-35.556 -47.253601 -1017.93
-35.578899 -47.278099 -1017.29
-35.682701 -47.244801 -1016.5
-35.755402 -47.255501 -1015.76
-35.7826 -47.260201 -1015.07
-35.717899 -47.3186 -1014.51
-35.6777 -47.360401 -1013.92
-35.680698 -47.375198 -1013.22
-35.719002 -47.3979 -1012.45
-35.577599 -47.443001 -1012.01
-35.577499 -47.4743 -1011.32
-35.544102 -47.516499 -1010.68
-35.3666 -47.568401 -1010.26
-35.4058 -47.594501 -1009.51
-35.259899 -47.638199 -1009.02
-35.232101 -47.6759 -1008.35
-35.150002 -47.725101 -1007.8
-35.071899 -47.756401 -1007.2
-34.9828 -47.821201 -1006.61
-34.885399 -47.841801 -1006.05
-34.817902 -47.889999 -1005.47
-34.700199 -47.9604 -1004.93
-34.496601 -48.041199 -1004.54
-34.5769 -48.073002 -1003.65
-34.280102 -48.173199 -1003.38
-34.2365 -48.209599 -1002.7
-34.141499 -48.246399 -1002.1
-33.8083 -48.378799 -1001.87
-33.847198 -48.366901 -1001.02
-33.680401 -48.426201 -1000.51
-33.472401 -48.5228 -1000.06
-33.412701 -48.5755 -999.35602
-33.1157 -48.667801 -999.06097
-32.951599 -48.718498 -998.53198
-32.796398 -48.817101 -997.98499
-32.585701 -48.879398 -997.487
-32.312801 -48.992802 -997.12903
-32.1782 -49.055302 -996.505
-32.0546 -49.117001 -995.89203
-31.77 -49.202599 -995.48499
-31.625401 -49.288502 -994.92102
-31.3946 -49.370499 -994.46399
-31.078699 -49.443501 -994.10999
-31.001301 -49.520901 -993.37701
-30.6236 -49.656101 -993.13702
-30.3811 -49.712799 -992.63898
-30.133801 -49.848202 -992.19501
-29.7148 -49.937401 -991.98602
-29.5723 -50.048302 -991.35303
-29.3197 -50.137001 -990.88501
-28.9949 -50.2127 -990.51501
-28.703699 -50.314899 -990.10498
-28.381701 -50.437099 -989.716
-28.294201 -50.493099 -988.95001
-27.8678 -50.6353 -988.729
-27.627701 -50.747398 -988.19202
-27.3664 -50.837799 -987.71198
-26.987499 -50.940701 -987.37701
-26.7397 -51.047798 -986.84601
-26.332001 -51.170101 -986.55103
-26.062401 -51.287498 -986.08099
-25.701401 -51.409401 -985.72601
-25.236401 -51.542999 -985.49701
-24.8764 -51.681099 -985.12201
-24.5543 -51.7868 -984.67297
-24.245501 -51.8922 -984.185
-23.7488 -52.0378 -984.00098
-23.4335 -52.148998 -983.51001
-23.1474 -52.295101 -982.96503
-22.597799 -52.443199 -982.85699
-22.306299 -52.569698 -982.31598
-21.881901 -52.6791 -981.98499
-21.472 -52.805599 -981.61902
-21.133699 -52.942699 -981.14203
-20.519699 -53.137402 -981.08099
-20.226801 -53.2397 -980.51001
-19.7852 -53.396801 -980.14398
-19.181601 -53.567101 -980.07501
-18.892799 -53.687901 -979.47101
-18.2852 -53.8787 -979.37598
-17.8071 -54.0005 -979.04199
-17.3459 -54.1731 -978.70398
-16.931601 -54.3111 -978.25299
-16.312099 -54.514599 -978.14899
-15.8173 -54.661098 -977.80603
-15.2422 -54.832298 -977.59003
-14.6694 -55.029202 -977.40002
-14.2333 -55.177299 -976.94501
-13.6289 -55.341702 -976.698
-13.1843 -55.487499 -976.25598
-12.4619 -55.7201 -976.23602
-11.804 -55.907101 -976.112
-11.2254 -56.118301 -975.84003
-10.7647 -56.2878 -975.32501
-9.9307899 -56.4897 -975.42401
-9.5110502 -56.665001 -974.836
-8.8558998 -56.842098 -974.64398
-8.1069298 -57.089001 -974.56201
-7.2605 -57.358601 -974.573
-6.67413 -57.4977 -974.22198
-5.9046602 -57.786999 -974.09802
-5.3197598 -57.9384 -973.69702
-4.2232699 -58.252102 -974.07202
-3.69928 -58.445599 -973.52301
-2.9987199 -58.680302 -973.26398
-2.05774 -58.9412 -973.36902
-1.37598 -59.167599 -973.008
-0.49523899 -59.432201 -973.01398
0.23583999 -59.664799 -972.76801
1.12042 -59.945999 -972.71997
1.96954 -60.215302 -972.61603
2.8336201 -60.465801 -972.52698
3.6926301 -60.755901 -972.388
4.5796499 -60.970001 -972.15997
5.5681801 -61.2952 -972.06702
7.06354 -61.7243 -972.724
7.5833702 -61.9883 -971.70599
9.0457201 -62.383202 -971.88898
11.6824 -63.057201 -973.38898
13.704 -63.694099 -973.64001
-35.1479 -46.683102 -1021.33
-35.3405 -46.636398 -1020.48
-35.424599 -46.639198 -1019.76
-35.456402 -46.655102 -1019.14
-35.565701 -46.637501 -1018.36
-35.581402 -46.648701 -1017.72
-35.625099 -46.675701 -1017.04
-35.614201 -46.707699 -1016.45
-35.707199 -46.6959 -1015.64
-35.696899 -46.716599 -1014.99
-35.6493 -46.744499 -1014.39
-35.628101 -46.7766 -1013.76
-35.547699 -46.8269 -1013.21
-35.5583 -46.831501 -1012.5
-35.558601 -46.884399 -1011.84
-35.493198 -46.918098 -1011.27
-35.531898 -46.929001 -1010.55
-35.521301 -46.985699 -1009.89
-35.419899 -47.012001 -1009.38
-35.3479 -47.059299 -1008.82
-35.196499 -47.122898 -1008.36
-35.3223 -47.126202 -1007.45
-35.165199 -47.185799 -1007
-35.047298 -47.238098 -1006.48
-35.026402 -47.2635 -1005.78
-34.9086 -47.325901 -1005.25
-34.811901 -47.367401 -1004.69
-34.7276 -47.4277 -1004.08
-34.525799 -47.508701 -1003.68
-34.426601 -47.551399 -1003.07
-34.2141 -47.643101 -1002.66
-34.223801 -47.659801 -1001.87
-34.000999 -47.7509 -1001.48
-33.9277 -47.790001 -1000.8
-33.7719 -47.852001 -1000.28
-33.5639 -47.935501 -999.83197
-33.376598 -48.027699 -999.36102
-33.213902 -48.075699 -998.83698
-33.119598 -48.136799 -998.18402
-32.810699 -48.223499 -997.88
-32.656502 -48.3013 -997.30701
-32.477798 -48.402699 -996.79401
-32.2281 -48.4599 -996.35797
-32.185299 -48.542198 -995.59802
-31.8158 -48.634399 -995.37
-31.5839 -48.700901 -994.90399
-31.4109 -48.785301 -994.34399
-31.160601 -48.8862 -993.90503
-31.0439 -48.942299 -993.26801
-30.7104 -49.0369 -992.927
-30.445999 -49.171101 -992.49402
-30.306101 -49.222099 -991.854
-29.750999 -49.383598 -991.85797
-29.766701 -49.426601 -990.96301
-29.455299 -49.512501 -990.58197
-29.089701 -49.618198 -990.28101
-28.839399 -49.710602 -989.80103
-28.538 -49.815201 -989.37402
-28.2563 -49.946098 -988.93799
-27.827801 -50.059601 -988.72998
-27.491899 -50.174999 -988.35303
-27.4902 -50.219601 -987.45801
-26.8627 -50.413502 -987.50702
-26.935499 -50.4268 -986.508
-26.3008 -50.6133 -986.57098
-26.0837 -50.687199 -986
-25.816401 -50.796501 -985.474
-25.299299 -50.935398 -985.35797
-25.032499 -51.034401 -984.82202
-24.7698 -51.166599 -984.30103
-24.3262 -51.290199 -984.03101
-23.813801 -51.458302 -983.854
-23.441299 -51.5854 -983.474
-23.086399 -51.737999 -983.05499
-22.750401 -51.832401 -982.59198
-22.3552 -51.952499 -982.19702
-21.934999 -52.107399 -981.85699
-21.4333 -52.264 -981.64697
-21.091999 -52.382599 -981.16498
-20.608601 -52.532001 -980.91699
-20.264799 -52.669601 -980.422
-19.8843 -52.7803 -979.96301
-19.259199 -52.970901 -979.88397
-18.8326 -53.140499 -979.52502
-18.436001 -53.2729 -979.08002
-18.019699 -53.412701 -978.698
-17.6154 -53.542301 -978.26398
-16.931 -53.749901 -978.25
-16.469801 -53.8885 -977.87201
-16.002199 -54.012001 -977.53101
-15.1946 -54.266499 -977.66901
-14.9774 -54.383999 -976.88
-14.4544 -54.5453 -976.60901
-13.7903 -54.7216 -976.45398
-13.2582 -54.917099 -976.138
-12.7359 -55.0769 -975.78601
-12.0717 -55.298599 -975.66803
-11.2944 -55.5466 -975.71899
-10.7401 -55.688801 -975.33301
-10.3289 -55.8531 -974.83099
-9.5068398 -56.085999 -974.84497
-8.9149799 -56.259701 -974.52197
-8.1925001 -56.4846 -974.42603
-7.6268902 -56.687901 -974.01202
-6.79742 -56.915798 -974.01501
-6.1264 -57.135799 -973.77899
-5.4096699 -57.379902 -973.56702
-4.49017 -57.622101 -973.67499
-3.80865 -57.8232 -973.39203
-3.0304 -58.063499 -973.24402
-2.16785 -58.3111 -973.17902
-1.64893 -58.5056 -972.54199
-0.53692597 -58.852798 -972.78497
0.53521699 -59.131199 -972.95099
1.4470201 -59.416599 -972.948
2.06934 -59.640202 -972.453
2.5033 -59.811001 -971.73602
3.88147 -60.176201 -972.41602
4.78583 -60.4799 -972.25299
5.8424702 -60.765999 -972.367
6.9284701 -61.101601 -972.37097
7.7780199 -61.383701 -972.03601
8.7098398 -61.680801 -971.66699
10.9207 -62.2966 -972.97101
12.7943 -62.877102 -973.38098
16.7663 -63.813099 -976.13098
17.562099 -64.243103 -974.06897
-35.040798 -46.114799 -1021.97
-35.200699 -46.112701 -1021.15
-35.3167 -46.0928 -1020.38
-35.387901 -46.091999 -1019.67
-35.433399 -46.086399 -1018.97
-35.464401 -46.0872 -1018.31
-35.562599 -46.096699 -1017.52
-35.5798 -46.130901 -1016.88
-35.522598 -46.1507 -1016.35
-35.558998 -46.179699 -1015.65
-35.562 -46.180099 -1014.98
-35.521999 -46.243599 -1014.42
-35.598099 -46.2299 -1013.63
-35.501301 -46.2822 -1013.15
-35.587799 -46.285999 -1012.33
-35.5923 -46.298302 -1011.68
-35.560799 -46.340801 -1011.08
-35.524101 -46.373699 -1010.49
-35.534302 -46.4146 -1009.81
-35.544102 -46.432598 -1009.09
-35.463402 -46.4725 -1008.53
-35.408001 -46.5084 -1007.93
-35.265301 -46.5769 -1007.48
-35.170101 -46.631901 -1006.92
-35.1427 -46.6572 -1006.23
-35.037102 -46.693001 -1005.68
-34.991001 -46.747101 -1005.03
-34.914398 -46.8218 -1004.44
-34.760502 -46.879902 -1003.97
-34.6078 -46.930698 -1003.46
-34.520401 -46.987099 -1002.87
-34.375999 -47.035801 -1002.34
-34.327599 -47.091 -1001.64
-34.102001 -47.1693 -1001.24
-33.898102 -47.239601 -1000.78
-33.857899 -47.271801 -1000.08
-33.7075 -47.343399 -999.526
-33.5121 -47.441601 -999.06702
-33.311199 -47.4893 -998.59998
-33.330898 -47.532902 -997.77502
-32.920502 -47.655602 -997.63599
-32.727901 -47.7262 -997.13
-32.5229 -47.816601 -996.63599
-32.292 -47.910801 -996.16498
-32.195599 -47.9687 -995.49799
-31.905899 -48.047401 -995.13702
-31.748699 -48.128502 -994.55603
-31.5305 -48.214298 -994.11102
-31.212999 -48.3274 -993.75299
-31.0247 -48.389 -993.23102
-30.728901 -48.486301 -992.81702
-30.378901 -48.5909 -992.51801
-30.3776 -48.654301 -991.68701
-29.908701 -48.774502 -991.526
-29.992599 -48.790401 -990.54901
-29.346399 -48.969398 -990.69098
-29.188601 -49.059502 -990.07599
-28.947599 -49.138302 -989.56799
-28.592501 -49.262501 -989.25098
-28.439199 -49.354301 -988.59998
-27.9384 -49.5028 -988.48798
-27.632999 -49.5937 -988.07599
-27.6003 -49.654301 -987.21899
-27.0842 -49.811901 -987.08698
-27.0187 -49.864498 -986.31403
-26.4758 -50.026699 -986.24103
-26.066999 -50.167301 -985.98297
-25.8043 -50.2481 -985.47699
-25.4641 -50.365299 -985.09802
-25.054399 -50.494801 -984.76501
-24.801201 -50.5882 -984.24701
-24.372999 -50.702 -983.96198
-24.129 -50.850498 -983.34198
-23.5947 -50.996498 -983.18701
-23.090799 -51.1562 -982.96997
-22.931601 -51.238998 -982.23602
-22.3743 -51.410198 -982.12097
-22.0023 -51.531601 -981.69897
-21.6569 -51.6478 -981.263
-21.207001 -51.7887 -980.95001
-20.878599 -51.899899 -980.49597
-20.387199 -52.0644 -980.229
-19.951 -52.208302 -979.85602
-19.415501 -52.398998 -979.67102
-19.009199 -52.528 -979.20502
-18.412001 -52.693901 -979.112
-18.147301 -52.810501 -978.46503
-17.492701 -53.020199 -978.414
-17.159599 -53.127399 -977.86902
-16.5357 -53.312599 -977.74298
-15.9454 -53.4991 -977.59399
-15.4869 -53.6684 -977.21899
-15.0688 -53.787601 -976.763
-14.537 -53.954601 -976.47198
-13.8654 -54.139099 -976.39899
-13.2571 -54.3395 -976.16101
-12.8979 -54.4925 -975.54303
-12.1826 -54.706001 -975.5
-11.5646 -54.885601 -975.29102
-11.0854 -55.062099 -974.82001
-10.3128 -55.2826 -974.83002
-9.64575 -55.461601 -974.63202
-9.0133104 -55.691601 -974.41602
-8.50037 -55.861698 -973.95898
-7.7846699 -56.077801 -973.79303
-7.1005201 -56.285599 -973.56403
-6.3203702 -56.523899 -973.51001
-5.4254198 -56.7757 -973.54102
-4.6987901 -57.009602 -973.40399
-4.1160898 -57.210899 -972.90997
-3.31195 -57.4697 -972.84698
-2.3513801 -57.7323 -972.85498
-1.57312 -57.9491 -972.64801
-0.45251501 -58.291599 -972.90302
0.29040501 -58.508099 -972.547
1.24084 -58.807098 -972.54797
2.07056 -59.0518 -972.25
3.2957201 -59.419201 -972.659
4.2718501 -59.705101 -972.68402
5.1190801 -60.011299 -972.46399
5.6799898 -60.177502 -971.78601
7.1740699 -60.590599 -972.505
7.9699101 -60.8815 -972.16901
9.1213398 -61.2173 -972.26001
10.2188 -61.5518 -971.979
13.8942 -62.645 -973.12402
-34.995098 -45.526798 -1021.88
-35.133701 -45.499802 -1021.07
-35.240002 -45.4981 -1020.29
-35.272598 -45.5187 -1019.63
-35.3932 -45.522999 -1018.8
-35.434601 -45.511299 -1018.13
-35.428501 -45.522202 -1017.51
-35.548302 -45.531898 -1016.72
-35.557598 -45.556099 -1016.12
-35.573601 -45.579201 -1015.47
-35.589802 -45.593399 -1014.83
-35.663399 -45.622002 -1014.09
-35.550999 -45.654999 -1013.64
-35.5462 -45.678699 -1013.01
-35.667702 -45.694401 -1012.14
-35.657101 -45.709301 -1011.5
-35.643799 -45.729698 -1010.88
-35.561001 -45.777599 -1010.35
-35.505402 -45.838299 -1009.78
-35.427799 -45.891701 -1009.21
-35.412201 -45.925499 -1008.56
-35.438999 -45.941898 -1007.82
-35.389801 -45.9659 -1007.18
-35.315102 -46.019798 -1006.6
-35.237099 -46.063301 -1006
-35.1525 -46.084301 -1005.43
-34.959702 -46.182499 -1005.02
-34.8409 -46.2201 -1004.51
-34.796101 -46.264999 -1003.84
-34.7159 -46.321999 -1003.22
-34.613602 -46.357101 -1002.63
-34.500801 -46.433498 -1002.06
-34.340401 -46.4991 -1001.55
-34.167198 -46.586399 -1001.07
-34.080898 -46.622299 -1000.41
-33.842499 -46.703499 -1000.03
-33.713001 -46.7715 -999.461
-33.525902 -46.827999 -998.97101
-33.348301 -46.9235 -998.47699
-33.296398 -46.966202 -997.77502
-32.991402 -47.0765 -997.43201
-32.907299 -47.123901 -996.75098
-32.6749 -47.220001 -996.32898
-32.296001 -47.319199 -996.09497
-32.288898 -47.3671 -995.28198
-31.965099 -47.457298 -994.97101
-31.697001 -47.562401 -994.591
-31.6061 -47.6036 -993.888
-31.317101 -47.7038 -993.52399
-31.0744 -47.786701 -993.07898
-30.833401 -47.8909 -992.58502
-30.5714 -47.974998 -992.16498
-30.4247 -48.063099 -991.54401
-29.874599 -48.2155 -991.513
-29.9175 -48.2341 -990.57501
-29.4804 -48.372799 -990.41602
-29.315399 -48.447899 -989.80298
-28.9741 -48.578602 -989.46997
-28.613501 -48.674099 -989.13
-28.465401 -48.765202 -988.50299
-27.996201 -48.897499 -988.33099
-27.7255 -49.0037 -987.86902
-27.5221 -49.071999 -987.284
-27.007 -49.2285 -987.13
-27.037701 -49.268902 -986.20898
-26.503201 -49.423801 -986.13202
-26.2181 -49.539001 -985.68298
-25.955 -49.639999 -985.20502
-25.663 -49.742401 -984.76001
-25.295099 -49.855 -984.422
-24.9084 -50.005798 -984.086
-24.630199 -50.0994 -983.55798
-24.223101 -50.212399 -983.20001
-23.783701 -50.361401 -982.87701
-23.198099 -50.528702 -982.75098
-22.9634 -50.632099 -982.12
-22.568399 -50.783798 -981.77502
-22.160299 -50.899799 -981.41498
-21.7668 -51.033199 -981.06201
-21.428801 -51.1507 -980.62598
-21.0417 -51.2738 -980.26202
-20.3853 -51.445202 -980.24701
-20.0875 -51.587898 -979.67603
-19.450399 -51.764198 -979.65002
-19.0333 -51.913799 -979.21698
-18.585199 -52.093601 -978.83398
-18.187599 -52.2136 -978.39001
-17.698799 -52.364601 -978.06403
-17.249599 -52.5238 -977.71802
-16.828899 -52.657101 -977.30402
-16.325399 -52.809399 -977.03802
-15.993 -52.919899 -976.51398
-15.4374 -53.101398 -976.30103
-14.6947 -53.307499 -976.33899
-14.0604 -53.518902 -976.17603
-13.7866 -53.635201 -975.41699
-13.0613 -53.845299 -975.35602
-12.0942 -54.129002 -975.64502
-11.6234 -54.2994 -975.19501
-11.1307 -54.4688 -974.74597
-10.563 -54.643501 -974.47198
-9.8917799 -54.8596 -974.26898
-9.2816801 -55.047199 -973.96503
-8.4955397 -55.268002 -973.95203
-7.88727 -55.469601 -973.65503
-7.22296 -55.692799 -973.43799
-6.42871 -55.905998 -973.36499
-5.7172198 -56.139702 -973.13098
-4.9330401 -56.3484 -973.03497
-4.3452802 -56.567699 -972.60797
-3.3080399 -56.862202 -972.87097
-2.51331 -57.121201 -972.67297
-1.7809401 -57.3008 -972.39502
-0.88732898 -57.614399 -972.315
0.216919 -57.907299 -972.46802
1.08167 -58.170502 -972.30402
1.96552 -58.436901 -972.08801
3.0243499 -58.757801 -972.198
4.3384399 -59.125099 -972.578
5.0838599 -59.352501 -972.20502
6.1508799 -59.651901 -972.16602
7.1215801 -59.995701 -972.09601
8.1236 -60.323898 -972.10901
9.47437 -60.7197 -972.53198
10.5894 -61.0541 -972.50403
12.033 -61.433701 -972.797
13.2796 -61.850899 -972.65002
15.8447 -62.559799 -974.12598
-34.591999 -44.985001 -1023.92
-34.688499 -44.9781 -1023.26
-34.837601 -44.965199 -1022.45
-34.939602 -44.9529 -1021.71
-35.037601 -44.9534 -1020.97
-35.1115 -44.9669 -1020.28
-35.2062 -44.949402 -1019.53
-35.269402 -44.918301 -1018.82
-35.363998 -44.951698 -1018.08
-35.4272 -44.959801 -1017.41
-35.549301 -44.947102 -1016.64
-35.650002 -44.9468 -1015.88
-35.6609 -44.986401 -1015.26
-35.6614 -45.026299 -1014.66
-35.663898 -45.050999 -1014.03
-35.7057 -45.057201 -1013.3
-35.7001 -45.063599 -1012.66
-35.7271 -45.105801 -1011.95
-35.728298 -45.147701 -1011.31
-35.681198 -45.190201 -1010.76
-35.639599 -45.209 -1010.15
-35.551399 -45.2533 -1009.63
-35.5644 -45.2728 -1008.93
-35.471699 -45.3349 -1008.39
-35.4431 -45.357201 -1007.74
-35.377499 -45.388599 -1007.12
-35.3713 -45.428299 -1006.44
-35.284599 -45.4846 -1005.85
-35.2234 -45.528198 -1005.22
-35.067699 -45.5952 -1004.77
-35.109402 -45.5826 -1003.97
-34.9104 -45.6684 -1003.58
-34.896999 -45.703201 -1002.84
-34.708302 -45.763 -1002.39
-34.5266 -45.840099 -1001.93
-34.3652 -45.909199 -1001.43
-34.2435 -45.9874 -1000.84
-34.091 -46.0471 -1000.31
-33.880199 -46.128101 -999.888
-33.7257 -46.2062 -999.367
-33.6605 -46.2425 -998.69299
-33.4259 -46.319099 -998.26599
-33.2593 -46.391399 -997.72198
-33.047401 -46.484699 -997.27899
-32.760601 -46.573898 -996.94202
-32.672901 -46.625301 -996.27002
-32.367599 -46.735901 -995.92102
-32.343899 -46.768902 -995.12598
-32.0219 -46.858799 -994.82098
-31.8962 -46.946701 -994.19397
-31.634199 -47.028301 -993.78198
-31.2591 -47.1702 -993.56403
-31.1283 -47.236099 -992.91998
-30.873899 -47.318901 -992.44397
-30.527 -47.437599 -992.14697
-30.4872 -47.494499 -991.37299
-30.1059 -47.596199 -991.08398
-30.026699 -47.6618 -990.35901
-29.6113 -47.7728 -990.15601
-29.4042 -47.873199 -989.612
-28.9638 -48.009998 -989.40997
-28.7076 -48.086102 -988.94702
-28.470501 -48.178501 -988.43597
-28.207899 -48.273602 -987.92798
-27.923201 -48.3657 -987.45801
-27.6653 -48.494701 -986.987
-27.1 -48.649601 -986.93402
-27.051901 -48.695999 -986.117
-26.471201 -48.892101 -986.10199
-26.1866 -48.963501 -985.66101
-26.1775 -49.016701 -984.77802
-25.530899 -49.183102 -984.89203
-25.5455 -49.2174 -983.96698
-25.104099 -49.371498 -983.73602
-24.6978 -49.510502 -983.44598
-24.2612 -49.638599 -983.13501
-23.794901 -49.801601 -982.83301
-23.351801 -49.930401 -982.47998
-22.829399 -50.082401 -982.28101
-22.646099 -50.1726 -981.61298
-22.1548 -50.320301 -981.44897
-21.809099 -50.435501 -981.03198
-21.6182 -50.5336 -980.37201
-21.289499 -50.663502 -979.93298
-20.730301 -50.825802 -979.79602
-20.358601 -50.973499 -979.362
-19.856001 -51.107201 -979.099
-19.2868 -51.297901 -978.89398
-19.030399 -51.3745 -978.17499
-18.4006 -51.550701 -978.07001
-17.827 -51.751202 -977.89899
-17.3365 -51.899502 -977.62402
-16.8447 -52.043301 -977.34601
-16.4869 -52.166801 -976.90997
-16.0382 -52.348301 -976.55298
-15.5916 -52.5033 -976.14899
-15.0265 -52.671902 -975.93597
-14.5546 -52.847599 -975.54602
-13.9894 -53.022099 -975.27002
-13.1124 -53.256802 -975.45697
-12.7912 -53.386398 -974.76703
-12.0219 -53.595501 -974.68799
-11.0612 -53.8717 -974.89801
-10.4189 -54.063801 -974.70599
-9.9888296 -54.245602 -974.14203
-9.3673096 -54.424801 -973.84003
-8.6287203 -54.679501 -973.75403
-8.0077496 -54.856098 -973.43402
-7.4356098 -55.047901 -973.10498
-6.45892 -55.291199 -973.32599
-5.7891202 -55.5112 -973.08398
-5.0271602 -55.756599 -972.94897
-4.3134799 -55.9884 -972.672
-3.4486101 -56.2383 -972.68298
-2.5545001 -56.521801 -972.63599
-1.88123 -56.712002 -972.24103
-1.1839 -56.930199 -971.948
-0.172791 -57.229599 -971.98602
0.90948498 -57.528 -972.14502
1.71887 -57.813801 -971.83301
2.8714001 -58.131001 -972.06097
3.84692 -58.430401 -971.909
4.8229399 -58.731899 -971.724
6.1240802 -59.039902 -972.01703
7.3142099 -59.412498 -972.17297
8.4844398 -59.7719 -972.26801
9.3046303 -60.039501 -971.92499
10.7542 -60.496101 -972.38
11.2935 -60.687302 -971.573
13.2265 -61.236698 -972.56
15.0372 -61.728401 -973.13202
-33.652599 -44.563499 -1027.22
-33.914799 -44.528099 -1026.33
-34.1591 -44.492199 -1025.4399
-34.351398 -44.480701 -1024.62
-34.4622 -44.436798 -1023.9
-34.560398 -44.427299 -1023.21
-34.703999 -44.4034 -1022.42
-34.857601 -44.361801 -1021.61
-35.075802 -44.350498 -1020.71
-35.195702 -44.351101 -1020
-35.279099 -44.379101 -1019.32
-35.384201 -44.362801 -1018.56
-35.5019 -44.366901 -1017.8
-35.506699 -44.3806 -1017.23
-35.567001 -44.409199 -1016.54
-35.666 -44.383499 -1015.79
-35.799099 -44.375099 -1014.94
-35.761398 -44.424 -1014.4
-35.792301 -44.4394 -1013.73
-35.731701 -44.4617 -1013.2
-35.792702 -44.485401 -1012.45
-35.824799 -44.504299 -1011.74
-35.818802 -44.5438 -1011.11
-35.7225 -44.576401 -1010.6
-35.764599 -44.589199 -1009.85
-35.6866 -44.647499 -1009.32
-35.8022 -44.640099 -1008.43
-35.6688 -44.706902 -1007.99
-35.555698 -44.751801 -1007.47
-35.4603 -44.8153 -1006.92
-35.397301 -44.8526 -1006.33
-35.287399 -44.8866 -1005.79
-35.246899 -44.9543 -1005.14
-35.161999 -44.990501 -1004.55
-35.0508 -45.032299 -1003.99
-34.9025 -45.102901 -1003.51
-34.868 -45.144402 -1002.81
-34.7314 -45.2155 -1002.29
-34.618198 -45.2439 -1001.71
-34.5186 -45.300499 -1001.11
-34.203999 -45.4053 -1000.83
-34.162102 -45.455799 -1000.12
-33.9147 -45.547901 -999.755
-33.786301 -45.621101 -999.18402
-33.7836 -45.641602 -998.41699
-33.3493 -45.749001 -998.33502
-33.371899 -45.784401 -997.50598
-32.925201 -45.9324 -997.40802
-32.877102 -45.993698 -996.68701
-32.803799 -46.009701 -995.97198
-32.516102 -46.119099 -995.58398
-32.423698 -46.202499 -994.93298
-32.110901 -46.292301 -994.59601
-31.8237 -46.387402 -994.23602
-31.7036 -46.4468 -993.60498
-31.453899 -46.544399 -993.15302
-31.257 -46.631302 -992.638
-30.9615 -46.706402 -992.24298
-30.659401 -46.817501 -991.88397
-30.484501 -46.893002 -991.31897
-30.2869 -46.983002 -990.76398
-29.9676 -47.044201 -990.422
-29.6576 -47.173698 -990.05701
-29.433001 -47.258801 -989.52502
-29.165001 -47.367298 -989.10303
-28.9471 -47.451199 -988.586
-28.6506 -47.537601 -988.17798
-28.278299 -47.690899 -987.82098
-27.9175 -47.820499 -987.461
-27.658899 -47.907902 -986.92999
-27.3046 -48.025299 -986.52698
-27.222 -48.101898 -985.75598
-26.7227 -48.236099 -985.61102
-26.327299 -48.362701 -985.323
-26.083401 -48.449799 -984.82703
-25.6644 -48.603699 -984.61401
-25.5618 -48.666 -983.87799
-25.184999 -48.804298 -983.54199
-24.6994 -48.938099 -983.34998
-24.421 -49.030899 -982.82098
-23.8738 -49.217701 -982.677
-23.510099 -49.326698 -982.185
-23.1957 -49.439999 -981.71997
-22.8545 -49.5387 -981.32001
-22.510599 -49.662399 -980.91602
-22.086399 -49.790001 -980.66302
-21.564301 -49.961399 -980.45599
-21.296499 -50.0891 -979.90302
-20.906799 -50.2132 -979.492
-20.494101 -50.3507 -979.10498
-20.0865 -50.4772 -978.72198
-19.450899 -50.678699 -978.64398
-19.172199 -50.8008 -978.034
-18.4709 -50.9893 -978.07098
-18.1544 -51.118301 -977.521
-17.6168 -51.274502 -977.28601
-17.101999 -51.470001 -977.03601
-16.758699 -51.557301 -976.51099
-16.039801 -51.777699 -976.51898
-15.5431 -51.941002 -976.19098
-15.0597 -52.077099 -975.85101
-14.4789 -52.280701 -975.60101
-13.9319 -52.4366 -975.35101
-13.3443 -52.622898 -975.09998
-12.798 -52.804298 -974.797
-12.2442 -53.011799 -974.47101
-11.5571 -53.186901 -974.33698
-10.8148 -53.405399 -974.28497
-10.241 -53.5602 -973.875
-9.41119 -53.815899 -973.81702
-8.6651001 -54.032299 -973.73401
-8.1244497 -54.255199 -973.26099
-7.58917 -54.407799 -972.883
-6.5806899 -54.700802 -973.15503
-5.9782701 -54.897999 -972.78302
-5.2786298 -55.092098 -972.58197
-4.53723 -55.357498 -972.36798
-3.8579099 -55.588501 -972.08502
-2.9293201 -55.803299 -972.11798
-1.992 -56.100899 -972.19098
-1.27545 -56.334 -971.83502
-0.41332999 -56.594601 -971.66803
0.82379198 -56.9347 -972.078
1.61194 -57.1991 -971.79199
2.4242599 -57.428299 -971.46503
3.6735201 -57.806 -971.70599
4.7213702 -58.114899 -971.67603
6.1593599 -58.491699 -972.17401
7.4005699 -58.8535 -972.31097
8.1176796 -59.075001 -971.67297
9.72229 -59.534901 -972.37201
11.0126 -59.907299 -972.48199
12.2595 -60.2924 -972.56897
13.4729 -60.6763 -972.54999
14.9843 -61.1474 -972.90198
16.4667 -61.592602 -972.86798
-33.1124 -44.0994 -1028.8101
-33.363602 -44.043301 -1027.96
-33.651501 -43.976299 -1027.01
-33.928001 -43.923901 -1026.0601
-34.077599 -43.9216 -1025.33
-34.245399 -43.8834 -1024.53
-34.4729 -43.8265 -1023.65
-34.626301 -43.818699 -1022.92
-34.7467 -43.820999 -1022.24
-34.899399 -43.798302 -1021.47
-35.081402 -43.784 -1020.63
-35.2883 -43.7756 -1019.75
-35.396198 -43.771999 -1019.04
-35.414902 -43.786301 -1018.45
-35.485802 -43.777699 -1017.74
-35.565201 -43.802502 -1017.05
-35.681599 -43.800301 -1016.27
-35.770901 -43.8027 -1015.53
-35.802601 -43.820999 -1014.86
-35.8675 -43.816002 -1014.16
-35.808701 -43.863899 -1013.62
-35.845299 -43.8978 -1012.93
-35.870499 -43.911598 -1012.25
-35.856098 -43.946701 -1011.6
-35.852901 -43.9683 -1010.99
-35.906101 -43.987999 -1010.22
-35.834702 -44.022701 -1009.68
-35.777199 -44.039902 -1009.11
-35.770199 -44.084099 -1008.45
-35.696999 -44.0998 -1007.88
-35.6031 -44.180099 -1007.33
-35.588001 -44.218899 -1006.64
-35.527802 -44.262402 -1006.03
-35.4468 -44.313801 -1005.44
-35.378799 -44.342201 -1004.81
-35.208801 -44.423302 -1004.38
-35.123901 -44.459499 -1003.81
-35.036201 -44.5173 -1003.22
-34.9188 -44.5849 -1002.64
-34.787201 -44.6231 -1002.11
-34.671902 -44.687901 -1001.56
-34.621498 -44.727501 -1000.84
-34.3997 -44.8162 -1000.45
-34.2714 -44.857201 -999.88702
-33.9655 -44.980202 -999.59601
-33.909599 -45.005001 -998.90198
-33.817299 -45.064098 -998.28497
-33.523701 -45.1651 -997.96002
-33.536201 -45.1852 -997.14301
-33.039001 -45.360401 -997.11603
-33.096901 -45.383099 -996.22803
-32.807301 -45.478199 -995.86102
-32.527901 -45.547699 -995.495
-32.467701 -45.609798 -994.77301
-32.097698 -45.726398 -994.53601
-31.9648 -45.779202 -993.927
-31.8116 -45.838699 -993.36902
-31.577999 -45.935902 -992.98901
-31.442801 -46.012001 -992.388
-31.211901 -46.0989 -991.883
-30.877899 -46.2178 -991.59198
-30.712799 -46.306301 -991.03601
-30.591999 -46.348499 -990.37
-30.167801 -46.4823 -990.18597
-29.9886 -46.557201 -989.61298
-29.698999 -46.650299 -989.18597
-29.387199 -46.759998 -988.815
-29.0273 -46.8894 -988.55499
-29.0338 -46.946098 -987.62201
-28.568199 -47.065201 -987.45599
-28.031099 -47.232899 -987.29999
-27.876101 -47.2733 -986.53601
-27.177999 -47.4646 -986.67603
-27.1691 -47.542801 -985.77802
-26.7036 -47.6637 -985.56403
-26.245899 -47.8088 -985.383
-26.141399 -47.871399 -984.63202
-25.614201 -48.0536 -984.55298
-25.636801 -48.069302 -983.66101
-24.894699 -48.2836 -983.83398
-24.804399 -48.3643 -983.06299
-24.701599 -48.3983 -982.26501
-23.798599 -48.660999 -982.65503
-23.5562 -48.7416 -982.08698
-23.3375 -48.850101 -981.54498
-22.9249 -48.938099 -981.27197
-22.5453 -49.115002 -980.87201
-22.1264 -49.223 -980.56
-21.850201 -49.3494 -980.008
-21.266001 -49.525299 -979.88599
-20.975599 -49.612301 -979.33698
-20.5123 -49.794399 -979.04303
-20.127701 -49.901501 -978.60797
-19.416901 -50.106499 -978.66901
-19.246 -50.203999 -977.90198
-18.8062 -50.3377 -977.547
-18.127701 -50.547001 -977.55298
-17.7241 -50.6833 -977.10797
-17.195499 -50.841 -976.81897
-16.7908 -50.998501 -976.39203
-16.1749 -51.1614 -976.25201
-15.7381 -51.297298 -975.84399
-15.0569 -51.516899 -975.73999
-14.6391 -51.668999 -975.30603
-14.1879 -51.7948 -974.87201
-13.4583 -52.023998 -974.85602
-12.9185 -52.193501 -974.56201
-12.3566 -52.363899 -974.31299
-11.8262 -52.554298 -973.96802
-11.2635 -52.760799 -973.67902
-10.7679 -52.898499 -973.25403
-9.9963999 -53.146999 -973.17401
-9.3436298 -53.329201 -972.88702
-8.2504902 -53.605801 -973.11499
-7.8084102 -53.809399 -972.55798
-6.9321899 -54.022598 -972.60199
-6.3468599 -54.2286 -972.27002
-5.3807402 -54.519199 -972.45599
-4.78302 -54.716099 -972.03198
-3.8428299 -54.969101 -972.08899
-3.01263 -55.225498 -972.03998
-2.2091701 -55.467602 -971.85797
-1.46442 -55.701099 -971.52698
-0.64923102 -55.967899 -971.38098
0.64538598 -56.3368 -971.89801
1.42572 -56.560501 -971.53699
2.3292201 -56.828999 -971.44397
3.625 -57.209499 -971.78302
4.3371 -57.436401 -971.185
6.05194 -57.877399 -972.08301
7.12921 -58.195099 -972.02197
7.99475 -58.495602 -971.52899
9.2300997 -58.8293 -971.565
11.0122 -59.336899 -972.34198
12.2767 -59.6982 -972.35303
13.9079 -60.159 -972.77301
15.0775 -60.537102 -972.56598
16.318001 -60.938999 -972.52399
18.3517 -61.508801 -973.12701
-32.779099 -43.615501 -1029.59
-33.029099 -43.553699 -1028.72
-33.2649 -43.533901 -1027.89
-33.480499 -43.505901 -1027.0601
-33.7542 -43.471802 -1026.13
-33.999001 -43.403999 -1025.25
-34.1978 -43.345299 -1024.48
-34.679298 -43.304798 -1022.8
-34.867802 -43.258499 -1021.98
-35.0186 -43.263901 -1021.21
-35.062 -43.264099 -1020.62
-35.222801 -43.265301 -1019.81
-35.3629 -43.231098 -1019.01
-35.455601 -43.242802 -1018.29
-35.549301 -43.2528 -1017.57
-35.638699 -43.254902 -1016.86
-35.6772 -43.261002 -1016.22
-35.794998 -43.261398 -1015.41
-35.903099 -43.258701 -1014.62
-35.898998 -43.3013 -1014.02
-35.964401 -43.327499 -1013.29
-35.927601 -43.345699 -1012.72
-35.9076 -43.369301 -1012.11
-35.811001 -43.422901 -1011.63
-35.824299 -43.448101 -1010.96
-35.8773 -43.458698 -1010.22
-35.9706 -43.445202 -1009.43
-35.897499 -43.4842 -1008.9
-35.834801 -43.546398 -1008.34
-35.901199 -43.567101 -1007.54
-35.6735 -43.642899 -1007.18
-35.666199 -43.680901 -1006.45
-35.605999 -43.711899 -1005.84
-35.4207 -43.764599 -1005.41
-35.368099 -43.8232 -1004.78
-35.2826 -43.886799 -1004.19
-35.252399 -43.93 -1003.51
-35.078602 -43.986698 -1003.05
-34.898998 -44.043301 -1002.61
-34.874298 -44.112301 -1001.92
-34.6595 -44.167599 -1001.5
-34.556499 -44.216999 -1000.89
-34.425701 -44.282799 -1000.35
-34.2994 -44.344299 -999.77802
-34.0798 -44.4291 -999.33698
-33.991001 -44.472599 -998.729
-33.902401 -44.534599 -998.09003
-33.506699 -44.6264 -997.89899
-33.485802 -44.6875 -997.16901
-33.1768 -44.7939 -996.836
-33.016102 -44.865898 -996.289
-32.794399 -44.947399 -995.82898
-32.569099 -45.022099 -995.34998
-32.5732 -45.061401 -994.52399
-32.283901 -45.180401 -994.16199
-32.078999 -45.255699 -993.71399
-31.8843 -45.309502 -993.32703
-31.839199 -45.373402 -992.66998
-31.6161 -45.468601 -992.13098
-31.2216 -45.582699 -991.90302
-30.995701 -45.6549 -991.41199
-30.811501 -45.737701 -990.85797
-30.5373 -45.835701 -990.42902
-30.310101 -45.931301 -989.94202
-30.0471 -46.0228 -989.49103
-29.668301 -46.130699 -989.21399
-29.5044 -46.2164 -988.60602
-29.193199 -46.328701 -988.23401
-29.0107 -46.3908 -987.625
-28.6835 -46.5215 -987.25598
-28.3479 -46.662899 -986.80902
-27.885099 -46.7789 -986.47498
-27.2176 -46.9744 -986.55402
-27.134899 -47.003799 -985.724
-26.7537 -47.1474 -985.42902
-26.4296 -47.256199 -985.03802
-26.097799 -47.370899 -984.63702
-25.6129 -47.502499 -984.43903
-25.5497 -47.562698 -983.65198
-24.9755 -47.732399 -983.57898
-24.769699 -47.8153 -982.953
-24.547501 -47.9105 -982.37201
-23.8633 -48.125599 -982.46399
-23.7061 -48.1824 -981.83398
-23.558001 -48.263401 -981.21899
-23.089899 -48.3936 -980.98199
-22.7229 -48.553001 -980.55798
-22.188101 -48.688 -980.39502
-21.908899 -48.801899 -979.81201
-21.442301 -48.939999 -979.54999
-21.0019 -49.104599 -979.21198
-20.5602 -49.2253 -978.901
-20.019899 -49.404301 -978.70502
-19.6467 -49.557098 -978.24799
-19.2715 -49.677898 -977.79999
-18.875601 -49.801899 -977.37299
-18.431499 -49.961102 -977.02197
-17.782101 -50.142502 -976.98199
-17.257401 -50.2892 -976.67401
-16.7642 -50.4688 -976.38702
-16.412201 -50.5858 -975.83099
-15.7136 -50.7925 -975.80902
-15.2073 -50.977001 -975.51398
-14.6021 -51.157398 -975.28198
-14.1233 -51.308601 -974.92401
-13.5068 -51.502701 -974.77399
-13.0968 -51.624699 -974.263
-12.4366 -51.834499 -974.14398
-12.0123 -51.981701 -973.66199
-11.3683 -52.160599 -973.47198
-10.8331 -52.341999 -973.11902
-10.1303 -52.554798 -973.01599
-9.6771202 -52.744701 -972.54797
-8.9862099 -52.936501 -972.284
-7.7746 -53.255402 -972.63501
-6.9254799 -53.511002 -972.604
-6.1673598 -53.741699 -972.53601
-5.7428598 -53.9021 -971.89301
-4.8252602 -54.1604 -971.948
-4.10535 -54.392601 -971.74597
-3.2316899 -54.663399 -971.69
-2.2655001 -54.922901 -971.77502
-1.59735 -55.134102 -971.39697
-0.44720501 -55.461601 -971.69
0.327209 -55.709301 -971.42401
1.33679 -56.010799 -971.49902
2.39679 -56.304699 -971.552
3.4972501 -56.608898 -971.67798
4.3614502 -56.8964 -971.33899
5.3464999 -57.1833 -971.16602
6.5476098 -57.559299 -971.33398
7.6052198 -57.881699 -971.13501
10.6884 -58.711601 -971.90503
12.062 -59.163399 -971.98297
14.3359 -59.7146 -973.21899
16.379601 -60.261799 -973.99701
16.803699 -60.501301 -972.70599
18.6611 -61.032398 -973.315
-32.690399 -43.055401 -1029.45
-32.952999 -43.008499 -1028.5699
-33.2444 -42.958099 -1027.66
-33.539398 -42.9063 -1026.78
-33.8004 -42.874901 -1025.9399
-34.085098 -42.855999 -1025.0601
-34.320301 -42.827702 -1024.24
-34.524101 -42.768902 -1023.44
-34.709599 -42.757801 -1022.67
-34.9664 -42.712399 -1021.74
-35.115799 -42.699299 -1020.99
-35.157398 -42.690601 -1020.38
-35.218899 -42.702499 -1019.74
-35.378101 -42.702499 -1018.93
-35.514801 -42.702301 -1018.14
-35.6395 -42.705799 -1017.37
-35.681801 -42.698399 -1016.73
-35.840302 -42.667301 -1015.86
-35.866901 -42.716499 -1015.24
-35.934601 -42.7299 -1014.5
-35.903 -42.766602 -1013.97
-35.986301 -42.787102 -1013.19
-36.037399 -42.787498 -1012.48
-36.042198 -42.798 -1011.83
-35.988201 -42.844898 -1011.26
-35.978901 -42.8722 -1010.64
-36.028 -42.8913 -1009.94
-36.004601 -42.8997 -1009.37
-35.990799 -42.945999 -1008.78
-36.063499 -42.954899 -1007.97
-35.864601 -43.021 -1007.58
-35.855701 -43.075401 -1006.83
-35.688599 -43.1371 -1006.36
-35.534599 -43.186298 -1005.88
-35.5312 -43.2062 -1005.16
-35.4925 -43.256802 -1004.52
-35.2612 -43.351101 -1004.18
-35.088699 -43.409 -1003.73
-35.050499 -43.4613 -1003.04
-34.992599 -43.501999 -1002.37
-34.915298 -43.560001 -1001.74
-34.845001 -43.5994 -1001.12
-34.653702 -43.672401 -1000.68
-34.5564 -43.7295 -1000.1
-34.345798 -43.7855 -999.67999
-34.047199 -43.91 -999.32501
-34.003502 -43.956699 -998.604
-33.959702 -43.9916 -997.87799
-33.614201 -44.1077 -997.677
-33.502102 -44.1404 -997.047
-33.257301 -44.251999 -996.62402
-33.065102 -44.317501 -996.12
-32.921902 -44.385201 -995.53302
-32.716499 -44.468601 -995.04199
-32.568401 -44.539299 -994.461
-32.344501 -44.591099 -994.02802
-32.235802 -44.650299 -993.54602
-32.158001 -44.712299 -992.98901
-31.671499 -44.875099 -992.875
-31.709299 -44.898201 -991.93201
-31.307301 -45.008099 -991.69397
-31.059 -45.1273 -991.24902
-30.9436 -45.1852 -990.565
-30.4489 -45.336899 -990.492
-30.3745 -45.381401 -989.77698
-30.0959 -45.480301 -989.328
-29.776501 -45.593399 -988.97198
-29.575199 -45.6689 -988.41699
-29.177401 -45.7841 -988.15997
-29.1472 -45.8573 -987.33899
-28.727501 -45.9893 -987.09198
-28.211901 -46.1409 -986.93402
-28.0151 -46.2066 -986.224
-27.3032 -46.419498 -986.31598
-27.2115 -46.460701 -985.56201
-26.7241 -46.6422 -985.41901
-26.4238 -46.740002 -984.96802
-26.061501 -46.864799 -984.61401
-25.8552 -46.940498 -983.98499
-25.427799 -47.046101 -983.73901
-25.1709 -47.161499 -983.19702
-24.8332 -47.278999 -982.77002
-24.3538 -47.434898 -982.58197
-23.9655 -47.543098 -982.27502
-23.8053 -47.6404 -981.66699
-23.480801 -47.743999 -981.31598
-23.1063 -47.8839 -980.88202
-22.826401 -47.975498 -980.33698
-22.412399 -48.128502 -979.98602
-21.845501 -48.282398 -979.83899
-21.5021 -48.408798 -979.38898
-21.1541 -48.5238 -978.91998
-20.6227 -48.7024 -978.74402
-20.190201 -48.826302 -978.35797
-19.731899 -48.977501 -978.00403
-19.2507 -49.129601 -977.72803
-18.687099 -49.3148 -977.599
-18.4032 -49.426399 -976.96198
-17.8218 -49.605 -976.81598
-17.278099 -49.788399 -976.61798
-16.903799 -49.890598 -976.15302
-16.3237 -50.0695 -975.91101
-15.925 -50.217499 -975.448
-15.2968 -50.405602 -975.29999
-14.683 -50.602901 -975.10602
-14.3342 -50.7104 -974.52802
-13.5989 -50.942501 -974.54498
-13.1927 -51.0686 -974.02197
-12.439 -51.3284 -974.09497
-11.9999 -51.441299 -973.60602
-11.4543 -51.619801 -973.34003
-10.6707 -51.854801 -973.34399
-10.1902 -52.001801 -972.89697
-9.7665997 -52.1717 -972.401
-8.8117104 -52.405998 -972.573
-8.1437998 -52.646301 -972.36603
-7.01752 -52.937 -972.49701
-6.2075801 -53.208801 -972.42999
-5.5795298 -53.3993 -972.12598
-4.8748798 -53.599098 -971.90503
-4.2310801 -53.804699 -971.59198
-3.3406401 -54.095402 -971.52301
-2.3450301 -54.352001 -971.70099
-1.92767 -54.5485 -971.01898
-0.57458502 -54.870602 -971.526
-0.095275901 -55.069599 -970.82202
0.97723401 -55.362598 -970.99402
2.0471799 -55.6544 -971.11298
3.16418 -55.992001 -971.26599
3.7814901 -56.2299 -970.552
4.82446 -56.5154 -970.573
6.6143198 -57.015301 -971.44897
7.4586802 -57.272099 -970.99799
9.0614595 -57.721901 -971.53302
10.5267 -58.162498 -971.81598
11.9205 -58.5415 -971.86499
13.0247 -58.8685 -971.34998
16.2164 -59.710098 -973.55701
18.127001 -60.211102 -974.039
18.979099 -60.585098 -973.33398
20.474001 -61.022701 -973.19897
-33.843102 -42.360901 -1025.8
-34.1091 -42.289501 -1024.9399
-34.341702 -42.224998 -1024.12
-34.612701 -42.208302 -1023.23
-34.7953 -42.178299 -1022.45
-34.979198 -42.187302 -1021.64
-35.1241 -42.203499 -1020.9
-35.225498 -42.164101 -1020.21
-35.352299 -42.146702 -1019.46
-35.422501 -42.1488 -1018.78
-35.501999 -42.174 -1018.09
-35.644299 -42.1707 -1017.29
-35.7957 -42.159801 -1016.47
-35.855202 -42.167702 -1015.8
-35.956001 -42.170502 -1015.02
-35.943298 -42.202099 -1014.43
-35.997101 -42.210201 -1013.73
-36.041302 -42.2253 -1013.03
-36.064499 -42.2369 -1012.35
-36.069 -42.259499 -1011.71
-36.0728 -42.311298 -1011.05
-36.102501 -42.3461 -1010.37
-36.057098 -42.3647 -1009.82
-36.107399 -42.3993 -1009.14
-36.062 -42.4035 -1008.61
-36.065899 -42.432701 -1007.93
-36.028702 -42.465099 -1007.25
-35.905602 -42.532398 -1006.67
-35.674599 -42.602402 -1006.29
-35.681301 -42.656601 -1005.54
-35.671398 -42.678501 -1004.84
-35.558201 -42.7024 -1004.35
-35.492599 -42.7756 -1003.78
-35.256302 -42.8605 -1003.39
-35.057098 -42.930599 -1002.95
-35.0322 -42.973202 -1002.22
-34.903801 -43.026199 -1001.67
-34.816898 -43.0835 -1001.06
-34.729 -43.132801 -1000.48
-34.6493 -43.193401 -999.85699
-34.444801 -43.250599 -999.44397
-34.171001 -43.361801 -999.04401
-33.937 -43.454201 -998.64301
-33.836102 -43.489899 -998.013
-33.564602 -43.5854 -997.66199
-33.543201 -43.628201 -996.89697
-33.212502 -43.733799 -996.61603
-33.177502 -43.776501 -995.86902
-32.9436 -43.8652 -995.41302
-32.589199 -43.968498 -995.17902
-32.588501 -43.9958 -994.37
-32.5443 -44.028099 -993.77301
-32.411301 -44.123299 -993.37903
-32.2925 -44.202801 -992.74597
-31.6982 -44.34 -992.737
-31.783001 -44.383999 -991.73798
-31.257401 -44.503601 -991.71399
-31.1409 -44.587502 -991.01202
-30.941299 -44.653599 -990.47302
-30.582199 -44.793301 -990.21399
-30.5373 -44.849201 -989.45801
-30.2134 -44.9543 -989.06403
-29.807301 -45.0709 -988.83099
-29.6481 -45.1306 -988.18799
-29.2272 -45.2784 -987.99799
-29.0079 -45.342499 -987.46698
-28.674999 -45.4594 -987.06097
-28.2341 -45.627701 -986.77002
-27.973101 -45.717899 -986.20001
-27.319 -45.9048 -986.25098
-27.2145 -45.958401 -985.50201
-26.774 -46.083302 -985.27698
-26.603701 -46.159199 -984.62598
-26.1751 -46.309601 -984.38702
-25.8323 -46.4198 -983.974
-25.553499 -46.5425 -983.46997
-25.174601 -46.6474 -983.14203
-24.726299 -46.804298 -982.89899
-24.5422 -46.888199 -982.216
-23.9977 -47.0242 -982.159
-23.9802 -47.1026 -981.375
-23.582399 -47.2108 -981.112
-23.1964 -47.352001 -980.68103
-22.818001 -47.473598 -980.30798
-22.365801 -47.633598 -980.02301
-21.827499 -47.7826 -979.84003
-21.490999 -47.885601 -979.35699
-21.2166 -48.013401 -978.763
-20.8188 -48.133701 -978.35999
-20.096399 -48.352901 -978.47302
-19.806299 -48.455299 -977.89502
-19.2714 -48.613602 -977.68298
-19.0051 -48.746498 -977.073
-18.382 -48.9034 -976.948
-17.783501 -49.051201 -976.83698
-17.298 -49.239498 -976.52002
-16.8092 -49.399101 -976.22302
-16.496201 -49.5238 -975.60498
-15.6872 -49.740501 -975.73999
-15.3362 -49.8909 -975.20203
-14.7354 -50.052799 -974.97601
-14.3353 -50.2001 -974.48499
-13.6184 -50.395802 -974.44
-13.1574 -50.563 -974.05298
-12.5159 -50.761398 -973.922
-12.043 -50.906101 -973.55499
-11.4432 -51.097 -973.27502
-10.9691 -51.2481 -972.82898
-10.2083 -51.467499 -972.81299
-9.6687002 -51.6702 -972.51001
-8.95679 -51.8731 -972.38202
-8.4278603 -52.054199 -971.96698
-7.7760601 -52.2579 -971.53601
-6.3556499 -52.639198 -972.23602
-5.8601098 -52.792099 -971.68298
-4.69238 -53.107601 -972.15002
-4.3161602 -53.269901 -971.45203
-3.4611199 -53.5186 -971.40302
-2.69238 -53.7878 -971.21503
-1.83228 -54.019798 -971.18103
-0.81756598 -54.281502 -971.224
-0.0197144 -54.519402 -970.99799
0.80835003 -54.8083 -970.79797
1.76715 -55.081501 -970.72699
2.9347501 -55.430401 -970.95203
3.7802701 -55.694401 -970.672
5.3598599 -56.0877 -971.41803
5.8227501 -56.286499 -970.435
7.2060499 -56.693199 -970.789
8.8548002 -57.125198 -971.42999
9.3934298 -57.368 -970.27802
11.4349 -57.893902 -971.34601
12.9177 -58.278198 -971.47601
15.5992 -58.9604 -972.98798
19.7973 -60.172901 -973.729
21.4163 -60.755699 -973.92499
-33.915901 -41.7672 -1025.61
-34.425499 -41.697498 -1023.91
-34.602798 -41.664001 -1023.16
-34.831699 -41.640598 -1022.3
-34.986099 -41.604801 -1021.55
-35.194698 -41.610298 -1020.7
-35.366501 -41.6064 -1019.91
-35.496201 -41.589401 -1019.16
-35.563499 -41.599201 -1018.49
