# .PCD v0.7 - Point Cloud Data file format
VERSION 0.7
FIELDS x y z
SIZE 4 4 4
TYPE F F F
COUNT 1 1 1
WIDTH 1658
HEIGHT 1
VIEWPOINT 0 0 0 1 0 0 0
POINTS 1658
DATA ascii
-34.3368 -25.7349 -989.54901
-34.0294 -26.1028 -988.85199
-33.8172 -26.3228 -988.26501
-30.468201 -29.7472 -981.789
-30.9426 -29.5847 -981.745
10.0849 -20.051201 -1053.14
8.4562998 -19.5592 -1052.88
6.2477398 -18.652599 -1053.0699
4.8269 -18.1544 -1052.9
4.0633502 -18.2735 -1052.03
2.5335701 -17.6945 -1052.0601
1.36432 -17.353901 -1051.8101
0.113464 -16.931999 -1051.75
-0.55395502 -16.7778 -1051.3199
-1.67651 -16.3578 -1051.23
-2.1910999 -16.4865 -1050.49
-3.4096701 -16.018 -1050.4301
-4.31848 -15.9777 -1049.77
-5.5715899 -15.466 -1049.79
-6.25208 -15.3066 -1049.49
-7.1491098 -15.0154 -1049.3101
-7.8576002 -14.9056 -1048.91
-8.7002001 -14.7049 -1048.64
-9.1863403 -14.7218 -1048.02
-10.195 -14.4605 -1047.87
-10.9975 -14.2624 -1047.4301
-11.7504 -14.1125 -1047.0601
-12.2539 -14.104 -1046.6
-12.8971 -13.9655 -1046.27
-13.3734 -13.9506 -1045.79
-14.178 -13.6983 -1045.63
-14.8404 -13.6273 -1045.13
-15.4133 -13.5783 -1044.71
-16.0431 -13.4513 -1044.38
-16.627701 -13.3422 -1044.01
-17.1677 -13.2692 -1043.62
-17.8778 -13.0701 -1043.4
-18.0403 -13.3322 -1042.62
-18.803499 -13.0891 -1042.4301
-19.242701 -13.1465 -1041.9
-19.689899 -13.1248 -1041.49
-20.3561 -12.873 -1041.26
-20.8514 -12.8477 -1040.92
-21.1448 -12.9629 -1040.33
-21.6439 -12.9009 -1039.96
-21.975201 -12.9782 -1039.4
-22.5541 -12.8631 -1039.0699
-22.9622 -12.84 -1038.64
-23.379101 -12.8141 -1038.25
-24.0856 -12.5243 -1038.17
-24.311501 -12.7118 -1037.51
-24.6106 -12.8244 -1036.95
-24.4839 -13.2945 -1035.97
-24.8962 -13.2379 -1035.63
-25.8701 -13.0118 -1035.0601
-26.4247 -12.8647 -1034.78
-26.6689 -13.0088 -1034.15
-27.3671 -12.7897 -1034.04
-27.7444 -12.7855 -1033.63
-27.8627 -12.9937 -1032.97
-28.355801 -12.8263 -1032.77
-28.0529 -13.3863 -1031.7
-28.535299 -13.1961 -1031.5601
-29.226101 -12.8749 -1031.5699
-29.471901 -13.0029 -1031.09
-29.285801 -13.4106 -1030.12
-29.6605 -13.5037 -1029.58
-30.094801 -13.3687 -1029.3
-30.7383 -13.0965 -1029.3199
-30.252001 -13.7812 -1028.03
-31.1569 -13.2652 -1028.3101
-31.240801 -13.5396 -1027.53
-31.6196 -13.5655 -1027.0699
-31.910801 -13.5978 -1026.65
-31.895 -13.8257 -1026.0601
-32.438 -13.5689 -1026.02
-32.375 -13.9291 -1025.1801
-32.578602 -14.0198 -1024.66
-32.683899 -14.2212 -1024.05
-32.892799 -14.3084 -1023.51
-33.680698 -13.9142 -1023.57
-33.917702 -14.0373 -1023
-34.241901 -14.1035 -1022.55
-34.5779 -14.1316 -1022.13
-34.823399 -14.2309 -1021.64
-35.171398 -14.2362 -1021.24
-35.296799 -14.3805 -1020.65
-35.4179 -14.5623 -1020.07
-35.661598 -14.5916 -1019.64
-35.8764 -14.6385 -1019.2
-36.117699 -14.6777 -1018.8
-36.099899 -14.9652 -1018.12
-36.401901 -14.9405 -1017.8
-36.565498 -15.018 -1017.35
-36.4911 -15.2729 -1016.68
-36.728901 -15.2779 -1016.35
-36.408001 -15.7584 -1015.39
-36.627701 -15.7704 -1015.03
-36.627399 -15.9436 -1014.49
-36.546299 -16.1639 -1013.92
-36.633202 -16.2502 -1013.55
-36.487999 -16.5704 -1012.82
-36.617901 -16.638201 -1012.39
-36.905201 -16.6036 -1012.13
-36.646702 -17.0835 -1011.18
-36.984402 -16.9667 -1010.98
-36.849899 -17.314501 -1010.19
-37.054001 -17.351999 -1009.81
-37.1754 -17.4275 -1009.35
-37.02 -17.784901 -1008.6
-37.152802 -17.858999 -1008.2
-37.045502 -18.156401 -1007.51
-37.253201 -18.1625 -1007.15
-37.307899 -18.2831 -1006.62
-37.285 -18.509501 -1006.03
-37.443401 -18.581699 -1005.63
-37.348499 -18.859301 -1004.97
-37.455101 -18.971001 -1004.5
-37.3829 -19.221201 -1003.87
-37.257401 -19.501499 -1003.21
-37.345299 -19.584 -1002.79
-37.314999 -19.7803 -1002.23
-37.285 -19.961901 -1001.68
-37.1884 -20.221901 -1001.05
-37.173199 -20.4147 -1000.52
-37.111801 -20.624901 -999.94202
-37.066601 -20.8144 -999.38501
-37.028301 -21.0063 -998.836
-36.788898 -21.367399 -998.078
-36.7071 -21.554001 -997.52197
-36.620998 -21.763399 -996.98102
-36.5341 -21.9925 -996.42603
-36.456001 -22.253201 -995.78699
-36.426201 -22.4146 -995.31299
-36.220699 -22.6728 -994.71997
-35.944599 -23.0329 -993.979
-35.789902 -23.2852 -993.375
-35.600498 -23.5525 -992.74597
-35.296101 -23.91 -992
-35.083599 -24.192101 -991.38098
-34.532398 -24.8813 -990.026
-34.2425 -25.235001 -989.34802
-34.019699 -25.4862 -988.73798
-33.843601 -25.690201 -988.19397
-30.1227 -29.4039 -981.44299
-30.360901 -29.351 -981.17499
16.000099 -21.554399 -1052.96
13.5132 -21.0793 -1052.41
9.7825298 -19.193701 -1053.38
7.3512602 -18.0816 -1053.83
6.0638399 -17.9597 -1053.15
5.0548701 -17.8118 -1052.5601
3.51843 -17.2934 -1052.51
2.1370201 -16.7806 -1052.34
0.78765899 -16.322399 -1052.25
0.24096701 -16.4429 -1051.52
-0.67614698 -16.115999 -1051.39
-1.47974 -15.9383 -1050.96
-2.31073 -15.8277 -1050.51
-3.4693 -15.4289 -1050.41
-4.7509198 -15.0605 -1050.12
-5.4693599 -14.9883 -1049.61
-6.3438702 -14.6971 -1049.4399
-6.92377 -14.6497 -1049
-7.4590502 -14.6929 -1048.42
-8.6360502 -14.1537 -1048.5
-9.4460402 -13.9301 -1048.25
-9.9711304 -13.997 -1047.66
-10.8257 -13.7552 -1047.42
-11.3452 -13.7981 -1046.79
-12.2209 -13.48 -1046.65
-12.6287 -13.5898 -1046.03
-13.3208 -13.4308 -1045.6899
-14.0506 -13.2484 -1045.42
-14.8071 -13.1135 -1045.04
-15.4437 -12.9982 -1044.67
-16.1264 -12.8181 -1044.4
-16.5187 -12.8898 -1043.85
-16.9387 -12.9488 -1043.3101
-17.6681 -12.7517 -1043.0601
-18.314501 -12.6139 -1042.77
-18.7547 -12.6349 -1042.26
-19.365801 -12.4634 -1041.98
-19.7535 -12.4821 -1041.48
-20.272499 -12.4113 -1041.1
-20.716999 -12.3983 -1040.6899
-21.153601 -12.3853 -1040.26
-21.6637 -12.3348 -1039.88
-22.1024 -12.3265 -1039.4399
-22.623199 -12.2646 -1039.0601
-22.8046 -12.4431 -1038.4
-23.200399 -12.4044 -1038.05
-23.979601 -12.0426 -1038.08
-23.846001 -12.546 -1037.04
-24.344601 -12.452 -1036.72
-24.4872 -12.6476 -1036.03
-25.0515 -12.4403 -1035.87
-25.739599 -12.1626 -1035.8199
-25.490499 -12.7487 -1034.63
-26.447399 -12.2817 -1034.8199
-26.6882 -12.4792 -1034.14
-27.2903 -12.2896 -1033.9399
-27.636999 -12.3155 -1033.54
-28.5359 -11.7766 -1033.72
-28.185699 -12.4019 -1032.5601
-28.110201 -12.7311 -1031.76
-28.5888 -12.577 -1031.58
-29.122 -12.3925 -1031.42
-28.7824 -13.0173 -1030.23
-29.728901 -12.4599 -1030.53
-29.3358 -13.1476 -1029.25
-29.9135 -12.9411 -1029.13
-30.3381 -12.8378 -1028.87
-30.325899 -13.1527 -1028.1
-31.094999 -12.7629 -1028.2
-31.07 -13.1435 -1027.3199
-31.5613 -13.0553 -1026.99
-31.9109 -13.0591 -1026.59
-31.9266 -13.2562 -1026.03
-32.476002 -12.9928 -1025.98
-32.285 -13.4576 -1024.99
-32.587399 -13.503 -1024.5601
-32.986599 -13.4098 -1024.2
-33.3027 -13.4697 -1023.69
-33.826 -13.4158 -1023.42
-34.148102 -13.4402 -1023
-34.488701 -13.4479 -1022.6
-34.579201 -13.6507 -1021.95
-34.857101 -13.6709 -1021.52
-35.212502 -13.6515 -1021.19
-35.210098 -13.9367 -1020.46
-35.482601 -13.9683 -1020.03
-35.834801 -13.9137 -1019.74
-35.7089 -14.2573 -1018.92
-36.2062 -14.0584 -1018.82
-36.128799 -14.3451 -1018.07
-36.334099 -14.4027 -1017.67
-36.41 -14.5545 -1017.15
-36.388401 -14.8077 -1016.52
-36.6231 -14.7944 -1016.18
-36.447399 -15.1582 -1015.39
-36.571201 -15.2568 -1014.95
-36.5448 -15.4585 -1014.4
-36.470501 -15.654 -1013.86
-36.487499 -15.7723 -1013.38
-36.279202 -16.2078 -1012.55
-36.560902 -16.153099 -1012.25
-36.886002 -16.064899 -1012.04
-36.596901 -16.580799 -1011.08
-36.98 -16.433901 -1010.92
-36.757801 -16.8472 -1010.04
-37.005402 -16.8417 -1009.7
-37.124901 -16.9223 -1009.25
-36.933701 -17.3223 -1008.44
-37.049702 -17.3871 -1008.02
-37.120998 -17.546101 -1007.51
-37.3312 -17.5459 -1007.17
-37.319199 -17.7523 -1006.59
-37.183701 -18.074301 -1005.85
-37.398102 -18.071501 -1005.53
-37.365799 -18.281 -1004.91
-37.387001 -18.452801 -1004.36
-37.398701 -18.629999 -1003.82
-37.272202 -18.9401 -1003.16
-37.274399 -19.108601 -1002.64
-37.352299 -19.1945 -1002.22
-37.220299 -19.483101 -1001.55
-37.218899 -19.659599 -1001.03
-37.134998 -19.894501 -1000.42
-36.985199 -20.1768 -999.73297
-36.938 -20.369699 -999.17902
-36.788101 -20.6635 -998.492
-36.7122 -20.891399 -997.92499
-36.7132 -21.0326 -997.48199
-36.6432 -21.205299 -996.93799
-36.502998 -21.456499 -996.323
-36.431301 -21.724199 -995.70697
-36.3806 -21.9277 -995.18402
-36.1563 -22.2057 -994.56299
-35.901199 -22.5147 -993.85602
-35.696701 -22.814501 -993.18903
-35.516499 -23.100599 -992.57397
-35.304798 -23.383101 -991.93799
-35.176899 -23.577 -991.41101
-34.5322 -24.3197 -989.95898
-34.3391 -24.5742 -989.375
-33.8102 -25.216499 -988.08002
-30.1273 -28.941099 -980.953
-30.8363 -28.491301 -981.164
10.5254 -19.2556 -1052.65
7.80865 -17.9748 -1053.27
6.0697598 -17.3694 -1053.11
5.2488999 -17.4352 -1052.3101
3.7551301 -16.936899 -1052.15
2.3370399 -16.4118 -1052.04
1.33032 -16.228001 -1051.67
0.097228996 -15.8036 -1051.64
-0.53283697 -15.6119 -1051.21
-1.35358 -15.481 -1050.75
-2.2488401 -15.3056 -1050.4
-3.34021 -14.978 -1050.1801
-5.4721098 -14.4449 -1049.53
-6.1323199 -14.3214 -1049.17
-6.9653301 -14.0782 -1048.98
-7.474 -14.1289 -1048.37
-8.22931 -13.9467 -1048.03
-9.0133696 -13.7534 -1047.72
-9.8508301 -13.5082 -1047.45
-10.7087 -13.2674 -1047.26
-11.1494 -13.3447 -1046.62
-11.8804 -13.1808 -1046.29
-12.5412 -13.0811 -1045.89
-13.3123 -12.8754 -1045.64
-13.873 -12.7842 -1045.24
-14.5643 -12.7252 -1044.79
-15.4545 -12.4187 -1044.65
-15.825 -12.5074 -1044.09
-16.530001 -12.2766 -1043.88
-16.9503 -12.374 -1043.3101
-17.6747 -12.1624 -1043
-18.2897 -12.0924 -1042.6801
-18.724701 -12.1185 -1042.2
-19.248501 -12.017 -1041.8101
-19.762699 -11.9295 -1041.4301
-20.0853 -12.022 -1040.83
-20.750601 -11.8355 -1040.64
-21.162901 -11.8493 -1040.17
-21.5054 -11.9551 -1039.62
-22.1248 -11.8037 -1039.37
-22.475599 -11.855 -1038.86
-22.396999 -12.2738 -1037.91
-23.1481 -11.8991 -1037.95
-23.914301 -11.5348 -1037.99
-23.7568 -12.0173 -1036.96
-24.304199 -11.8619 -1036.73
-24.2754 -12.2175 -1035.84
-25.0532 -11.8615 -1035.85
-25.5334 -11.7755 -1035.58
-25.4643 -12.1955 -1034.61
-26.4422 -11.6758 -1034.84
-26.6178 -11.9202 -1034.09
-26.942699 -11.9831 -1033.61
-27.2435 -11.9662 -1033.1899
-27.676001 -11.9131 -1032.87
-28.0352 -12.2311 -1031.67
-28.5044 -12.1034 -1031.4399
-29.0359 -11.9006 -1031.28
-28.736 -12.4975 -1030.14
-29.439301 -12.1801 -1030.15
-29.4737 -12.4476 -1029.39
-29.808201 -12.5149 -1028.97
-30.274599 -12.3759 -1028.72
-30.3848 -12.5643 -1028.09
-30.870001 -12.4235 -1027.91
-30.836 -12.7811 -1027.02
-31.5182 -12.5162 -1026.9301
-31.833599 -12.5921 -1026.46
-31.8277 -12.8068 -1025.84
-32.4175 -12.4887 -1025.86
-32.199001 -13.0109 -1024.78
-32.821899 -12.7664 -1024.53
-33.053799 -12.9716 -1023.95
-33.382301 -13.0253 -1023.53
-33.782501 -12.972 -1023.18
-34.1936 -12.8918 -1022.89
-34.343498 -13.0524 -1022.33
-34.668499 -13.0639 -1021.95
-34.671299 -13.3316 -1021.23
-35.108101 -13.2184 -1021
-35.054901 -13.538 -1020.21
-35.503101 -13.423 -1019.98
-35.667198 -13.517 -1019.48
-35.640099 -13.7866 -1018.78
-36.082298 -13.6323 -1018.63
-36.120201 -13.8186 -1018.02
-36.2952 -13.9149 -1017.59
-36.345798 -14.072 -1017.05
-36.296101 -14.3255 -1016.39
-36.530102 -14.3238 -1016.05
-36.429199 -14.624 -1015.32
-36.538502 -14.7195 -1014.88
-36.365501 -15.0452 -1014.19
-36.348099 -15.2026 -1013.72
-36.493999 -15.248 -1013.36
-36.3092 -15.6219 -1012.53
-36.5443 -15.6136 -1012.2
-36.7733 -15.6401 -1011.87
-36.639198 -15.974 -1011.07
-37.025799 -15.8195 -1010.92
-36.7085 -16.3584 -1009.93
-36.927601 -16.380899 -1009.56
-37.0466 -16.461599 -1009.1
-36.983002 -16.719801 -1008.43
-37.1124 -16.8193 -1008.02
-37.2066 -16.929899 -1007.56
-37.1945 -17.1203 -1006.96
-37.199501 -17.307899 -1006.4
-37.117699 -17.5921 -1005.72
-37.3176 -17.587299 -1005.38
-37.2202 -17.886 -1004.69
-37.2509 -18.0541 -1004.14
-37.2509 -18.240601 -1003.6
-37.2113 -18.415001 -1003.02
-37.242901 -18.5844 -1002.53
-37.215302 -18.774799 -1001.99
-37.131001 -19.0154 -1001.37
-37.052299 -19.245701 -1000.78
-37.041599 -19.4079 -1000.26
-37.0536 -19.584101 -999.76099
-36.9505 -19.831499 -999.13202
-36.810101 -20.1159 -998.46399
-36.770802 -20.309401 -997.94299
-36.7136 -20.4841 -997.41101
-36.492298 -20.7974 -996.70801
-36.353401 -21.0597 -996.099
-36.413101 -21.1703 -995.646
-36.3009 -21.427601 -995.01898
-36.0653 -21.737 -994.37299
-35.836102 -22.0385 -993.72302
-35.624001 -22.343 -993.02899
-35.542 -22.5259 -992.49902
-35.3325 -22.827101 -991.87299
-35.045502 -23.1689 -991.177
-34.8027 -23.454399 -990.54602
-34.588402 -23.721701 -989.95502
-34.328701 -24.0399 -989.28302
-33.768101 -24.698099 -987.94897
-33.496899 -24.9904 -987.29498
-33.315498 -25.1619 -986.75098
-29.7791 -28.6425 -980.61603
16.4863 -21.0019 -1052.2
12.1414 -18.824301 -1053.54
9.9282198 -18.056499 -1053.28
8.3438702 -17.865499 -1052.6801
6.3091402 -17.017599 -1052.8101
5.2216201 -16.8479 -1052.3
3.87848 -16.4862 -1051.9301
2.2674 -15.8516 -1052.03
1.39838 -15.7085 -1051.52
0.31720001 -15.3052 -1051.47
-0.31347701 -15.238 -1050.98
-1.30255 -15.0217 -1050.67
-2.15887 -14.839 -1050.28
-3.4404299 -14.3428 -1050.22
-5.5585899 -13.872 -1049.52
-6.211 -13.7362 -1049.15
-6.89252 -13.5889 -1048.8199
-7.6028399 -13.4826 -1048.4301
-8.24261 -13.3765 -1047.98
-9.2281504 -13.0446 -1047.87
-9.8800697 -12.9759 -1047.4301
-10.6437 -12.7741 -1047.15
-11.1539 -12.7914 -1046.5699
-11.8912 -12.6205 -1046.28
-12.5746 -12.5319 -1045.88
-13.1774 -12.459 -1045.4399
-13.7855 -12.3344 -1045.1
-14.6443 -12.1001 -1044.9
-15.1762 -12.0982 -1044.42
-15.5977 -12.1201 -1043.91
-16.131001 -12.0549 -1043.5
-16.8915 -11.8175 -1043.3101
-17.7068 -11.6052 -1043.04
-17.8783 -11.8601 -1042.25
-18.5049 -11.6772 -1042
-19.119101 -11.5053 -1041.73
-19.700199 -11.419 -1041.37
-20.0704 -11.5424 -1040.74
-20.493799 -11.5455 -1040.29
-21.257 -11.2787 -1040.17
-21.629299 -11.3153 -1039.67
-21.999599 -11.3643 -1039.1899
-22.5975 -11.244 -1038.95
-22.8514 -11.3416 -1038.36
-23.1 -11.3982 -1037.88
-23.761499 -11.137 -1037.78
-23.667999 -11.5485 -1036.8199
-24.279301 -11.3085 -1036.6801
-24.3958 -11.588 -1035.96
-24.957899 -11.4183 -1035.73
-25.406401 -11.3731 -1035.36
-25.658899 -11.506 -1034.8
-26.3402 -11.2195 -1034.72
-26.0425 -11.8588 -1033.48
-26.848801 -11.4863 -1033.5601
-27.286301 -11.3877 -1033.28
-26.2784 -12.4845 -1031.46
-27.7623 -11.5577 -1032.1899
-27.749599 -11.9144 -1031.36
-28.354099 -11.6954 -1031.26
-28.819099 -11.5915 -1030.97
-28.762899 -11.9841 -1030.13
-29.4081 -11.7031 -1030.05
-29.330601 -12.0949 -1029.17
-29.903299 -11.9103 -1029.02
-30.3396 -11.7892 -1028.76
-30.1383 -12.2705 -1027.76
-30.8951 -11.8694 -1027.88
-30.620399 -12.4686 -1026.74
-31.3424 -12.1433 -1026.72
-31.771799 -12.0986 -1026.36
-31.858299 -12.2507 -1025.8
-32.289902 -12.116 -1025.5699
-32.407001 -12.3678 -1024.8
-32.942699 -12.2842 -1024.47
-33.264 -12.3636 -1024
-33.590401 -12.3705 -1023.6
-33.9142 -12.3515 -1023.21
-34.153999 -12.4351 -1022.75
-34.380501 -12.5086 -1022.27
-34.572201 -12.6152 -1021.78
-34.891998 -12.6181 -1021.39
-35.151402 -12.6519 -1020.97
-34.9911 -13.0679 -1020.09
-35.4874 -12.9046 -1019.93
-35.781101 -12.8935 -1019.55
-35.6838 -13.2333 -1018.78
-35.949902 -13.2318 -1018.46
-35.909698 -13.482 -1017.78
-36.182301 -13.4866 -1017.47
-36.357201 -13.5464 -1017.05
-36.240601 -13.8595 -1016.29
-36.463402 -13.8592 -1015.93
-36.450001 -14.0735 -1015.33
-36.3843 -14.3181 -1014.68
-36.3176 -14.5444 -1014.14
-36.316101 -14.7074 -1013.65
-36.416599 -14.7717 -1013.2
-36.328701 -15.0598 -1012.5
-36.457901 -15.1591 -1012.06
-36.632301 -15.2114 -1011.64
-36.599602 -15.4825 -1010.99
-36.802898 -15.5018 -1010.61
-36.677101 -15.8539 -1009.84
-36.964401 -15.8136 -1009.53
-36.999199 -15.985 -1008.98
-36.916401 -16.2616 -1008.3
-37.056301 -16.326 -1007.91
-37.138 -16.462601 -1007.43
-37.126301 -16.658501 -1006.82
-37.201199 -16.7934 -1006.34
-37.133999 -17.053301 -1005.67
-37.320599 -17.0902 -1005.32
-37.1791 -17.3771 -1004.58
-37.218899 -17.5343 -1004.06
-37.202 -17.7306 -1003.48
-37.243599 -17.889999 -1003
-37.283699 -18.025101 -1002.52
-37.131699 -18.3302 -1001.83
-37.115601 -18.5096 -1001.29
-37.030201 -18.748699 -1000.68
-36.972801 -18.9608 -1000.12
-36.9002 -19.190201 -999.52002
-36.919899 -19.3195 -999.03198
-36.804699 -19.583599 -998.38397
-36.715302 -19.8144 -997.80603
-36.602501 -20.0415 -997.22198
-36.446899 -20.327299 -996.59698
-36.3195 -20.601299 -996.00299
-36.421101 -20.660999 -995.59399
-36.246899 -20.951099 -994.88599
-36.0867 -21.1842 -994.32599
-35.9417 -21.4231 -993.78802
-35.641399 -21.7946 -992.99902
-35.5364 -22.0007 -992.42798
-35.294601 -22.311399 -991.73999
-35.019402 -22.6465 -991.06403
-34.488499 -23.315599 -989.76398
-34.260399 -23.585899 -989.13702
-34.013699 -23.8829 -988.49799
-33.815498 -24.1199 -987.93201
-33.515301 -24.4349 -987.258
-33.2281 -24.7108 -986.59399
-29.9506 -28.043501 -980.30499
13.7849 -19.644199 -1051.86
8.43188 -17.340599 -1052.5
6.8185401 -16.8577 -1052.34
5.3382001 -16.3948 -1052.12
3.63574 -15.6945 -1052.16
2.61957 -15.4829 -1051.71
1.71051 -15.4109 -1051.25
0.447144 -14.7829 -1051.45
-0.31878701 -14.6789 -1050.9301
-0.96887201 -14.7029 -1050.27
-2.3663299 -14.1064 -1050.42
-3.22668 -14.0121 -1049.9301
-4.3927598 -13.6864 -1049.5601
-5.2105098 -13.6029 -1049.1
-6.1912799 -13.176 -1049.0601
-6.8678598 -13.0632 -1048.7
-7.45294 -13.0538 -1048.22
-8.2750196 -12.8156 -1047.96
-8.9544697 -12.7397 -1047.5601
-9.6675396 -12.6108 -1047.15
-10.2148 -12.5971 -1046.62
-11.1078 -12.2813 -1046.46
-11.6708 -12.2807 -1045.98
-12.5157 -12.0237 -1045.75
-13.1464 -11.9178 -1045.35
-13.6188 -11.9301 -1044.86
-14.4067 -11.7148 -1044.66
-14.8332 -11.7603 -1044.11
-15.4896 -11.6208 -1043.79
-16.055599 -11.5443 -1043.39
-16.879101 -11.2446 -1043.28
-17.2293 -11.3916 -1042.5699
-17.735001 -11.3484 -1042.16
-18.325199 -11.2223 -1041.8101
-18.9431 -11.0878 -1041.55
-19.4573 -11.0614 -1041.13
-19.879299 -11.1172 -1040.55
-20.6752 -10.8434 -1040.42
-21.093201 -10.8729 -1039.95
-21.5665 -10.8393 -1039.5601
-21.8297 -10.981 -1038.97
-21.4303 -11.7043 -1037.7
-23.4897 -10.1635 -1039.05
-22.972 -10.9377 -1037.6899
-23.5275 -10.7796 -1037.48
-23.6406 -11.016 -1036.75
-24.2026 -10.8676 -1036.53
-24.491899 -10.9481 -1036
-24.781601 -11.0428 -1035.48
-25.297501 -10.9333 -1035.2
-25.445499 -11.1359 -1034.52
-26.087299 -10.9138 -1034.38
-26.1938 -11.1497 -1033.65
-26.5966 -11.1068 -1033.25
-27.0005 -11.0823 -1032.88
-27.2216 -11.1853 -1032.3101
-27.802999 -11.0046 -1032.16
-27.722 -11.3957 -1031.3101
-28.2365 -11.2765 -1031.0699
-28.7208 -11.1571 -1030.8
-28.8193 -11.3835 -1030.11
-29.4998 -11.0755 -1030.11
-29.280001 -11.6004 -1029.03
-29.9368 -11.3264 -1028.97
-30.171801 -11.4018 -1028.52
-30.230101 -11.6288 -1027.79
-30.7952 -11.4408 -1027.72
-30.5532 -11.9653 -1026.62
-31.3267 -11.5945 -1026.6801
-31.785 -11.5534 -1026.34
-32.045799 -11.5763 -1025.88
-32.475601 -11.5146 -1025.52
-32.7118 -11.6653 -1024.96
-32.923599 -11.8676 -1024.3101
-33.223598 -11.8818 -1023.83
-33.661301 -11.7837 -1023.58
-33.964199 -11.7866 -1023.17
-34.092999 -11.9698 -1022.61
-34.310501 -12.039 -1022.13
-34.569 -12.0951 -1021.69
-34.887501 -12.0951 -1021.31
-35.062199 -12.1718 -1020.81
-35.1092 -12.4108 -1020.15
-35.427502 -12.4135 -1019.8
-35.4944 -12.5924 -1019.19
-35.6511 -12.712 -1018.72
-35.8633 -12.7432 -1018.35
-35.7234 -13.0862 -1017.56
-36.001301 -13.0469 -1017.26
-36.365501 -12.9594 -1017.04
-36.1982 -13.3491 -1016.19
-36.343601 -13.4307 -1015.74
-36.411701 -13.5566 -1015.23
-36.322102 -13.8185 -1014.58
-36.1866 -14.0914 -1013.95
-36.070099 -14.37 -1013.33
-36.333698 -14.2976 -1013.07
-36.335701 -14.5119 -1012.48
-36.436298 -14.6518 -1011.98
-36.443501 -14.8516 -1011.38
-36.66 -14.8763 -1011.01
-36.780602 -14.9938 -1010.53
-36.739201 -15.2541 -1009.86
-36.858002 -15.3383 -1009.37
-36.870998 -15.5441 -1008.79
-36.865898 -15.7564 -1008.19
-37.035301 -15.7927 -1007.82
-36.9431 -16.0842 -1007.15
-37.093899 -16.157101 -1006.74
-37.139999 -16.321501 -1006.22
-37.1194 -16.5114 -1005.6
-37.164299 -16.668301 -1005.09
-37.125599 -16.914101 -1004.46
-37.1992 -17.039101 -1003.97
-37.259102 -17.184099 -1003.48
-37.2654 -17.3274 -1002.96
-37.110199 -17.632099 -1002.27
-37.1539 -17.784201 -1001.8
-37.122101 -17.9709 -1001.25
-37.000301 -18.237 -1000.58
-36.994801 -18.416 -1000.08
-36.9296 -18.6458 -999.48999
-36.878399 -18.816299 -998.922
-36.798901 -19.042299 -998.32397
-36.748501 -19.2157 -997.78497
-36.646198 -19.4618 -997.20599
-36.5438 -19.700399 -996.63098
-36.4417 -19.9189 -996.06897
-36.329498 -20.172899 -995.448
-36.2458 -20.416201 -994.82001
-36.1586 -20.6119 -994.32202
-35.9814 -20.856501 -993.76202
-35.7327 -21.191799 -993.04797
-35.448898 -21.5494 -992.28101
-35.226398 -21.8589 -991.62097
-35.040199 -22.132099 -991.01898
-34.7817 -22.433399 -990.35199
-34.5522 -22.733801 -989.72803
-34.292 -23.0396 -989.06702
-34.056 -23.314301 -988.45502
-33.772099 -23.6098 -987.80402
-33.480801 -23.941099 -987.14301
-33.202301 -24.236401 -986.49701
-29.366199 -27.929399 -979.73499
13.2913 -18.588699 -1052.14
10.6946 -17.611799 -1052.35
8.1321402 -16.5187 -1052.74
6.5028701 -15.9966 -1052.55
4.01367 -15.3118 -1051.9301
2.8108499 -14.9715 -1051.65
1.9690599 -14.8241 -1051.1801
1.09155 -14.6289 -1050.85
0.0091552697 -14.3275 -1050.55
-0.96441698 -14.1307 -1050.1801
-2.31458 -13.5757 -1050.2
-3.02649 -13.5932 -1049.63
-5.4147301 -12.8506 -1049.21
-6.12012 -12.6641 -1048.9
-6.6965899 -12.6118 -1048.47
-7.3583398 -12.528 -1048.0601
-8.3013296 -12.2263 -1047.92
-8.8324604 -12.2336 -1047.36
-9.4826698 -12.1621 -1046.89
-10.2574 -11.9667 -1046.61
-11.3325 -11.5119 -1046.58
-11.6472 -11.7157 -1045.86
-12.4428 -11.4775 -1045.61
-13.2829 -11.2094 -1045.42
-13.4634 -11.4644 -1044.65
-14.3821 -11.144 -1044.58
-14.9841 -11.0284 -1044.21
-15.536 -10.9836 -1043.8
-16.098101 -10.8986 -1043.41
-16.313499 -11.1233 -1042.66
-17.1588 -10.8102 -1042.48
-17.5823 -10.8557 -1041.98
-18.439899 -10.5285 -1041.92
-18.7609 -10.6435 -1041.33
-19.268 -10.5867 -1040.9399
-19.6807 -10.664 -1040.4
-20.3309 -10.5125 -1040.1
-20.8983 -10.4319 -1039.76
-21.3416 -10.4118 -1039.33
-21.641399 -10.4694 -1038.83
-22.217501 -10.2439 -1038.6801
-22.379499 -10.4782 -1037.88
-22.7952 -10.4926 -1037.49
-23.3335 -10.3665 -1037.22
-23.7906 -10.3196 -1036.84
-24.1374 -10.3583 -1036.41
-24.3822 -10.4865 -1035.8199
-24.839399 -10.41 -1035.46
-25.165199 -10.4592 -1034.99
-25.5326 -10.4615 -1034.5601
-26.072599 -10.3387 -1034.28
-26.256001 -10.4992 -1033.64
-26.5242 -10.5948 -1033.1
-27.042101 -10.4724 -1032.84
-27.135201 -10.7283 -1032.17
-27.547199 -10.6453 -1031.8199
-27.962099 -10.6211 -1031.48
-28.2644 -10.6684 -1031.04
-28.6994 -10.5889 -1030.75
-28.678699 -10.9471 -1029.89
-29.562401 -10.4583 -1030.11
-29.179199 -11.1079 -1028.87
-29.6187 -11.007 -1028.59
-30.304001 -10.7162 -1028.58
-30.154699 -11.1481 -1027.64
-30.7061 -10.9372 -1027.5601
-30.599701 -11.3154 -1026.63
-31.128401 -11.1992 -1026.39
-31.615499 -11.0817 -1026.09
-32.002499 -11.098 -1025.65
-32.4631 -11.0257 -1025.3101
-32.667801 -11.1906 -1024.7
-33.155998 -11.1026 -1024.42
-33.3615 -11.2183 -1023.86
-33.601002 -11.2653 -1023.42
-33.947102 -11.2595 -1023.08
-34.012402 -11.4631 -1022.46
-34.4454 -11.3482 -1022.2
-34.449501 -11.627 -1021.5
-34.604099 -11.7617 -1020.95
-34.881901 -11.7819 -1020.56
-34.9692 -11.9743 -1019.95
-35.418701 -11.8176 -1019.72
-35.4711 -12.0502 -1019.1
-35.487598 -12.2501 -1018.51
-35.792702 -12.1941 -1018.27
-35.6647 -12.5392 -1017.48
-35.851898 -12.6159 -1017.06
-36.005798 -12.6982 -1016.57
-36.061401 -12.8797 -1015.99
-36.3293 -12.8604 -1015.66
-36.3381 -13.0388 -1015.1
-36.327599 -13.248 -1014.55
-36.276699 -13.4106 -1014.02
-36.027 -13.8138 -1013.25
-36.328499 -13.7452 -1013.01
-36.416599 -13.8711 -1012.51
-36.3279 -14.1676 -1011.8
-36.458698 -14.2554 -1011.34
-36.504398 -14.4265 -1010.77
-36.666302 -14.503 -1010.33
-36.634998 -14.7463 -1009.67
-36.871498 -14.7593 -1009.32
-36.882 -14.9515 -1008.73
-36.913601 -15.142 -1008.19
-36.9547 -15.2919 -1007.68
-37.026199 -15.4152 -1007.18
-37.002102 -15.6782 -1006.57
-37.020302 -15.8324 -1006.02
-37.071999 -15.9654 -1005.49
-37.254002 -16.0091 -1005.13
-37.136501 -16.311199 -1004.41
-37.138901 -16.4914 -1003.85
-37.190102 -16.646799 -1003.35
-37.141701 -16.886801 -1002.75
-37.180099 -16.9851 -1002.28
-37.109699 -17.221001 -1001.7
-37.064301 -17.4307 -1001.12
-36.957199 -17.702299 -1000.48
-37.013401 -17.818199 -1000.03
-36.885101 -18.0774 -999.35901
-36.780602 -18.320499 -998.742
-36.6194 -18.6199 -998.04999
-36.612999 -18.7948 -997.55902
-36.592899 -18.964199 -997.07397
-36.4128 -19.2677 -996.40997
-36.369301 -19.431499 -995.914
-36.374199 -19.5539 -995.43201
-36.188599 -19.8827 -994.67401
-36.103001 -20.082399 -994.16602
-35.981899 -20.283001 -993.67401
-35.560501 -20.7668 -992.78198
-35.319199 -21.091299 -992.08099
-35.2299 -21.2754 -991.56097
-34.967999 -21.5987 -990.87201
-34.8046 -21.8167 -990.28101
-34.631599 -22.043699 -989.69598
-34.298599 -22.4412 -988.96698
-34.011398 -22.769699 -988.33197
-33.6633 -23.1373 -987.62
-33.378601 -23.449499 -986.95001
-33.151001 -23.6947 -986.349
13.4288 -18.144899 -1052.0601
8.7023897 -16.3169 -1052.27
6.8808599 -15.6981 -1052.0699
5.0083599 -14.8717 -1052.42
4.4752798 -14.9641 -1051.64
3.23663 -14.6148 -1051.4399
2.0726299 -14.1783 -1051.2
1.0886199 -14.0565 -1050.8
-0.21228001 -13.6066 -1050.6801
-1.1713901 -13.4022 -1050.3199
-2.30493 -13.0405 -1050.11
-3.21118 -12.8319 -1049.76
-5.4461098 -12.2718 -1049.12
-6.0756798 -12.1301 -1048.79
-6.7574501 -12.0134 -1048.46
-7.3705401 -11.9538 -1047.96
-8.1974497 -11.701 -1047.76
-8.8447905 -11.6084 -1047.3
-9.5072002 -11.571 -1046.84
-10.1403 -11.5046 -1046.45
-11.0651 -11.1906 -1046.25
-11.8129 -11.0088 -1045.97
-12.4076 -10.9205 -1045.54
-13.1024 -10.811 -1045.1801
-13.3096 -11.0278 -1044.4301
-14.1215 -10.7553 -1044.23
-14.8903 -10.5262 -1044.0601
-15.3893 -10.5017 -1043.5699
-15.9056 -10.5301 -1043.14
-16.3557 -10.5005 -1042.65
-17.0737 -10.339 -1042.35
-17.487801 -10.3936 -1041.79
-18.072399 -10.2699 -1041.49
-18.858801 -9.9749098 -1041.38
-19.2591 -10.0095 -1040.88
-19.523199 -10.1473 -1040.28
-20.2019 -9.9747601 -1040.0601
-20.66 -9.9540396 -1039.62
-21.0653 -9.9555101 -1039.16
-21.346901 -10.0936 -1038.5699
-22.173599 -9.6953697 -1038.58
-22.177099 -10.0558 -1037.71
-22.7831 -9.8905602 -1037.45
-23.2386 -9.8696899 -1037.0699
-23.627701 -9.8775301 -1036.62
-24.058599 -9.8395996 -1036.24
-24.4478 -9.8417702 -1035.85
-24.6539 -9.9766197 -1035.24
-25.256201 -9.82516 -1035
-25.3605 -10.0397 -1034.3199
-26.0406 -9.7930899 -1034.21
-26.0931 -10.0943 -1033.4301
-26.5774 -9.9946604 -1033.09
-26.845501 -10.071 -1032.61
-27.2957 -9.9984102 -1032.29
-27.6724 -9.9751902 -1031.9
-27.783501 -10.2117 -1031.26
-28.0679 -10.2703 -1030.79
-28.508101 -10.1851 -1030.45
-28.6078 -10.4278 -1029.77
-29.355801 -10.0644 -1029.8199
-29.2265 -10.506 -1028.86
-29.8256 -10.2833 -1028.73
-30.2516 -10.1898 -1028.45
-30.126499 -10.6069 -1027.53
-30.790899 -10.307 -1027.51
-30.9554 -10.4662 -1026.88
-31.303801 -10.5081 -1026.4
-31.7892 -10.4691 -1026.0601
-32.0966 -10.5154 -1025.59
-32.522701 -10.4903 -1025.21
-32.684101 -10.6646 -1024.61
-33.102798 -10.6101 -1024.28
-33.414398 -10.6079 -1023.88
-33.503399 -10.822 -1023.24
-33.803799 -10.8069 -1022.85
-33.9548 -10.9554 -1022.33
-34.264801 -10.9459 -1021.95
-34.4482 -11.0483 -1021.43
-34.777199 -11.0399 -1021.09
-34.864799 -11.2193 -1020.47
-35.195999 -11.1842 -1020.14
-35.352798 -11.3257 -1019.58
-35.358898 -11.5301 -1018.92
-35.555801 -11.5849 -1018.54
-35.5924 -11.765 -1018
-35.564602 -12.0224 -1017.32
-35.955299 -11.9377 -1017.11
-36.147202 -12.026 -1016.65
-36.126801 -12.2779 -1015.99
-36.101299 -12.5025 -1015.34
-36.162701 -12.6451 -1014.87
-36.1315 -12.8174 -1014.33
-36.120201 -12.9743 -1013.83
-36.156601 -13.1189 -1013.35
-36.312099 -13.1949 -1012.93
-36.1633 -13.5392 -1012.17
-36.359798 -13.5763 -1011.79
-36.492699 -13.6671 -1011.32
-36.494202 -13.8861 -1010.71
-36.734798 -13.8871 -1010.36
-36.594101 -14.2313 -1009.57
-36.655201 -14.3779 -1009.04
-36.908199 -14.3691 -1008.73
-36.787498 -14.7012 -1008
-36.9828 -14.6984 -1007.64
-36.994598 -14.908 -1007.09
-37.121601 -14.9687 -1006.64
-37.132 -15.1569 -1006.08
-37.025299 -15.4252 -1005.38
-36.995899 -15.6704 -1004.77
-37.000702 -15.8685 -1004.21
-37.144001 -15.9518 -1003.79
-37.163601 -16.0935 -1003.26
-37.162102 -16.266399 -1002.72
-37.128502 -16.481199 -1002.15
-37.145401 -16.6327 -1001.66
-37.0439 -16.8822 -1001.02
-36.922699 -17.1535 -1000.36
-36.931301 -17.2997 -999.87097
-36.881302 -17.532499 -999.29999
-36.785301 -17.770599 -998.685
-36.6539 -18.0492 -998.02802
-36.685398 -18.167801 -997.57202
-36.537399 -18.4331 -996.92499
-36.3829 -18.705099 -996.29498
-36.353901 -18.8727 -995.78003
-36.504601 -18.901899 -995.38898
-36.377899 -19.179399 -994.69598
-36.2733 -19.381399 -994.19299
-35.994301 -19.7031 -993.51599
-34.9729 -21.046101 -990.78101
-34.8708 -21.2314 -990.28497
-34.257 -21.9725 -988.89001
-33.969601 -22.2661 -988.245
-33.641102 -22.5867 -987.52698
-33.3937 -22.864599 -986.89697
-29.059401 -27.009001 -979.04999
13.1309 -17.1525 -1052.4399
7.4382901 -15.3775 -1051.6899
5.8685899 -14.808 -1051.74
4.2915602 -14.1208 -1051.89
3.1777301 -13.8907 -1051.52
2.1045499 -13.594 -1051.14
0.94940197 -13.3354 -1050.86
0.0194702 -13.1559 -1050.37
-0.92126501 -12.9951 -1049.99
-2.2632401 -12.4377 -1050.02
-3.0130601 -12.3717 -1049.48
-5.4260898 -11.6505 -1049.04
-6.20227 -11.434 -1048.84
-6.5844102 -11.5595 -1048.23
-7.40137 -11.3223 -1047.9301
-8.05933 -11.2169 -1047.5
-9.0360098 -10.9039 -1047.4
-9.6216402 -10.8643 -1046.87
-10.2333 -10.8304 -1046.46
-11.0071 -10.6262 -1046.11
-11.7013 -10.4792 -1045.8
-12.3466 -10.3791 -1045.38
-12.8749 -10.3895 -1044.91
-13.5995 -10.1867 -1044.64
-14.0005 -10.2469 -1044.0601
-14.5834 -10.1671 -1043.6899
-15.2864 -9.9970703 -1043.4301
-15.9473 -9.8556805 -1043.11
-16.3911 -9.86411 -1042.62
-17.1098 -9.7155199 -1042.3
-17.547701 -9.7460604 -1041.8199
-18.042 -9.6857004 -1041.4
-18.6392 -9.5564604 -1041.09
-19.0219 -9.6031504 -1040.61
-19.597 -9.4802904 -1040.3101
-20.0609 -9.4408302 -1039.91
-20.4142 -9.4978304 -1039.37
-20.9575 -9.4251699 -1039.03
-21.3347 -9.4589796 -1038.54
-21.7759 -9.4378099 -1038.1
-22.039801 -9.5473003 -1037.5
-22.758101 -9.34412 -1037.37
-23.239599 -9.25632 -1036.99
-23.3939 -9.4839802 -1036.3199
-23.9048 -9.3608103 -1036.03
-24.2267 -9.4140301 -1035.55
-24.702299 -9.3545799 -1035.23
-25.1064 -9.3402395 -1034.79
-25.5669 -9.2701101 -1034.45
-25.923201 -9.2994404 -1034.01
-26.0322 -9.5321703 -1033.3
-26.429501 -9.5285301 -1032.89
-26.804701 -9.5201101 -1032.51
-27.2199 -9.4772902 -1032.14
-27.6194 -9.4413795 -1031.78
-27.728901 -9.65979 -1031.14
-28.249901 -9.5326204 -1030.89
-28.6227 -9.4950895 -1030.51
-28.5963 -9.8319101 -1029.7
-29.4067 -9.4145203 -1029.8199
-29.0742 -10.0246 -1028.61
-29.6336 -9.86551 -1028.4301
-30.2946 -9.5567904 -1028.39
-30.391399 -9.7990398 -1027.66
-30.657499 -9.9197102 -1027.1
-31.2397 -9.7708998 -1026.89
-31.638399 -9.7617798 -1026.51
-31.890301 -9.8747597 -1025.9399
-32.147499 -9.9407701 -1025.4399
-32.481098 -9.9859304 -1025.03
-32.7789 -10.0002 -1024.6
-33.0462 -10.016 -1024.12
-33.248901 -10.1438 -1023.62
-33.362701 -10.3431 -1023.01
-33.684898 -10.3355 -1022.65
-33.936001 -10.391 -1022.21
-34.219601 -10.4093 -1021.81
-34.460999 -10.4737 -1021.37
-34.6008 -10.6035 -1020.83
-34.934898 -10.5847 -1020.48
-35.018501 -10.7789 -1019.85
-35.1866 -10.8884 -1019.35
-35.412701 -10.9272 -1018.93
-35.5172 -11.0663 -1018.41
-35.5858 -11.1948 -1017.89
-35.628502 -11.3854 -1017.33
-35.793098 -11.4807 -1016.85
-36.1833 -11.3631 -1016.67
-36.041901 -11.7501 -1015.82
-36.155998 -11.8607 -1015.35
-36.143002 -12.0128 -1014.82
-36.0569 -12.2428 -1014.24
-35.9104 -12.5396 -1013.59
-35.906399 -12.7264 -1013
-36.1735 -12.7213 -1012.71
-36.320999 -12.7844 -1012.3
-36.242401 -13.0775 -1011.59
-36.4203 -13.1424 -1011.17
-36.449001 -13.3112 -1010.59
-36.709999 -13.3125 -1010.27
-36.4786 -13.7264 -1009.38
-36.744598 -13.7083 -1009.06
-36.868099 -13.8257 -1008.61
-36.8368 -14.0757 -1008
-36.873901 -14.2118 -1007.46
-37.0093 -14.2857 -1007.04
-36.9842 -14.4893 -1006.43
-36.993 -14.6815 -1005.85
-36.990799 -14.882 -1005.28
-37.107101 -14.9657 -1004.84
-37.030102 -15.2334 -1004.17
-37.0993 -15.3935 -1003.68
-37.0546 -15.6082 -1003.08
-37.0681 -15.7708 -1002.55
-37.046299 -15.9702 -1002
-37.058201 -16.1115 -1001.5
-36.916199 -16.396099 -1000.82
-36.9156 -16.571501 -1000.29
-36.936401 -16.7085 -999.80902
-36.871799 -16.9212 -999.22198
-36.730099 -17.195 -998.56299
-36.6772 -17.396299 -997.97998
-36.672298 -17.583799 -997.474
-36.613201 -17.8029 -996.927
-36.576401 -17.9984 -996.37799
-36.736599 -18.0424 -995.96698
-36.637699 -18.3384 -995.22498
-36.513802 -18.6453 -994.55103
-34.639099 -20.814899 -989.96503
-34.416401 -21.069401 -989.35901
-34.1283 -21.407801 -988.68799
-33.867901 -21.735399 -988.04102
-33.6637 -22.003401 -987.46399
-33.349098 -22.349199 -986.77002
-33.0126 -22.684401 -986.05701
-32.827999 -22.8638 -985.52502
13.9836 -17.0082 -1051.8199
9.7343798 -15.4647 -1051.8101
7.6701698 -14.8901 -1051.72
6.3873301 -14.4569 -1051.37
4.6925702 -13.8118 -1051.45
3.0896599 -13.1801 -1051.54
2.2348001 -13.1036 -1050.92
1.27258 -12.955 -1050.46
-0.338135 -12.2735 -1050.64
-1.05597 -12.2727 -1050.0601
-2.14502 -11.9159 -1049.8199
-2.8634601 -11.8949 -1049.25
-4.2571998 -11.5188 -1048.97
-5.2625098 -11.1717 -1048.78
-6.1131601 -10.875 -1048.7
-6.3770099 -11.098 -1047.95
-7.1378798 -10.9256 -1047.5699
-8.04669 -10.6371 -1047.42
-8.8645601 -10.4136 -1047.13
-9.4414701 -10.4422 -1046.62
-10.3611 -10.0955 -1046.48
-10.7913 -10.2064 -1045.85
-11.4754 -10.0371 -1045.49
-12.241 -9.8678303 -1045.2
-12.8624 -9.7899504 -1044.78
-13.5353 -9.63834 -1044.5
-13.8792 -9.7779503 -1043.86
-14.9006 -9.2714796 -1043.96
-15.3085 -9.3681297 -1043.36
-15.8203 -9.3551302 -1042.92
-16.320801 -9.3435402 -1042.48
-17.128799 -9.1135597 -1042.22
-17.4984 -9.13696 -1041.71
-18.012199 -9.1086102 -1041.3101
-18.568501 -8.9937096 -1040.96
-18.980101 -9.01721 -1040.52
-19.325701 -9.1117897 -1039.95
-19.928301 -8.9591398 -1039.7
-20.3323 -8.9591999 -1039.21
-20.884701 -8.8596802 -1038.91
-21.1434 -8.9952402 -1038.29
-21.719999 -8.8575697 -1037.99
-22.3339 -8.7245197 -1037.75
-22.572001 -8.8888903 -1037.1
-23.0308 -8.8497295 -1036.72
-23.400101 -8.8590698 -1036.26
-23.9077 -8.7350502 -1035.96
-24.1668 -8.8561697 -1035.4399
-24.6392 -8.8225098 -1035.08
-25.030199 -8.7974195 -1034.65
-25.4032 -8.8064299 -1034.22
-25.789101 -8.8164701 -1033.8
-26.1765 -8.802 -1033.38
-26.4207 -8.9099102 -1032.83
-26.828899 -8.9060097 -1032.45
-27.092199 -8.9693298 -1031.9399
-27.316799 -9.1021099 -1031.4
-27.7778 -9.0024996 -1031.15
-28.064899 -9.0620699 -1030.65
-28.6131 -8.8601103 -1030.46
-28.6019 -9.21597 -1029.64
-29.2981 -8.9112501 -1029.6
-29.112499 -9.3938904 -1028.5601
-29.7896 -9.1279001 -1028.42
-30.349199 -9.0086699 -1028.16
-30.612801 -9.1945801 -1027.58
-31.0944 -9.0978403 -1027.24
-31.2313 -9.2794199 -1026.66
-31.4921 -9.3476 -1026.15
-31.992901 -9.2438698 -1025.9301
-32.1539 -9.3710899 -1025.34
-32.5928 -9.2742596 -1025.0699
-32.7117 -9.4740896 -1024.45
-32.872398 -9.5944204 -1023.88
-33.2346 -9.5326204 -1023.53
-33.573399 -9.5293598 -1023.19
-33.7449 -9.6475496 -1022.68
-33.982201 -9.7221098 -1022.19
-34.163898 -9.8409996 -1021.69
-34.386799 -9.90378 -1021.25
-34.572102 -10.0139 -1020.7
-34.809799 -10.0804 -1020.28
-34.9394 -10.2137 -1019.74
-35.280998 -10.2138 -1019.39
-35.310101 -10.4191 -1018.75
-35.4855 -10.5075 -1018.28
-35.517101 -10.6995 -1017.68
-35.784801 -10.6679 -1017.37
-35.7509 -10.9273 -1016.71
-35.837399 -11.0553 -1016.18
-35.983898 -11.1685 -1015.72
-35.961201 -11.3762 -1015.11
-35.933998 -11.5581 -1014.59
-35.862801 -11.7636 -1014.03
-35.866299 -11.94 -1013.52
-35.811001 -12.2125 -1012.87
-36.038799 -12.2042 -1012.52
-36.1744 -12.3126 -1012.08
-36.226601 -12.494 -1011.51
-36.215801 -12.6951 -1010.89
-36.431198 -12.7231 -1010.52
-36.634102 -12.7468 -1010.11
-36.534199 -13.0833 -1009.38
-36.561798 -13.2685 -1008.8
-36.680199 -13.3658 -1008.33
-36.679298 -13.5694 -1007.75
-36.727798 -13.7293 -1007.23
-36.844501 -13.8346 -1006.8
-36.865398 -13.9893 -1006.22
-36.945301 -14.1425 -1005.73
-36.9907 -14.2829 -1005.2
-36.947601 -14.5134 -1004.6
-36.953499 -14.717 -1004.04
-36.909401 -14.9553 -1003.4
-37.078999 -14.9739 -1003.03
-37.055698 -15.1791 -1002.47
-36.974201 -15.4229 -1001.86
-36.9277 -15.608 -1001.3
-36.887501 -15.8146 -1000.73
-36.912899 -15.9788 -1000.25
-36.850201 -16.193701 -999.659
-36.778702 -16.412201 -999.065
-36.717499 -16.608299 -998.487
-36.626801 -16.8778 -997.862
-36.631699 -17.0322 -997.34497
-36.586498 -17.2458 -996.76001
-36.678501 -17.374701 -996.28198
-36.708199 -17.5788 -995.66498
-36.6991 -17.807699 -995.05902
-36.734901 -17.959999 -994.578
-33.9529 -20.997101 -988.44598
-33.7248 -21.2841 -987.81897
-33.5485 -21.5016 -987.27301
-33.2868 -21.784901 -986.62598
-32.695 -22.4025 -985.30499
14.729 -16.733101 -1051.42
12.0204 -15.6741 -1051.74
9.6641197 -14.7915 -1051.88
8.4331102 -14.7576 -1051.0601
6.6872602 -14.035 -1051.05
4.9928002 -13.4072 -1051.15
3.57056 -12.8923 -1051.01
1.61938 -12.003 -1051.47
1.22168 -12.3001 -1050.39
0.120239 -12.0097 -1050.14
-0.966187 -11.7277 -1049.83
-2.0654299 -11.3919 -1049.67
-3.1856101 -10.9929 -1049.48
-5.29285 -10.5633 -1048.6801
-5.9692998 -10.3831 -1048.47
-6.5211802 -10.3594 -1047.99
-7.0426602 -10.3928 -1047.4301
-7.9185801 -10.1252 -1047.23
-8.73456 -9.9204998 -1046.92
-9.3885498 -9.8179302 -1046.5
-10.2917 -9.5429697 -1046.35
-10.8132 -9.5392199 -1045.8199
-11.5162 -9.4099703 -1045.47
-12.1237 -9.3509197 -1045.02
-12.6452 -9.3236103 -1044.51
-13.1764 -9.3380404 -1044.0699
-13.948 -9.0773602 -1043.89
-14.6522 -8.8855896 -1043.62
-15.3606 -8.6918602 -1043.37
-15.8209 -8.7139902 -1042.85
-16.384501 -8.6385803 -1042.47
-16.8179 -8.7378197 -1041.88
-17.325399 -8.6587496 -1041.46
-18.049801 -8.4642897 -1041.29
-18.4601 -8.46735 -1040.77
-18.962099 -8.42239 -1040.41
-19.377399 -8.4576101 -1039.9399
-19.8466 -8.4094801 -1039.55
-20.463301 -8.2383099 -1039.3101
-20.730101 -8.3810101 -1038.66
-21.1299 -8.4096403 -1038.21
-21.727699 -8.2780199 -1037.9301
-22.2215 -8.2087097 -1037.5601
-22.6782 -8.1864901 -1037.15
-23.0299 -8.2272596 -1036.64
-23.4156 -8.2565899 -1036.23
-23.7764 -8.2661104 -1035.78
-24.202999 -8.2256498 -1035.39
-24.606501 -8.2074003 -1034.99
-24.9067 -8.2987404 -1034.46
-25.4578 -8.1511202 -1034.24
-25.824301 -8.1645203 -1033.78
-26.072399 -8.2788696 -1033.21
-26.2693 -8.4557199 -1032.6
-26.688999 -8.4184904 -1032.23
-26.9266 -8.4761 -1031.71
-27.480801 -8.3383503 -1031.51
-27.638201 -8.51828 -1030.9
-27.9977 -8.5225201 -1030.51
-28.6127 -8.2825003 -1030.39
-28.4991 -8.7048597 -1029.4399
-29.250601 -8.3650198 -1029.42
-29.311899 -8.6753798 -1028.58
-29.917999 -8.54599 -1028.3101
-30.4126 -8.48419 -1027.95
-30.7759 -8.5029602 -1027.55
-31.1432 -8.5039997 -1027.13
-31.3076 -8.6186199 -1026.6
-31.6429 -8.6278095 -1026.2
-31.9823 -8.6528597 -1025.83
-32.312 -8.6336699 -1025.41
-32.552399 -8.6786804 -1024.97
-32.668098 -8.8950195 -1024.33
-33.0159 -8.87537 -1023.96
-33.216202 -8.9616098 -1023.45
-33.4506 -9.0609102 -1022.98
-33.488201 -9.2755404 -1022.33
-33.679901 -9.3829002 -1021.83
-34.247002 -9.18997 -1021.74
-34.347401 -9.3453398 -1021.14
-34.601299 -9.3462801 -1020.73
-34.734901 -9.5075102 -1020.16
-34.954899 -9.6105003 -1019.71
-35.085098 -9.7611704 -1019.13
-35.3372 -9.78372 -1018.74
-35.568901 -9.80054 -1018.34
-35.6269 -10.0203 -1017.74
-35.731098 -10.1458 -1017.24
-35.783401 -10.3142 -1016.66
-35.883099 -10.4378 -1016.16
-35.941601 -10.6087 -1015.61
-35.8675 -10.8356 -1014.97
-35.787399 -11.0362 -1014.43
-35.754501 -11.2209 -1013.92
-35.990799 -11.1962 -1013.64
-35.782799 -11.6024 -1012.77
-35.947102 -11.6638 -1012.36
-35.9669 -11.8731 -1011.78
-36.240002 -11.8383 -1011.46
-36.336899 -11.9726 -1010.96
-36.280998 -12.2298 -1010.27
-36.512501 -12.2571 -1009.92
-36.355301 -12.6364 -1009.12
-36.547199 -12.6933 -1008.72
-36.641102 -12.776 -1008.22
-36.605301 -13.0309 -1007.61
-36.823101 -13.0203 -1007.28
-36.809299 -13.2502 -1006.69
-36.793598 -13.4569 -1006.1
-36.960499 -13.518 -1005.7
-36.830299 -13.8089 -1004.96
-37.100498 -13.7755 -1004.7
-36.9701 -14.0879 -1003.96
-36.947498 -14.2913 -1003.36
-36.966599 -14.4675 -1002.85
-36.955399 -14.6577 -1002.3
-37.0005 -14.7798 -1001.83
-36.880199 -15.0547 -1001.17
-36.852501 -15.2429 -1000.62
-36.779701 -15.479 -1000.02
-36.7314 -15.6836 -999.45801
-36.7281 -15.8321 -998.94397
-36.631599 -16.072901 -998.328
-36.610298 -16.2721 -997.76202
-36.645302 -16.421 -997.26501
-36.638699 -16.6043 -996.65399
-36.846901 -16.6439 -996.27399
-36.774899 -16.967699 -995.58099
-36.775299 -17.1625 -994.98999
-36.817902 -17.288799 -994.51202
-36.852699 -17.4095 -994.06702
-34.012299 -20.3113 -988.43903
-33.684601 -20.673901 -987.70599
-33.4897 -20.909599 -987.138
-33.324799 -21.125299 -986.60303
-32.677101 -21.7836 -985.20001
14.7374 -15.9975 -1051.62
12.289 -15.2056 -1051.59
10.1074 -14.4804 -1051.48
7.7374301 -13.5557 -1051.66
6.5910602 -13.3151 -1051.14
4.5720201 -12.4862 -1051.41
3.2070301 -12.0518 -1051.24
1.89362 -11.6249 -1051.0601
1.34009 -11.7349 -1050.23
-0.0616455 -11.2623 -1050.16
-1.06409 -11.02 -1049.79
-2.17908 -10.6812 -1049.61
-2.8434401 -10.6876 -1049.05
-4.2254 -10.3461 -1048.63
-5.26367 -10.0029 -1048.55
-6.2765498 -9.5033903 -1048.6899
-6.3821998 -9.8538504 -1047.78
-6.9486098 -9.8196096 -1047.28
-7.9999399 -9.4364595 -1047.1899
-8.6290302 -9.3806496 -1046.72
-9.4074097 -9.2027302 -1046.4399
-10.046 -9.1184702 -1046.04
-10.7883 -8.9554396 -1045.71
-11.6292 -8.7143202 -1045.5
-12.0352 -8.8243399 -1044.85
-12.7936 -8.6019897 -1044.58
-13.3519 -8.5513296 -1044.17
-13.8939 -8.4901104 -1043.74
-14.5288 -8.38202 -1043.4399
-14.9763 -8.4277601 -1042.89
-15.6427 -8.2788401 -1042.6
-16.357 -8.0517302 -1042.39
-16.873199 -8.1026897 -1041.84
-17.412201 -7.99545 -1041.48
-17.953699 -7.9188199 -1041.11
-18.42 -7.9022799 -1040.66
-18.9431 -7.81638 -1040.33
-19.2862 -7.9151301 -1039.78
-19.9014 -7.7476501 -1039.55
-20.247601 -7.8230901 -1038.99
-20.724199 -7.7648301 -1038.61
-21.023399 -7.8668799 -1038.03
-21.5196 -7.8431101 -1037.65
-22.1106 -7.6762099 -1037.38
-22.523001 -7.6888099 -1036.91
-22.973499 -7.6701002 -1036.53
-23.3869 -7.6287198 -1036.13
-23.7001 -7.72366 -1035.61
-24.162701 -7.6454501 -1035.3101
-24.524 -7.6545701 -1034.85
-24.8186 -7.7688599 -1034.3101
-25.2068 -7.7334299 -1033.9
-25.6397 -7.71732 -1033.51
-25.907301 -7.7994399 -1032.97
-26.2953 -7.8073101 -1032.55
-26.717699 -7.7378502 -1032.21
-26.9781 -7.86063 -1031.7
-27.454 -7.7455401 -1031.42
-27.5674 -7.9555702 -1030.75
-28.174 -7.73212 -1030.61
-28.5805 -7.70648 -1030.28
-28.6992 -7.94067 -1029.53
-29.2551 -7.8235202 -1029.2
-29.7153 -7.8329802 -1028.77
-30.152901 -7.80161 -1028.34
-30.493799 -7.8564501 -1027.88
-30.741301 -7.94418 -1027.4
-31.0536 -7.9796801 -1026.98
-31.370399 -7.97018 -1026.59
-31.697901 -7.9745498 -1026.2
-31.830099 -8.1296701 -1025.61
-31.9949 -8.3194304 -1024.99
-32.3806 -8.2228403 -1024.6899
-32.5961 -8.3380404 -1024.1899
-32.837601 -8.4343596 -1023.71
-33.1063 -8.4589195 -1023.3
-33.440498 -8.4331398 -1022.94
-33.627899 -8.5259705 -1022.42
-33.860298 -8.5879803 -1021.98
-34.105301 -8.6236 -1021.56
-34.537601 -8.5214195 -1021.33
-34.418201 -8.8890696 -1020.48
-34.588501 -9.0151396 -1019.97
-34.777199 -9.1328096 -1019.49
-34.860802 -9.3323097 -1018.85
-35.166901 -9.3161001 -1018.52
-35.213902 -9.5160799 -1017.92
-35.483799 -9.5011301 -1017.58
-35.4496 -9.7632399 -1016.89
-35.6964 -9.76688 -1016.56
-35.909901 -9.7746601 -1016.16
-35.876598 -10.0241 -1015.51
-35.805199 -10.2484 -1014.9
-35.691299 -10.4751 -1014.35
-35.572399 -10.7675 -1013.71
-35.8055 -10.7507 -1013.38
-35.850601 -10.909 -1012.81
-35.958801 -11.0592 -1012.33
-35.939899 -11.295 -1011.69
-35.9725 -11.4935 -1011.12
-36.2383 -11.4551 -1010.81
-36.2374 -11.6753 -1010.18
-36.427399 -11.7249 -1009.78
-36.339401 -12.0113 -1009.03
-36.468601 -12.108 -1008.58
-36.522301 -12.2634 -1008.02
-36.508202 -12.4953 -1007.43
-36.666401 -12.5488 -1007.04
-36.7701 -12.651 -1006.57
-36.8008 -12.8503 -1006.03
-36.906799 -12.9515 -1005.58
-36.811298 -13.2418 -1004.88
-36.930199 -13.3156 -1004.44
-36.8465 -13.6023 -1003.76
-36.985802 -13.6467 -1003.35
-36.9706 -13.8693 -1002.78
-36.896198 -14.077 -1002.17
-36.915199 -14.2581 -1001.66
-36.915001 -14.419 -1001.16
-36.827599 -14.6537 -1000.52
-36.780701 -14.8581 -999.96698
-36.680801 -15.12 -999.33899
-36.653599 -15.2953 -998.80103
-36.569199 -15.5258 -998.18701
-36.633499 -15.6582 -997.70898
-36.6833 -15.7906 -997.20502
-36.697102 -16.004299 -996.55798
-36.8531 -16.064199 -996.15503
-36.8647 -16.261101 -995.59003
-36.774899 -16.5263 -994.89001
-36.8116 -16.6971 -994.39301
-36.780201 -16.858999 -993.86499
-36.7822 -16.9995 -993.37299
-33.651699 -20.0868 -987.604
-33.445099 -20.3307 -987.01501
-33.131901 -20.703899 -986.32001
-32.752899 -21.118099 -985.22198
14.9726 -15.597 -1051.34
11.8976 -14.2945 -1051.88
6.0497398 -12.3811 -1051.42
4.74615 -12.1123 -1051.05
3.72314 -11.9376 -1050.55
2.1654699 -11.3061 -1050.59
0.846802 -10.8949 -1050.37
-0.42144799 -10.5741 -1050.12
-1.50317 -10.2567 -1049.85
-2.59448 -9.90765 -1049.7
-4.5385699 -9.6134005 -1048.8
-5.3510098 -9.3664904 -1048.51
-5.8450298 -9.3171396 -1048.05
-6.4303002 -9.2497902 -1047.6899
-7.0856299 -9.1862497 -1047.26
-8.1881704 -8.8009596 -1047.15
-8.9641705 -8.6183796 -1046.86
-9.3891602 -8.7009001 -1046.29
-9.9356098 -8.6456604 -1045.86
-10.8306 -8.34021 -1045.6899
-11.359 -8.3560801 -1045.2
-12.0148 -8.2660799 -1044.8101
-12.8547 -7.9900498 -1044.62
-13.4514 -7.8619099 -1044.22
-13.6315 -8.1539602 -1043.4
-14.3451 -7.9559598 -1043.1899
-15.0628 -7.7968798 -1042.9399
-15.484 -7.8085599 -1042.39
-16.0613 -7.7379198 -1042.02
-16.7614 -7.6149302 -1041.6801
-17.3505 -7.5019498 -1041.33
-17.853001 -7.4545298 -1040.91
-18.380899 -7.3978601 -1040.52
-18.9258 -7.2836599 -1040.22
-19.3146 -7.3445702 -1039.74
-19.643 -7.4024401 -1039.22
-20.162001 -7.31036 -1038.85
-20.466999 -7.4195299 -1038.28
-21.097 -7.2658701 -1038.03
-21.718901 -7.08603 -1037.8
-22.049999 -7.1729102 -1037.27
-22.299299 -7.3517199 -1036.63
-22.780001 -7.2702899 -1036.26
-23.3566 -7.1088901 -1036.05
-23.7421 -7.1174898 -1035.64
-24.066299 -7.16748 -1035.15
-24.423201 -7.19556 -1034.6801
-24.7798 -7.2167101 -1034.2
-25.062599 -7.3190298 -1033.67
-25.7493 -7.0481 -1033.59
-25.855 -7.2796302 -1032.89
-26.2621 -7.28613 -1032.46
-26.602501 -7.31284 -1032.03
-26.894699 -7.3594699 -1031.5699
-27.449301 -7.1745 -1031.38
-27.440901 -7.5180998 -1030.5699
-27.889299 -7.4777498 -1030.27
-28.5627 -7.1925998 -1030.17
-28.782301 -7.37393 -1029.46
-29.3701 -7.3166199 -1029.08
-29.8906 -7.2241802 -1028.79
-29.958799 -7.4827299 -1028.01
-30.5305 -7.3011198 -1027.84
-30.6299 -7.48737 -1027.21
-30.998301 -7.4517498 -1026.88
-31.3032 -7.49335 -1026.45
-31.5506 -7.5563402 -1025.99
-31.7952 -7.6129498 -1025.52
-31.9445 -7.7642498 -1024.92
-32.551201 -7.52667 -1024.87
-32.5886 -7.8085899 -1024.12
-32.771099 -7.91113 -1023.57
-33.2033 -7.8288898 -1023.32
-33.186901 -8.1073599 -1022.6
-33.527401 -8.09869 -1022.27
-33.7766 -8.1041002 -1021.86
-33.9259 -8.2615404 -1021.32
-34.0993 -8.3611803 -1020.8
-34.369301 -8.4049997 -1020.42
-34.5467 -8.4972801 -1019.94
-34.332901 -8.9459496 -1019
-34.697498 -8.8804598 -1018.71
-35.174801 -8.6985798 -1018.57
-34.999699 -9.09729 -1017.68
-35.426102 -8.9443398 -1017.55
-35.326 -9.2741699 -1016.76
-35.626598 -9.2432604 -1016.46
-35.692402 -9.4216604 -1015.91
-35.6964 -9.6232004 -1015.31
-35.7202 -9.7509203 -1014.86
-35.5779 -10.0037 -1014.25
-35.555698 -10.1941 -1013.65
-35.590801 -10.3633 -1013.1
-35.7108 -10.494 -1012.6
-35.850601 -10.5891 -1012.15
-35.970299 -10.7035 -1011.68
-36.132801 -10.7661 -1011.25
-36.155998 -10.9741 -1010.66
-36.175999 -11.1833 -1010.06
-36.4473 -11.1593 -1009.77
-36.282501 -11.526 -1008.92
-36.536999 -11.5095 -1008.6
-36.549801 -11.7107 -1008
-36.557701 -11.8963 -1007.44
-36.649502 -12.006 -1006.97
-36.652901 -12.2261 -1006.39
-36.7472 -12.3466 -1005.94
-36.873402 -12.4232 -1005.51
-36.730202 -12.7647 -1004.73
-36.8354 -12.8524 -1004.28
-36.858898 -13.0054 -1003.73
-36.9515 -13.1169 -1003.26
-36.960602 -13.3034 -1002.72
-36.862202 -13.5945 -1002.08
-36.909801 -13.7043 -1001.6
-36.838001 -13.9145 -1001
