# .PCD v0.7 - Point Cloud Data file format
VERSION 0.7
FIELDS x y z
SIZE 4 4 4
TYPE F F F
COUNT 1 1 1
WIDTH 1568
HEIGHT 1
VIEWPOINT 0 0 0 1 0 0 0
POINTS 1568
DATA ascii
-4.3453302 -47.759602 -969.323
-3.8164899 -47.773899 -969.19299
-3.2808499 -47.817001 -969.02301
-2.81967 -47.8386 -969.08801
-2.3800099 -47.855999 -969.11401
-1.8952301 -47.8554 -968.80402
-1.43646 -47.891602 -968.935
-0.86393398 -47.885101 -968.073
-0.33040601 -47.942001 -968.60901
0.24203201 -47.957401 -968.25
0.77494001 -47.9702 -968.18701
1.33623 -48.012402 -968.31403
1.88989 -48.031601 -967.90302
2.36637 -48.042198 -968.18402
2.8431699 -48.0835 -967.90002
3.3145101 -48.120098 -967.84198
3.7943001 -48.155701 -968.18201
4.3636198 -48.1693 -967.83197
4.9425201 -48.2034 -967.62598
5.4966202 -48.245701 -967.758
6.0768099 -48.244099 -967.52301
6.6488099 -48.257099 -967.59698
7.1903901 -48.310902 -967.586
7.70855 -48.3321 -967.40997
8.1642103 -48.346802 -967.38397
8.6205997 -48.407299 -967.63702
9.1624699 -48.456699 -968.15503
9.7471905 -48.449699 -967.164
10.3381 -48.483601 -967.42798
10.9071 -48.511799 -967.76001
11.517 -48.573898 -967.57202
12.1135 -48.630001 -968.45398
12.6773 -48.616699 -967.80603
13.1921 -48.667599 -967.84399
13.6755 -48.7062 -967.71802
14.1493 -48.720001 -967.33698
14.679 -48.7472 -968.28699
15.3562 -48.785099 -967.98901
15.9846 -48.8339 -968.19702
16.596901 -48.888302 -968.38202
17.186199 -48.9244 -968.24103
17.807899 -49.011799 -968.92102
18.3703 -49.030602 -968.729
18.915701 -49.065102 -968.91199
19.4447 -49.1106 -969.21301
19.9891 -49.132999 -969.03003
20.5471 -49.1595 -969.11102
21.1998 -49.195099 -969.09399
21.8255 -49.2789 -969.88599
22.4867 -49.3265 -969.89099
23.125601 -49.364601 -970.052
23.792999 -49.396801 -970.17499
24.459801 -49.479698 -970.745
25.0597 -49.535 -970.77802
25.611099 -49.566898 -971.44202
26.1854 -49.611698 -971.45099
26.7962 -49.627899 -971.49103
27.481001 -49.711899 -971.95099
28.186899 -49.759399 -972.276
28.8715 -49.804001 -972.89203
29.602501 -49.903301 -973.388
30.3032 -49.9566 -973.68701
31.0261 -50.037998 -974.16602
31.6716 -50.104401 -974.84698
32.270699 -50.184299 -975.01398
32.853699 -50.2005 -975.18799
33.513 -50.278702 -976.00299
34.289501 -50.319801 -976.21503
35.038101 -50.4212 -976.72302
35.817799 -50.501801 -977.52301
36.601601 -50.553398 -977.66901
37.398701 -50.690399 -978.70099
38.249699 -50.760101 -979.49799
39.054001 -50.841301 -980.04102
39.7686 -50.944099 -981.25098
40.563499 -51.057701 -982.73499
41.380199 -51.129299 -982.64899
42.354 -51.246601 -984.30798
45.2966 -51.732201 -989.935
-32.943199 -47.170101 -997.17102
-32.573601 -47.1544 -996.27899
-32.191399 -47.118401 -995.45502
-31.784401 -47.074699 -994.46503
-31.348 -47.0355 -993.28699
-30.954399 -47.001701 -992.42499
-30.6075 -46.971802 -991.79498
-30.266399 -46.928501 -991.10101
-29.8922 -46.917301 -990.23102
-29.544901 -46.927101 -989.44598
-29.158001 -46.909401 -988.66901
-28.7003 -46.891201 -988.112
-28.1861 -46.8955 -987.31702
-27.725401 -46.8811 -986.67902
-27.269199 -46.873001 -985.94702
-26.861099 -46.841499 -985.50201
-26.448 -46.820801 -984.81897
-26.0881 -46.834999 -984.62
-25.6717 -46.811699 -983.84497
-25.2477 -46.7924 -983.22198
-24.797501 -46.7896 -982.573
-24.408501 -46.789398 -981.836
-23.980801 -46.806801 -981.49103
-23.486401 -46.805099 -980.96399
-23.0222 -46.8022 -980.58197
-22.545099 -46.802299 -980.00201
-22.1182 -46.780399 -979.672
-21.7155 -46.7813 -979.34302
-21.284901 -46.785301 -978.58698
-20.8636 -46.7901 -978.33398
-20.371201 -46.788898 -977.72498
-19.9023 -46.8172 -977.47302
-19.4231 -46.818298 -977.17102
-18.8883 -46.8111 -976.45099
-18.4326 -46.804501 -976.35303
-17.966801 -46.8311 -976.17902
-17.519501 -46.829102 -975.68701
-17.1042 -46.8619 -975.34399
-16.6992 -46.867901 -975.14203
-16.2584 -46.861301 -974.539
-15.8215 -46.874599 -974.07202
-15.2586 -46.823799 -972.49902
-14.7311 -46.8783 -973.42603
-14.2252 -46.9034 -973.44397
-13.7178 -46.905998 -973.17999
-13.2323 -46.931801 -973.02197
-12.7795 -46.928902 -972.58899
-12.3589 -46.930801 -972.32202
-11.9625 -46.9566 -972.34302
-11.4865 -46.968498 -971.84698
-10.9608 -46.9589 -971.39301
-10.465 -46.989799 -971.23499
-9.9337997 -47.006699 -970.95203
-9.4240799 -47.0144 -970.58899
-8.9104605 -47.040298 -970.62598
-8.3942099 -47.056999 -970.22101
-7.93923 -47.075298 -970.13501
-7.49821 -47.097301 -969.91699
-7.07794 -47.126301 -969.776
-6.6048799 -47.142502 -969.79498
-6.02355 -47.105301 -969.04999
-5.4579 -47.188099 -969.67999
-4.9060602 -47.213501 -969.37903
-4.3527699 -47.200199 -969.02002
-3.8573999 -47.237999 -969.19
-3.30603 -47.2598 -968.85797
-2.8510001 -47.3027 -968.95398
-2.37727 -47.3069 -968.51703
-1.93454 -47.325298 -968.74701
-1.45347 -47.359901 -968.526
-0.91528302 -47.391399 -968.237
-0.37243599 -47.418999 -968.06
0.191355 -47.466099 -967.823
0.73982698 -47.476601 -968.13898
1.30985 -47.4851 -968.323
1.8706 -47.4902 -967.59802
2.3417101 -47.5392 -967.92902
2.8115301 -47.557098 -968.01898
3.2860899 -47.572899 -967.81403
3.76668 -47.597599 -967.763
4.3456101 -47.6147 -967.45502
4.9014201 -47.666401 -967.84802
5.4793501 -47.676498 -967.72699
6.0366902 -47.706699 -967.44
6.6135502 -47.755299 -967.677
7.1615601 -47.757 -967.284
7.6669202 -47.825199 -967.40198
8.1290398 -47.844799 -967.461
8.6036301 -47.8498 -967.414
9.1456604 -47.905998 -967.84198
9.73034 -47.873299 -966.77301
10.3041 -47.946999 -967.21997
10.8837 -47.985199 -967.33197
11.4763 -48.013 -967.59198
12.094 -48.076801 -968.026
12.6441 -48.0826 -967.51599
13.1688 -48.1087 -967.60303
13.6408 -48.144001 -967.56897
14.1185 -48.139801 -967.27502
14.6348 -48.182999 -967.354
15.2919 -48.221401 -967.87201
15.9356 -48.284801 -967.96301
16.5478 -48.297298 -968.20001
17.1658 -48.364101 -968.45001
17.802 -48.464699 -968.94501
18.3682 -48.4632 -968.18799
18.8962 -48.513699 -968.53998
19.4333 -48.515598 -968.54901
19.965401 -48.5811 -968.98401
20.542101 -48.645599 -969.37201
21.193199 -48.648499 -969.17603
21.832399 -48.703602 -969.37903
22.4797 -48.745602 -969.24799
23.105 -48.823502 -970.20398
23.7689 -48.8876 -970.57501
24.444599 -48.918701 -970.51099
25.039101 -48.971401 -970.81
25.5893 -49.0154 -971.08502
26.1565 -49.059101 -971.25201
26.780001 -49.1124 -971.70203
27.452101 -49.168499 -972.23602
28.156601 -49.215 -972.38397
28.871799 -49.317501 -972.73199
29.5714 -49.347301 -973.47498
30.3001 -49.4109 -973.67401
31.015699 -49.473099 -973.97302
31.643299 -49.520699 -974.315
32.248699 -49.586899 -974.83301
32.842701 -49.648899 -974.901
33.503502 -49.703201 -975.33197
34.258202 -49.755798 -975.67999
35.025101 -49.867298 -977.06
35.812099 -49.9034 -976.78497
36.5415 -50.0135 -977.75299
37.3703 -50.037201 -977.71198
38.165901 -50.217201 -979.55103
38.940899 -50.2836 -980.28802
39.663898 -50.362099 -981.133
40.395699 -50.4109 -981.51801
41.227001 -50.4664 -982.026
42.208801 -50.6894 -984.065
43.334999 -50.808601 -984.758
45.087101 -51.126701 -989.39899
46.444099 -51.297501 -990.513
48.143501 -51.6931 -995.58698
-34.281502 -46.791401 -1001.33
-34.002201 -46.747799 -1000.43
-33.7076 -46.706402 -999.38397
-33.354099 -46.671799 -998.11902
-32.969501 -46.643501 -996.92603
-32.5938 -46.584202 -996.09198
-32.2038 -46.562099 -995.18799
-31.7988 -46.535301 -994.18201
-31.394699 -46.463902 -993.20697
-31.002701 -46.4491 -992.159
-30.661301 -46.442501 -991.29901
-30.338301 -46.4198 -990.67999
-30.011499 -46.379601 -990.08002
-29.5984 -46.3699 -988.953
-29.196699 -46.377899 -988.54199
-28.711399 -46.378101 -987.70898
-28.1996 -46.3493 -987.16602
-27.752701 -46.348499 -986.57098
-27.281601 -46.316002 -985.724
-26.8661 -46.305901 -985.35101
-26.467899 -46.316299 -984.672
-26.1094 -46.309898 -984.31799
-25.685499 -46.278702 -983.61102
-25.2766 -46.323601 -983.17603
-24.8293 -46.290501 -982.34698
-24.4268 -46.304699 -981.76599
-23.962099 -46.283699 -981.33301
-23.472099 -46.266399 -980.68298
-23.016399 -46.267799 -980.27502
-22.544701 -46.273701 -979.79999
-22.1381 -46.2836 -979.40802
-21.729799 -46.2784 -979.047
-21.304899 -46.273998 -978.50403
-20.9049 -46.303299 -978.354
-20.423599 -46.3027 -978.09802
-19.9074 -46.294201 -977.263
-19.410299 -46.2966 -976.883
-18.917 -46.282299 -976.32202
-18.4405 -46.315899 -976.23102
-17.9713 -46.312698 -976.052
-17.526699 -46.3083 -975.43701
-17.0849 -46.316399 -974.784
-16.700001 -46.3307 -974.789
-16.2672 -46.3288 -974.56201
-15.7901 -46.336899 -973.90002
-15.2738 -46.355598 -974.039
-14.7258 -46.340801 -973.45697
-14.25 -46.363602 -973.44702
-13.7307 -46.372898 -972.815
-13.2281 -46.400501 -972.69098
-12.7818 -46.398201 -972.29102
-12.3502 -46.416698 -971.96899
-11.9362 -46.465698 -971.91602
-11.4984 -46.4552 -971.85303
-10.9587 -46.4524 -971.07098
-10.4742 -46.473 -971.16901
-9.9493799 -46.4631 -970.68799
-9.4367104 -46.4902 -970.52301
-8.9257803 -46.512402 -970.77899
-8.4069204 -46.540699 -970.29999
-7.9733901 -46.551601 -970.06201
-7.5253801 -46.595501 -969.81299
-7.0906701 -46.655701 -969.62903
-6.5833402 -46.661499 -969.71503
-6.0303702 -46.631901 -969.07098
-5.4528098 -46.6497 -969.271
-4.9309502 -46.689899 -969.39697
-4.3738298 -46.687302 -968.82898
-3.86111 -46.7374 -968.92999
-3.32149 -46.7761 -968.58301
-2.8747599 -46.768902 -968.88599
-2.3996401 -46.792198 -968.53699
-1.95344 -46.806301 -968.43799
-1.48405 -46.8353 -968.66302
-0.94637698 -46.838799 -967.78302
-0.389707 -46.899601 -967.86298
0.184246 -47.069 -967.51001
0.76017803 -46.937 -966.98602
1.2796299 -46.987 -968.28497
1.85068 -46.975498 -967.38
2.3313601 -47.005402 -967.51001
2.77859 -47.021999 -967.73901
3.26421 -47.044498 -967.67798
3.7450199 -47.0956 -967.78802
4.3035302 -47.123501 -967.65503
4.8935199 -47.161999 -967.40698
5.4408102 -47.162102 -967.40601
6.0105801 -47.197701 -967.30499
6.57517 -47.224998 -967.53998
7.1468101 -47.252899 -967.104
7.64153 -47.263199 -967.23199
8.0938597 -47.318802 -967.27502
8.5871801 -47.301102 -966.90002
9.1398497 -47.404701 -967.62799
9.7095499 -47.374401 -966.60498
10.2852 -47.448101 -967.51398
10.8455 -47.474499 -967.50598
11.4431 -47.521198 -967.565
12.0686 -47.547501 -967.68103
12.629 -47.5914 -967.18298
13.133 -47.607101 -967.633
13.6074 -47.616402 -967.34802
14.0675 -47.633301 -967.052
14.5818 -47.672298 -967.297
15.2165 -47.688599 -967.34601
15.8399 -47.716499 -967.68402
16.478399 -47.711399 -967.44299
17.0611 -47.769699 -968.17499
17.7145 -47.8475 -968.422
18.317699 -47.935501 -968.29901
18.882799 -47.970501 -968.32098
19.404699 -48.013699 -968.46802
19.927601 -48.032902 -968.48901
20.511299 -48.094501 -968.84399
21.1404 -48.140099 -969.12201
21.785801 -48.182999 -969.336
22.4417 -48.2173 -969.64301
23.0877 -48.317501 -969.79199
23.753599 -48.344501 -970.16101
24.381599 -48.411098 -970.77399
24.9869 -48.430199 -970.45801
25.5541 -48.459202 -970.65399
26.113199 -48.518101 -971.10498
26.7365 -48.566898 -971.32202
27.4284 -48.679298 -971.89801
28.121201 -48.718899 -972.40399
28.8445 -48.733799 -972.26703
29.5152 -48.820099 -972.96899
30.243799 -48.866299 -973.14801
30.9345 -48.9412 -974.01398
31.6073 -49.0228 -974.43201
32.218201 -49.043201 -974.815
32.812 -49.1054 -975.07898
33.494801 -49.179501 -975.43103
34.244801 -49.290798 -976.25702
35.038502 -49.3176 -976.50299
35.7985 -49.423302 -977.25299
36.547501 -49.4883 -977.77802
37.334801 -49.548 -978.26898
38.162998 -49.677399 -979.14398
38.8769 -49.7286 -979.73901
39.604198 -49.7999 -980.41901
40.3195 -49.896198 -981.44702
41.119202 -49.989101 -982.68402
42.0784 -50.095798 -983.51599
43.180302 -50.297298 -985.65198
44.881302 -50.587299 -989.54999
46.2187 -50.761799 -991.04901
47.915401 -51.116001 -995.41199
-34.308498 -46.2295 -1000.97
-34.039501 -46.185299 -1000.23
-33.742901 -46.174 -999.255
-33.381802 -46.109699 -997.95001
-32.9981 -46.050598 -996.74701
-32.6278 -46.001301 -995.841
-32.219101 -46.001099 -994.83099
-31.8298 -45.965199 -993.81201
-31.4491 -45.9603 -992.74902
-31.066401 -45.937901 -991.56403
-30.7211 -45.892799 -990.76501
-30.377001 -45.870098 -990.08899
-30.0394 -45.8634 -989.54901
-29.632799 -45.834202 -988.77002
-29.1992 -45.8298 -988.013
-28.7122 -45.825199 -987.48401
-28.2061 -45.816399 -986.91998
-27.7549 -45.7869 -986.34497
-27.290899 -45.775501 -985.49799
-26.854601 -45.757999 -984.88898
-26.473101 -45.7724 -984.539
-26.091299 -45.7794 -984.02301
-25.7211 -45.7775 -983.65503
-25.310699 -45.785599 -983.18597
-24.8552 -45.752899 -982.32501
-24.4408 -45.742001 -981.65601
-23.961201 -45.730499 -981.05603
-23.471399 -45.755501 -980.41699
-23.014799 -45.7318 -980.06097
-22.5665 -45.734299 -979.75098
-22.1367 -45.724499 -979.284
-21.7355 -45.706402 -978.77502
-21.3473 -45.709202 -978.52301
-20.8899 -45.7286 -977.99902
-20.4062 -45.743401 -977.54401
-19.9091 -45.7369 -977.05298
-19.437201 -45.727402 -976.82098
-18.952101 -45.745399 -976.46997
-18.4555 -45.786098 -975.93903
-17.9883 -45.7938 -975.698
-17.555599 -45.784698 -975.44202
-17.120501 -45.777302 -974.98199
-16.7069 -45.7868 -974.70398
-16.278 -45.804401 -974.45099
-15.7868 -45.800201 -974.11401
-15.2565 -45.793701 -973.59601
-14.7617 -45.822899 -973.47198
-14.2562 -45.8391 -973.125
-13.753 -45.868401 -972.85699
-13.2541 -45.863098 -972.43298
-12.8286 -45.886398 -972.35199
-12.4026 -45.899899 -972.15698
-11.9627 -45.8918 -971.78003
-11.4837 -45.916801 -971.31897
-10.9937 -45.9291 -971.31
-10.4662 -45.921799 -970.67798
-9.9749203 -45.9356 -970.49597
-9.4431 -45.957199 -970.32397
-8.9336004 -45.975601 -969.97699
-8.44734 -46.007198 -969.85602
-8.0051899 -46.0298 -969.849
-6.0084701 -46.079899 -968.78601
-5.4857101 -46.132599 -969.31201
-4.9317098 -46.126999 -968.901
-4.4051399 -46.167999 -968.72498
-3.8843701 -46.190201 -968.82501
-3.3705201 -46.212299 -968.80402
-2.8966801 -46.236 -968.61603
-2.4112599 -46.277802 -968.27399
-1.97122 -46.267899 -968.18799
-1.49387 -46.292099 -968.36102
-0.96541101 -46.287899 -967.72803
-0.39205 -46.329201 -968.05499
0.155499 -46.348801 -967.84198
0.72450501 -46.366402 -967.18701
1.27239 -46.4319 -967.98602
1.81533 -46.442699 -967.34302
2.303 -46.4617 -967.56799
2.76882 -46.500401 -967.40698
3.24404 -46.533501 -967.28699
3.76034 -46.565399 -967.31201
4.2919402 -46.568802 -967.10498
4.8633299 -46.614799 -967.47803
5.43927 -46.637501 -967.02698
5.9822001 -46.6647 -967.198
6.5482502 -46.7313 -967.45502
7.1098299 -46.717701 -967.02502
7.6044998 -46.752602 -967.05798
8.0750303 -46.766102 -966.74597
8.5486298 -46.809898 -967.05701
9.0999298 -46.866798 -967.32001
9.6790304 -46.8549 -966.784
10.2719 -46.9272 -967.43402
10.8327 -46.9506 -966.92102
11.3975 -46.9837 -967.22101
12.0245 -46.995899 -967.57202
12.5891 -47.0135 -967.23102
13.1036 -47.032101 -966.987
13.5623 -47.070702 -967.00403
14.0278 -47.112499 -966.96802
14.5044 -47.1283 -966.90002
15.1223 -47.185799 -967.16302
15.7418 -47.211399 -967.16901
16.366501 -47.2752 -966.88702
16.958 -47.303799 -967.38098
17.5916 -47.322201 -967.56403
18.2353 -47.334099 -967.80103
18.807501 -47.4268 -968.41699
19.3675 -47.480099 -968.172
19.883699 -47.534599 -968.52399
20.4576 -47.546001 -968.48499
21.0791 -47.603298 -968.79602
21.7341 -47.666599 -969.10797
22.4121 -47.714901 -969.15601
23.0693 -47.763699 -969.599
23.7267 -47.788101 -969.85999
24.3599 -47.8284 -970.185
24.957199 -47.9133 -970.23602
25.506701 -47.9436 -970.70898
26.0832 -48.007301 -970.896
26.707199 -48.042 -971.23102
27.3818 -48.140598 -971.44299
28.0849 -48.150002 -971.78802
28.757099 -48.202202 -972.01001
29.4599 -48.2593 -972.25403
30.139799 -48.3297 -972.922
30.900999 -48.405499 -973.34998
31.556801 -48.490398 -974.13501
32.152901 -48.5247 -974.08899
32.753899 -48.572601 -974.81201
33.4412 -48.6618 -975.41498
34.245998 -48.720798 -975.96899
35.005901 -48.7883 -976.67102
35.768902 -48.875 -977.21503
36.5644 -48.9352 -977.66199
37.334599 -49.029499 -978.24701
38.131401 -49.113098 -978.76501
38.821899 -49.154598 -979.42297
39.526501 -49.248199 -980.17499
40.2271 -49.321701 -980.703
41.014198 -49.420799 -982.487
41.9618 -49.535702 -982.71899
43.056599 -49.664001 -984.034
45.985802 -50.0924 -989.29999
47.686298 -50.365799 -989.86499
-34.0359 -45.662399 -999.72198
-33.422501 -45.569302 -997.86401
-33.0518 -45.557701 -996.85602
-32.613201 -45.496498 -995.349
-32.2617 -45.4669 -994.383
-31.896 -45.444401 -993.33398
-31.4897 -45.426102 -992.20502
-31.136 -45.403801 -991.60199
-30.7349 -45.336102 -990.39502
-30.385799 -45.330299 -989.85303
-30.0306 -45.328499 -989.26801
-29.6285 -45.3032 -988.46002
-29.2192 -45.2887 -988.09601
-28.681999 -45.257 -987.20001
-28.2248 -45.281898 -986.77002
-27.754101 -45.2598 -986.00598
-27.3207 -45.2537 -985.40002
-26.879999 -45.233898 -984.823
-26.496599 -45.2318 -984.36401
-26.0833 -45.238602 -983.59998
-25.7243 -45.241199 -983.38
-25.318001 -45.239601 -982.95801
-24.8596 -45.231201 -982.16498
-24.4396 -45.2146 -981.565
-23.964001 -45.1898 -980.70203
-23.460199 -45.173599 -980.02197
-23.018999 -45.2043 -979.65997
-22.5578 -45.175301 -979.448
-22.146799 -45.16 -978.94299
-21.7722 -45.187801 -978.66602
-21.3622 -45.2061 -978.28198
-20.9182 -45.204899 -977.83899
-20.4146 -45.201 -977.30798
-19.924101 -45.222 -976.94202
-19.452299 -45.225899 -976.54102
-18.955099 -45.2533 -976.17603
-18.4636 -45.2262 -975.60901
-17.978201 -45.243198 -975.229
-17.5422 -45.248798 -975.039
-17.1367 -45.254799 -974.74902
-16.7299 -45.2841 -974.59497
-16.2927 -45.287998 -974.44501
-15.7914 -45.302898 -974.11401
-15.2619 -45.2841 -973.43298
-14.7711 -45.2799 -973.245
-14.2672 -45.321301 -972.76398
-13.7549 -45.321701 -972.46399
-13.2659 -45.352798 -972.23999
-12.8343 -45.360699 -972.086
-12.4334 -45.3731 -972.013
-11.9815 -45.383301 -971.49402
-11.5224 -45.3941 -971.13397
-11.0143 -45.420399 -970.92603
-10.5126 -45.417999 -970.76099
-9.9731703 -45.425499 -970.32501
-9.45154 -45.426701 -969.98798
-8.9599705 -45.4445 -970.08801
-8.4670401 -45.4613 -969.75897
-8.0014696 -45.4958 -969.72699
-6.5317502 -45.530102 -969.39502
-6.0341001 -45.579399 -968.96399
-5.5023398 -45.6096 -969.14398
-4.9647999 -45.600899 -968.84698
-4.43047 -45.6381 -968.68103
-3.9114399 -45.6703 -968.672
-3.3820701 -45.709599 -968.513
-2.90007 -45.7225 -968.43103
-2.4574499 -45.743999 -968.25201
-2.0094399 -45.760899 -968.25403
-1.51103 -45.777599 -968.01599
-0.98610097 -45.7668 -967.55499
-0.42192701 -45.8466 -968.20001
0.12811901 -45.8288 -967.78198
0.71116501 -45.857899 -967.28497
1.2436399 -45.919201 -967.63501
1.80845 -45.931 -967.08502
2.2978899 -45.950699 -967.104
2.7414401 -45.9865 -967.44397
3.2188001 -46.001999 -967.112
3.71738 -46.034599 -967.36499
4.2740502 -46.035301 -966.64398
4.8295598 -46.114201 -967.37
5.40803 -46.119202 -966.81403
5.9671998 -46.155499 -966.724
6.5134401 -46.208099 -967.42102
7.0656199 -46.178799 -966.87799
7.5851898 -46.235802 -966.828
8.0444403 -46.2523 -966.888
8.5319595 -46.259399 -966.89001
9.0885296 -46.323502 -967.22998
9.65907 -46.348499 -966.685
10.2553 -46.408001 -967.32898
10.8084 -46.423698 -967.02802
11.3608 -46.433899 -966.78101
11.9359 -46.451302 -967.08698
12.5283 -46.469398 -966.46301
12.9905 -46.489601 -966.52502
13.4728 -46.5368 -966.62097
13.9524 -46.574501 -966.63501
14.4742 -46.584301 -966.23401
15.0445 -46.6441 -966.83899
15.6621 -46.664398 -967.01801
16.2813 -46.723701 -967.18103
16.917 -46.772301 -967.17102
17.538401 -46.8269 -967.09302
18.1618 -46.861301 -967.48102
18.759399 -46.9034 -967.63
19.2896 -46.952301 -968.12299
19.853001 -47.020401 -968.33197
20.412201 -47.036301 -968.38501
21.0469 -47.084 -968.65601
21.6791 -47.1371 -969.052
22.347799 -47.157398 -969.03601
23.0026 -47.2132 -969.25897
23.661301 -47.277199 -969.52301
24.3064 -47.341801 -969.698
24.8871 -47.361599 -969.99402
25.473801 -47.399601 -970.37402
26.0352 -47.4659 -970.58698
26.6535 -47.4813 -970.97101
27.322701 -47.5527 -970.95001
28.004601 -47.6092 -971.35498
28.702801 -47.669102 -971.64697
29.3839 -47.724899 -972.224
30.108999 -47.777199 -972.71802
30.827101 -47.899502 -973.409
31.472601 -47.935001 -973.71399
32.064602 -47.954399 -973.909
32.6912 -48.008099 -974.61499
33.339298 -48.1082 -975.31097
34.1782 -48.188801 -975.57001
34.947601 -48.219299 -976.17499
35.720901 -48.327702 -976.776
36.524502 -48.400501 -977.63599
37.332699 -48.490002 -978.099
38.0998 -48.5564 -978.66498
38.834301 -48.6521 -979.20398
39.479698 -48.730598 -979.72803
40.2141 -48.827202 -980.90002
40.967899 -48.8974 -981.62402
41.926701 -49.002499 -982.20203
42.973598 -49.118599 -983.29901
45.930302 -49.547001 -987.98602
-34.636902 -45.158401 -1001.37
-34.3498 -45.145802 -1000.51
-34.059601 -45.078602 -999.495
-33.7626 -45.0322 -998.52399
-33.418301 -45.0065 -997.39398
-33.045101 -44.949299 -996.10498
-32.683601 -44.926201 -994.92499
-32.3335 -44.8988 -993.89099
-31.938499 -44.867599 -992.89502
-31.517599 -44.836601 -991.90698
-31.128 -44.806301 -991.17902
-30.7693 -44.777302 -990.354
-30.4014 -44.779701 -989.71899
-30.0343 -44.765301 -989.06299
-29.635099 -44.723701 -988.38702
-29.2145 -44.741001 -987.99402
-28.6936 -44.749699 -987.15698
-28.223801 -44.715302 -986.51801
-27.773899 -44.690201 -985.94598
-27.351299 -44.699902 -985.38599
-26.917601 -44.697201 -984.78302
-26.521099 -44.7113 -984.203
-26.143499 -44.694302 -983.82202
-25.754299 -44.707802 -983.31702
-25.3435 -44.688702 -982.83301
-24.870701 -44.676701 -982.14001
-24.417 -44.672699 -981.42798
-23.978901 -44.674301 -980.89099
-23.5261 -44.662899 -980.36902
-23.036501 -44.637402 -979.58698
-22.592899 -44.6096 -979.12799
-22.209101 -44.629299 -978.57397
-21.819099 -44.6292 -978.28802
-21.4081 -44.637001 -977.84302
-20.995199 -44.660099 -977.79797
-20.461201 -44.6674 -977.22803
-19.965099 -44.694199 -976.90503
-19.460199 -44.7281 -976.45203
-18.9561 -44.697498 -976.00702
-18.4743 -44.711601 -975.51599
-17.997801 -44.704498 -975.28003
-17.562099 -44.740101 -974.90503
-17.144899 -44.7052 -974.54199
-16.7244 -44.708302 -974.13702
-16.2981 -44.757301 -974.065
-15.8042 -44.747799 -973.71399
-15.2999 -44.743599 -973.34601
-14.7783 -44.7463 -972.83002
-14.2864 -44.801498 -972.66699
-13.7884 -44.786201 -972.36902
-13.2871 -44.8181 -972.18201
-12.8329 -44.838402 -971.81201
-12.433 -44.840801 -971.70398
-12.0139 -44.841702 -971.43402
-11.5339 -44.854801 -971.10699
-11.0367 -44.870701 -970.83899
-10.5215 -44.876099 -970.53802
-9.9697905 -44.891201 -970.052
-9.5045004 -44.9161 -970.258
-8.9917297 -44.919201 -969.79199
-8.4773998 -44.952099 -969.68799
-8.0264597 -44.974201 -969.96002
-7.5233202 -44.9659 -969.51801
-7.0584102 -44.9702 -969.34601
-6.5749402 -45.028801 -969.19702
-6.0402498 -45.019001 -968.72803
-5.51373 -45.047901 -969.01001
-4.9756799 -45.065701 -968.65601
-4.4524398 -45.111698 -968.57098
-3.92398 -45.130901 -968.38098
-3.39815 -45.159401 -968.24402
-2.91587 -45.176399 -968.10797
-2.4727399 -45.1894 -968.104
-2.0286 -45.251301 -968.11102
-1.51215 -45.234001 -967.79199
-1.0106601 -45.2444 -967.32898
-0.445815 -45.311798 -968.14398
0.13242 -45.305801 -967.18597
0.65798497 -45.319 -967.27399
1.2306499 -45.373299 -967.401
1.77047 -45.370399 -966.65698
2.25859 -45.409901 -967.00098
2.7192199 -45.445202 -967.02502
3.1817601 -45.4757 -967.21301
3.69256 -45.504902 -967.33398
4.2379899 -45.500999 -966.513
4.8175402 -45.558701 -967.09698
5.3692498 -45.584599 -967.03101
5.9418101 -45.589802 -966.479
6.49966 -45.667702 -967.30103
7.06495 -45.6525 -966.396
7.5567999 -45.686699 -966.638
8.0178604 -45.682098 -966.40002
8.5000801 -45.677799 -966.26001
9.0120201 -45.735699 -966.88599
9.6336803 -45.811298 -966.27502
10.2323 -45.855701 -966.91998
10.7729 -45.840199 -966.55298
11.3146 -45.844501 -966.23602
11.8377 -45.899899 -966.23901
12.3764 -45.949699 -966.35101
12.9163 -45.998501 -966.237
13.4078 -45.999599 -966.21899
13.8868 -46.035801 -966.51801
14.4077 -46.073799 -966.33502
15.0002 -46.093201 -966.297
15.6221 -46.1171 -966.58502
16.2542 -46.174801 -966.63202
16.878901 -46.234501 -966.76001
17.496 -46.280399 -967.22198
18.108801 -46.301201 -967.185
18.6602 -46.346199 -967.55103
19.2323 -46.389801 -967.75702
19.816999 -46.428398 -968.12
20.391701 -46.473499 -968.112
21.020201 -46.558998 -968.61798
21.6507 -46.604599 -968.71399
22.292601 -46.652599 -968.91101
22.9547 -46.688202 -968.60699
23.6089 -46.736198 -968.98499
24.269899 -46.767899 -969.33197
24.8461 -46.806599 -969.56799
25.402399 -46.866699 -970.10901
25.979601 -46.948898 -970.68799
26.5865 -46.983398 -970.60498
27.2549 -47.0089 -970.91101
27.934799 -47.075001 -971.297
28.644899 -47.125198 -971.50299
29.3512 -47.162399 -971.71698
30.059999 -47.256199 -972.54498
30.793699 -47.3097 -972.73499
31.4109 -47.356098 -972.77899
31.985901 -47.414398 -973.76398
32.615398 -47.465698 -974.42102
33.308399 -47.514801 -974.62299
34.075298 -47.641201 -975.43799
34.868801 -47.689499 -975.67499
35.653301 -47.7528 -976.31
36.4795 -47.824299 -976.73199
37.2785 -47.937401 -977.90698
38.091301 -48.012199 -978.49701
38.792 -48.112499 -979.83301
39.4832 -48.144501 -979.94202
40.1819 -48.256302 -980.40399
40.979 -48.317299 -981.09003
41.9058 -48.477901 -982.448
42.943001 -48.6119 -983.69598
44.013 -48.754902 -985.06299
45.659698 -48.9389 -988.099
47.179798 -49.2742 -991.68298
-34.375401 -44.542099 -1000.2
-33.7915 -44.446701 -998.31897
-33.453899 -44.406502 -997.11798
-32.7817 -44.330299 -994.56897
-32.363701 -44.2943 -993.34198
-31.952101 -44.263 -992.59601
-31.513 -44.260799 -991.67297
-31.132099 -44.2248 -990.86102
-30.7691 -44.227901 -990.08301
-30.3957 -44.1875 -989.41101
-30.021099 -44.181999 -988.80603
-29.6427 -44.159599 -988.172
-29.2092 -44.165798 -987.65802
-28.7222 -44.1842 -987.16302
-28.2484 -44.156101 -986.39697
-27.7987 -44.124199 -985.659
-27.3678 -44.157799 -985.24902
-26.9217 -44.1091 -984.46198
-26.525801 -44.140999 -984.06897
-26.1574 -44.152 -983.59198
-25.7432 -44.1152 -982.84302
-25.3311 -44.099201 -982.43201
-24.8895 -44.123501 -982.03302
-24.403299 -44.118099 -981.23199
-23.938 -44.096298 -980.71698
-23.4932 -44.099899 -980.06403
-23.0439 -44.065102 -979.19702
-22.652599 -44.048901 -978.58301
-22.255699 -44.089699 -978.14203
-21.8853 -44.078201 -978.03101
-21.4562 -44.0695 -977.32599
-21.0182 -44.103298 -977.00403
-20.499001 -44.084301 -976.685
-19.9771 -44.1096 -976.547
-19.475599 -44.126202 -976.21503
-18.9865 -44.1329 -975.87299
-18.481501 -44.134899 -975.33197
-18.0063 -44.1549 -974.97101
-17.573 -44.157001 -974.75
-17.169001 -44.130001 -974.42499
-16.774401 -44.145 -974.14099
-16.3169 -44.168701 -973.922
-15.8354 -44.191601 -973.60901
-15.3147 -44.203499 -973.23401
-14.8034 -44.203999 -972.73901
-14.2998 -44.199799 -972.46198
-13.8105 -44.2379 -972.23297
-13.3035 -44.249699 -971.88098
-12.8581 -44.287601 -971.72198
-12.4289 -44.273499 -971.39301
-11.9953 -44.261101 -970.93701
-11.559 -44.275398 -970.98602
-11.0541 -44.311798 -970.83197
-10.5065 -44.309399 -970.26801
-10.0113 -44.34 -970.12201
-9.5184603 -44.369701 -970.10699
-8.9910002 -44.376701 -969.44202
-8.4728298 -44.3908 -969.30298
-7.9744501 -44.4202 -969.26898
-7.5104499 -44.443699 -969.37402
-7.0627499 -44.434601 -969.24103
-6.5959802 -44.465099 -969.04797
-6.0692 -44.482399 -968.85199
-5.5258298 -44.509201 -968.612
-4.9866199 -44.5177 -968.479
-4.4618402 -44.554901 -968.21002
-3.9419401 -44.580399 -968.086
-3.41839 -44.608101 -968.08502
-2.9386201 -44.629101 -967.98798
-2.5048699 -44.6493 -967.80402
-2.05351 -44.6814 -967.85999
-1.56901 -44.697899 -967.98602
-1.03929 -44.6903 -967.18201
-0.46453401 -44.673302 -967.138
0.079277404 -44.701302 -967.026
0.61247998 -44.7192 -967.026
1.1432 -44.7295 -966.95599
1.68249 -44.7477 -966.58502
2.1781499 -44.771801 -966.64801
2.6326699 -44.8279 -966.89801
3.12922 -44.8937 -967.01801
3.6480601 -44.934799 -967.17999
4.2224898 -44.9515 -966.45398
4.8032999 -44.999199 -966.84998
5.3652101 -44.992298 -966.38599
5.90516 -45.021599 -966.289
6.48069 -45.085201 -967.04102
7.0473399 -45.077301 -965.96802
7.48207 -45.102798 -966.18597
7.9109302 -45.118599 -965.755
8.3694201 -45.1493 -965.59003
8.8717299 -45.173801 -965.95801
9.4782696 -45.163502 -966.06702
10.1012 -45.2076 -966.34802
10.6543 -45.271999 -966.04901
11.2101 -45.295898 -965.58002
11.772 -45.348999 -965.95898
12.3475 -45.362801 -965.91302
12.8554 -45.409 -966.04199
13.3513 -45.435299 -966.14801
13.8457 -45.4799 -966.36798
14.3821 -45.5145 -966.26703
14.949 -45.517799 -965.87299
15.5867 -45.586102 -966.43701
16.228201 -45.626301 -966.617
16.8339 -45.6451 -966.55103
17.444599 -45.6917 -966.73999
18.040199 -45.738899 -967.146
18.5996 -45.792801 -967.13898
19.107901 -45.827599 -967.065
19.629 -45.832802 -967.10901
20.193399 -45.873402 -967.51898
20.868601 -45.904598 -967.64398
21.564699 -45.965302 -967.99799
22.2565 -46.043701 -968.46503
22.9065 -46.103699 -968.88898
23.568001 -46.178799 -969.08099
24.217899 -46.233299 -969.21198
24.7964 -46.270802 -969.70697
25.368099 -46.3232 -969.81
25.9384 -46.344501 -970.06201
26.5445 -46.361801 -970.04199
27.2026 -46.455799 -970.66199
27.8962 -46.514198 -971.05798
28.5989 -46.572899 -971.56799
29.2992 -46.641102 -971.80103
30.007 -46.7066 -972.46899
30.7225 -46.737701 -972.763
31.3319 -46.767799 -972.724
31.9151 -46.826302 -973.09698
32.552101 -46.8909 -973.64899
33.262402 -46.984402 -974.38397
34.040798 -47.038502 -974.57898
34.778 -47.1064 -975.58801
35.5779 -47.200199 -975.62799
36.365501 -47.254101 -976.54999
37.166401 -47.3759 -977.47998
38.0116 -47.456402 -978.67102
38.7589 -47.4977 -978.96899
39.496101 -47.613201 -979.92603
40.187401 -47.656799 -980.45898
40.9622 -47.754902 -980.77399
41.910801 -47.854198 -982.263
42.931 -48.012402 -984
43.964001 -48.154202 -985.323
46.695499 -48.553902 -990.00201
-32.3666 -43.7379 -992.98102
-31.962099 -43.726501 -992.49597
-31.520901 -43.729698 -991.35901
-31.1429 -43.681499 -990.55798
-30.7743 -43.669998 -990.02802
-30.4041 -43.633701 -989.354
-30.0611 -43.6325 -988.64301
-29.687201 -43.625999 -987.98499
-29.2302 -43.656502 -987.64801
-28.721901 -43.623901 -986.96301
-28.2547 -43.614101 -986.21503
-27.829201 -43.6194 -985.72803
-27.3606 -43.592999 -984.82098
-26.922899 -43.565399 -984.203
-26.533001 -43.556099 -983.62299
-26.148001 -43.596699 -983.11902
-25.756201 -43.584702 -982.63898
-25.3501 -43.574402 -982.18103
-24.8843 -43.563499 -981.70801
-24.4095 -43.572899 -981.04498
-23.9436 -43.568001 -980.565
-23.4991 -43.573502 -980.146
-23.062099 -43.5639 -979.29602
-22.656601 -43.545601 -978.65503
-22.271299 -43.5481 -978.17401
-21.8855 -43.534401 -977.75
-21.4846 -43.532001 -977.27002
-21.0382 -43.514099 -976.72101
-20.558399 -43.530602 -976.508
-20.023701 -43.549198 -976.26202
-19.497801 -43.576801 -975.966
-18.986799 -43.6115 -975.56201
-18.486 -43.6082 -975.26398
-18.0082 -43.6152 -974.83801
-17.5609 -43.605301 -974.39301
-17.187099 -43.632401 -974.44702
-16.7829 -43.612598 -973.99799
-16.3356 -43.620899 -973.62799
-15.8507 -43.650799 -973.39899
-15.3219 -43.655998 -973.04102
-14.8143 -43.672901 -972.56299
-14.3342 -43.6828 -972.50702
-13.8254 -43.6861 -972.11603
-13.328 -43.716999 -971.81097
-12.8744 -43.723 -971.42902
-12.451 -43.716702 -971.28003
-12.0166 -43.7495 -970.99402
-11.5737 -43.749699 -970.73199
-11.0711 -43.773499 -970.43597
-10.5307 -43.790401 -970.25299
-10.0362 -43.796902 -970.00403
-9.5375404 -43.8349 -969.70099
-9.0115995 -43.825199 -969.401
-8.5142899 -43.872398 -969.15698
-7.9710698 -43.881599 -969.20801
-7.5244598 -43.9072 -969.31799
-7.0833802 -43.920399 -969.08002
-6.6024499 -43.935902 -968.67499
-6.0871401 -43.952702 -968.76398
-5.5357299 -43.9636 -968.354
-5.0117698 -43.997299 -968.35602
-4.4553199 -43.980202 -967.64502
-3.9442999 -44.037102 -967.87903
-3.44396 -44.066399 -968.013
-2.9713099 -44.108601 -967.883
-2.5169001 -44.121101 -967.65503
-2.0632901 -44.1101 -967.54602
-1.60374 -44.084599 -967.31201
-1.10313 -44.1129 -966.95398
-0.57322001 -44.1474 -966.45099
-0.055745602 -44.161201 -966.59998
0.50001103 -44.213402 -966.20203
1.04505 -44.2234 -966.09698
1.5523 -44.263802 -966.39697
2.05691 -44.289398 -966.09497
2.5444 -44.278801 -965.90399
3.02718 -44.304798 -966.03601
3.5671201 -44.3573 -966.50098
4.1704402 -44.396801 -966.16699
4.7613001 -44.456799 -966.88098
5.3650799 -44.453899 -966.02899
5.90658 -44.484001 -965.84802
6.4580102 -44.554798 -966.86298
6.9881401 -44.554699 -966.06598
7.4269099 -44.567902 -965.815
7.8502998 -44.5821 -965.54602
8.31464 -44.6147 -965.66498
8.8244696 -44.642502 -965.87402
9.4160995 -44.675999 -965.42102
9.97684 -44.705101 -965.716
10.5668 -44.729599 -965.66302
11.1462 -44.7869 -965.71301
11.7308 -44.812401 -965.896
12.3061 -44.838902 -966.00598
12.8251 -44.876499 -965.98798
13.3182 -44.903198 -965.92297
13.8205 -44.942001 -966.06097
14.355 -44.9897 -966.573
14.9308 -44.9855 -965.95898
15.5318 -45.022701 -966.06299
16.1535 -45.087101 -966.55603
16.7824 -45.1134 -966.26599
17.4 -45.1292 -966.25702
17.989201 -45.169102 -966.81799
18.547701 -45.217201 -966.742
19.0319 -45.2616 -966.79303
19.5494 -45.279099 -966.90302
20.127501 -45.3423 -967.086
20.7633 -45.394199 -967.28998
21.434999 -45.452999 -967.289
22.1094 -45.4855 -967.66901
22.7759 -45.5196 -968.57397
23.5082 -45.576199 -968.83398
24.18 -45.6875 -969.25
24.7785 -45.708199 -969.19598
25.305 -45.735802 -969.48798
25.875799 -45.774101 -969.77899
26.4758 -45.8424 -970.14099
27.146799 -45.907101 -970.44
27.841299 -45.9487 -970.84998
28.564301 -45.9949 -970.789
29.247801 -46.036301 -971.146
29.9527 -46.136398 -971.81598
30.665701 -46.1903 -972.27899
31.253 -46.250801 -972.87201
31.8766 -46.2668 -973.03998
32.497601 -46.342602 -973.41901
33.1632 -46.4048 -973.89502
33.954201 -46.474499 -974.80298
34.6716 -46.559399 -974.91602
35.501202 -46.622601 -975.70599
36.299702 -46.697399 -975.97998
37.097599 -46.750599 -976.94098
37.924099 -46.896301 -978.44501
38.661499 -46.919899 -978.46899
39.3671 -47.049599 -980.31097
40.157501 -47.151402 -980.58099
40.948601 -47.172798 -981.19397
41.865398 -47.291901 -982.34802
42.834202 -47.408501 -983.12097
43.8447 -47.507599 -984.76703
44.842098 -47.621498 -986.19098
46.359001 -47.952301 -991.22601
-32.408199 -43.178902 -993.21698
-31.961599 -43.146 -992.29901
-31.550301 -43.123699 -991.44501
-31.1721 -43.1087 -990.57202
-30.7707 -43.0765 -989.67902
-30.4209 -43.063301 -988.98499
-30.1026 -43.084599 -988.46301
-29.683399 -43.069901 -987.74402
-29.190201 -43.0709 -987.20203
-28.7162 -43.026501 -986.61102
-28.255501 -43.028198 -985.83099
-27.832399 -43.033901 -985.43103
-27.399599 -43.048801 -984.961
-26.9445 -43.041199 -984.09802
-26.538799 -42.999298 -983.54102
-26.173 -43.020901 -983.23499
-25.7857 -43.021 -982.664
-25.3638 -43.022301 -982.11499
-24.884701 -43.033401 -981.47699
-24.413 -42.989799 -980.84601
-23.9531 -43.001301 -980.46997
-23.503401 -43.0401 -979.95898
-23.045601 -43.030998 -979.367
-22.6029 -43.016201 -978.58801
-22.240299 -43.0163 -978.22498
-21.860701 -42.987701 -977.58698
-21.4597 -42.9613 -976.92102
-21.062099 -43.008598 -976.802
-20.574499 -43.011398 -976.18201
-20.068399 -42.9744 -975.74298
-19.5429 -42.971401 -975.48901
-19.0116 -43.027199 -975.22101
-18.5289 -43.026798 -975.26801
-18.0242 -43.0359 -974.69299
-17.6005 -43.056801 -974.42102
-17.192801 -43.087002 -973.98901
-16.7768 -43.084099 -973.69299
-16.3447 -43.095699 -973.47198
-15.8642 -43.102901 -973.27802
-15.328 -43.118698 -972.66602
-14.8467 -43.099998 -972.37903
-14.3408 -43.1474 -972.13202
-13.8328 -43.1395 -971.979
-13.3471 -43.1446 -971.46301
-12.9088 -43.1964 -971.61603
-12.4844 -43.175201 -971.22498
-12.0587 -43.188801 -971.07703
-11.5865 -43.191898 -970.46899
-11.0954 -43.229301 -970.479
-10.5597 -43.2188 -969.95398
-10.056 -43.244999 -969.95502
-9.5448303 -43.280102 -969.59802
-8.9748802 -43.299 -969.00702
-8.44452 -43.300098 -968.755
-7.9703202 -43.334702 -969.03699
-7.54495 -43.343201 -969.14099
-7.1143298 -43.364399 -969.01398
-6.6224899 -43.391899 -968.63501
-6.1012998 -43.391899 -968.47498
-5.5592599 -43.389801 -968.24799
-5.0275402 -43.4268 -968.13898
-4.48946 -43.454201 -967.802
-3.9783599 -43.4958 -967.78302
-3.46241 -43.503101 -967.776
-2.9831901 -43.5401 -967.47101
-2.52123 -43.5186 -967.22699
-2.12135 -43.5275 -967.03998
-1.70933 -43.547298 -966.78998
-1.19769 -43.587399 -966.51202
-0.65432 -43.598999 -966.427
-0.094750702 -43.616501 -966.11902
0.44858301 -43.636799 -966.07202
0.97558302 -43.705601 -966.54401
1.55735 -43.699001 -965.633
2.0278599 -43.729698 -965.72601
2.4911201 -43.750099 -965.95398
2.96526 -43.760899 -965.83099
3.49821 -43.821602 -965.70398
4.1220899 -43.856899 -966.19702
4.7442598 -43.9245 -966.66699
5.3240499 -43.933498 -966.22302
5.8697 -43.925701 -965.65802
6.4272499 -44.003799 -966.729
6.9672699 -43.989399 -965.91199
7.3959899 -43.9893 -965.495
7.80761 -43.999901 -965.466
8.3011303 -44.043999 -965.34698
8.7992201 -44.063301 -965.32501
9.36271 -44.118198 -965.48602
9.9591999 -44.158199 -965.28802
10.5443 -44.185799 -965.383
11.1136 -44.182598 -965.38397
11.7096 -44.2673 -965.95697
12.31 -44.277199 -965.28998
12.819 -44.314999 -965.72198
13.296 -44.328602 -965.86603
13.7868 -44.3689 -965.914
14.3408 -44.4086 -966.09198
14.9105 -44.435699 -965.56598
15.5083 -44.466 -965.90802
16.150801 -44.515099 -965.94702
16.715799 -44.571701 -965.987
17.309799 -44.6049 -966.10699
17.927299 -44.635899 -966.49701
18.4713 -44.647099 -966.50201
18.999201 -44.693901 -966.46698
19.506201 -44.716099 -966.59802
20.0874 -44.7663 -966.659
20.728001 -44.801102 -966.86401
21.360399 -44.861801 -967.02502
22.0121 -44.9249 -967.49402
22.6716 -44.973701 -967.71002
23.363001 -45.0201 -967.91498
24.073999 -45.023602 -968.33002
24.724001 -45.121101 -969.07202
25.271 -45.202099 -969.66998
25.8395 -45.237301 -969.34302
26.432301 -45.293499 -969.91302
27.1061 -45.337799 -970.14502
27.8002 -45.374401 -970.10901
28.5009 -45.409302 -970.466
29.183599 -45.514801 -971.33301
29.900499 -45.5354 -971.354
30.612301 -45.611 -972.10699
31.217699 -45.692299 -972.73798
31.800301 -45.729 -973.05902
32.431499 -45.7785 -973.28302
33.117199 -45.866001 -973.81598
33.9035 -45.892399 -974.37701
34.626099 -45.993198 -975.159
35.446301 -46.0909 -975.83002
36.243999 -46.1161 -975.66901
37.000599 -46.255501 -977.40399
37.829899 -46.292702 -977.979
38.594799 -46.3685 -978.02197
39.3176 -46.446899 -978.979
40.047001 -46.4711 -979.60199
40.856701 -46.617901 -980.29498
41.7589 -46.7211 -981.63098
42.752899 -46.852402 -983.53003
43.7439 -46.941799 -984.32397
44.763 -47.0518 -985.15503
45.828701 -47.202 -985.98999
-32.385502 -42.616501 -992.77301
-31.955999 -42.6045 -991.90997
-31.5797 -42.596199 -991.409
-31.156099 -42.552898 -990.22302
-30.787901 -42.554901 -989.69202
-30.447901 -42.5686 -989.03101
-30.0951 -42.524399 -988.289
-29.6759 -42.5257 -987.62402
-29.179399 -42.494499 -986.99298
-28.7377 -42.499901 -986.54901
-28.2899 -42.507599 -986.005
-27.839899 -42.512299 -985.23602
-27.3797 -42.479698 -984.30603
-26.973101 -42.480099 -983.99402
-26.562099 -42.4842 -983.40503
-26.1574 -42.4743 -982.78302
-25.766001 -42.484402 -982.27698
-25.385099 -42.477798 -982.10303
-24.912001 -42.484901 -981.487
-24.4431 -42.460899 -980.901
-23.961399 -42.451401 -980.17603
-23.495501 -42.464401 -979.64502
-23.039 -42.465099 -979.138
-22.582399 -42.486 -978.77698
-22.186001 -42.473099 -978.29602
-21.800501 -42.4716 -977.70599
-21.4298 -42.444199 -977.13599
-21.025299 -42.4482 -976.60999
-20.563999 -42.439499 -976.07001
-20.083099 -42.463501 -975.67902
-19.587799 -42.444698 -975.17401
-19.068001 -42.450199 -975.12903
-18.5389 -42.510101 -974.96301
-18.0485 -42.510601 -974.521
-17.6287 -42.541901 -974.33398
-17.2029 -42.523701 -974.013
-16.776699 -42.520802 -973.573
-16.3346 -42.525398 -973.10199
-15.8662 -42.562901 -973.08301
-15.3503 -42.561501 -972.64301
-14.8808 -42.580299 -972.46503
-14.3549 -42.595402 -971.87799
-13.8609 -42.599998 -971.80603
-13.3838 -42.621498 -971.672
-12.9016 -42.645302 -970.98401
-12.4929 -42.6688 -971.03101
-12.0556 -42.6586 -970.63
-11.62 -42.648102 -970.61603
-11.0717 -42.6856 -969.98102
-10.5792 -42.714199 -969.92297
-10.0745 -42.713799 -969.67297
-9.5454903 -42.764599 -969.39398
-8.9123096 -42.719101 -968.69702
-8.4275904 -42.740002 -968.64398
-7.9667702 -42.769501 -968.802
-7.55267 -42.790699 -968.823
-7.0946102 -42.827499 -968.69098
-6.6600199 -42.861698 -968.82501
-6.1123199 -42.866001 -968.24902
-5.6005101 -42.908001 -968.35999
-5.0398598 -42.909199 -967.98199
-4.52525 -42.907299 -967.81097
-3.9973199 -42.964901 -967.76801
-3.48628 -42.983299 -967.69397
-2.9888599 -42.9701 -967.289
-2.5940599 -42.967701 -966.83801
-2.2262199 -43.000801 -966.65698
-1.76723 -42.994801 -966.41998
-1.21769 -43.054199 -966.216
-0.67473501 -43.057098 -966.172
-0.121965 -43.075298 -966.03802
0.42232999 -43.085098 -966.00299
0.97339702 -43.162102 -966.33301
1.5200599 -43.153702 -965.45398
2.0025499 -43.192001 -965.62
2.47524 -43.2066 -965.51398
2.9372301 -43.229698 -965.66998
3.44609 -43.252201 -965.65399
4.06708 -43.271301 -965.96503
4.69311 -43.3992 -966.85699
5.29879 -43.3965 -965.90997
5.87218 -43.405602 -965.53302
6.4369998 -43.466499 -966.18402
6.8957701 -43.4561 -965.59302
7.3101802 -43.454498 -965.43597
7.7920399 -43.4716 -965.11499
8.2633696 -43.523201 -965.45099
8.7676096 -43.573299 -965.88898
9.3557901 -43.560001 -964.92499
9.9324198 -43.599499 -965.27301
10.5078 -43.645901 -965.39502
11.1062 -43.683498 -965.34601
11.682 -43.7103 -965.70001
12.2796 -43.704899 -965.08099
12.8127 -43.754799 -965.224
13.2843 -43.790001 -965.34399
13.7762 -43.8237 -965.57202
14.3078 -43.862 -965.99597
14.8846 -43.885799 -965.39398
15.4649 -43.922501 -965.87799
16.0905 -43.9664 -965.85999
16.681 -44.0089 -965.724
17.2903 -44.031601 -965.94702
17.8997 -44.1026 -966.06097
18.437401 -44.112202 -966.36499
18.9664 -44.151001 -966.36902
19.506599 -44.163799 -966.23199
20.064699 -44.195801 -966.39697
20.696699 -44.2705 -966.836
21.334499 -44.324902 -967.04797
22.0012 -44.365002 -967.05902
22.6252 -44.402302 -967.487
23.291901 -44.493801 -967.67798
23.955099 -44.524899 -967.57397
24.5546 -44.5798 -968.35797
25.150499 -44.571602 -968.573
25.7845 -44.624001 -969.354
26.389999 -44.746101 -969.75
27.052799 -44.781502 -970.11798
27.7507 -44.848202 -970.15503
28.4592 -44.875999 -970.35699
29.1343 -44.930199 -970.85999
29.8388 -45.001202 -971.20697
30.5462 -45.0798 -972.323
31.1672 -45.114101 -971.77197
31.762899 -45.176899 -972.85901
32.392399 -45.210701 -973.052
33.100899 -45.286598 -973.47302
33.819 -45.355999 -974.29901
34.566799 -45.423901 -974.89001
35.3382 -45.4748 -975.29901
36.1479 -45.554298 -976.13202
36.9426 -45.677502 -976.90302
37.749001 -45.712799 -976.95001
38.481998 -45.7817 -978.33698
39.2299 -45.885799 -978.65002
39.9646 -45.9701 -979.14001
40.715599 -46.0438 -980.81299
41.695801 -46.1563 -981.14099
42.617599 -46.285599 -982.29498
43.652302 -46.377602 -984.375
44.649799 -46.4851 -984.88
-32.409401 -42.074799 -992.729
-31.9797 -42.054001 -991.935
-31.5996 -42.033298 -991.091
-31.151199 -42.029499 -990.203
-30.7974 -42.006401 -989.51599
-30.4517 -41.981201 -988.69598
-30.1108 -41.980701 -988.21002
-29.6719 -41.986099 -987.72101
-29.198 -41.965 -986.98199
-28.733101 -41.966 -986.24402
-28.273399 -41.949699 -985.59003
-27.842699 -41.924702 -985.01001
-27.3995 -41.9249 -984.26001
-26.9869 -41.922501 -983.86798
-26.5488 -41.9249 -983.11298
-26.165899 -41.9352 -982.66998
-25.779699 -41.9105 -982.20502
-25.385099 -41.917801 -981.77399
-24.921499 -41.945 -981.29797
-24.446301 -41.9184 -980.79199
-23.9678 -41.9063 -980.03497
-23.5151 -41.898399 -979.65698
-23.0499 -41.927799 -979.16998
-22.574699 -41.934799 -978.57098
-22.1646 -41.9175 -978.08002
-21.7733 -41.9352 -977.80701
-21.3804 -41.954899 -977.28198
-20.976299 -41.952202 -976.75201
-20.5245 -41.944401 -976.065
-20.074301 -41.912601 -975.52197
-19.5933 -41.902401 -975.03998
-19.098301 -41.891399 -974.82599
-18.555 -41.975899 -974.66998
-18.0487 -41.938 -974.22601
-17.643299 -41.973598 -974.08099
-17.2201 -41.989101 -973.62701
-16.7852 -41.9837 -973.19098
-16.3762 -41.982601 -973.18402
-15.8536 -42.001202 -972.69397
-15.3744 -42.019402 -972.61102
-14.8609 -42.0476 -972.07202
-14.3949 -42.051701 -971.89001
-13.8619 -42.044201 -971.50299
-13.3753 -42.058601 -971.16998
-12.9041 -42.090599 -970.78101
-12.4935 -42.095299 -970.742
-12.0647 -42.124001 -970.34802
-11.6038 -42.141602 -970.23297
-11.096 -42.141399 -970.026
-10.5772 -42.163898 -969.87201
-10.0537 -42.175598 -969.41602
-9.5383501 -42.1926 -969.271
-8.9741697 -42.1991 -969.492
-8.4604101 -42.2075 -968.95599
-7.9945402 -42.236301 -968.92902
-7.5528898 -42.254501 -968.651
-7.1255798 -42.294498 -968.46301
-6.6627102 -42.314098 -968.33698
-6.1258402 -42.304501 -968.07202
-5.6024499 -42.358398 -967.89899
-5.0577402 -42.387699 -967.73602
-4.51688 -42.397598 -967.28998
-4.0194302 -42.422199 -967.59302
-3.4718599 -42.430302 -967.15503
-3.0550699 -42.413601 -966.94397
-2.69033 -42.458801 -966.66101
-2.2664499 -42.444 -966.315
-1.77525 -42.476398 -965.93799
-1.23747 -42.493301 -966.04303
-0.70146197 -42.526402 -965.966
-0.139184 -42.544899 -966.01202
0.39395899 -42.5784 -965.87799
0.954898 -42.582001 -965.836
1.50738 -42.587002 -965.22601
1.99096 -42.666199 -965.52002
2.4497499 -42.666302 -965.35602
2.9163001 -42.6964 -965.46997
3.4342699 -42.7384 -965.26599
3.9969201 -42.751598 -965.32397
5.2216501 -42.7659 -965.91302
5.8033199 -42.8139 -965.46802
6.3771701 -42.8894 -966.284
6.8488498 -42.893101 -965.20898
7.2802601 -42.9221 -965.42401
7.73984 -42.956902 -965.565
8.2491398 -42.957298 -965.15997
8.7631903 -42.9963 -965.45697
9.3505297 -43.007599 -964.46802
9.9165602 -43.063099 -965.07599
10.4905 -43.1092 -965.04999
11.0861 -43.107899 -964.841
11.6775 -43.1595 -965.09399
12.2492 -43.165901 -965.14203
12.7862 -43.2146 -964.92102
13.2736 -43.249298 -965.12097
13.7449 -43.288898 -965.44897
14.277 -43.313202 -965.703
14.8606 -43.344002 -964.90698
15.4456 -43.3573 -965.14398
16.048901 -43.422199 -965.82898
16.6593 -43.437302 -965.39398
17.2889 -43.488201 -965.89398
17.8766 -43.5173 -965.742
18.4049 -43.576698 -966.21198
18.938499 -43.619499 -966.27802
19.4624 -43.645901 -966.23297
20.024599 -43.692101 -966.55499
20.6665 -43.7155 -966.65302
21.297501 -43.7724 -966.97601
21.969101 -43.798801 -967.15997
22.631701 -43.838799 -967.26501
23.2794 -43.897202 -967.63
23.937099 -43.9874 -967.828
24.5042 -44.0145 -968.008
25.044001 -44.070301 -968.29602
25.6243 -44.117199 -968.81201
26.2658 -44.104099 -968.79303
27.041599 -44.198101 -970.03699
27.742399 -44.295502 -970.28302
28.417101 -44.341702 -970.138
29.0986 -44.3829 -970.55701
29.7605 -44.497501 -971.685
30.5026 -44.4841 -971.64203
31.1229 -44.5597 -971.88397
31.7355 -44.621399 -972.12
32.342098 -44.666199 -972.77802
33.044998 -44.7295 -972.867
33.767799 -44.771 -973.80701
34.514999 -44.8428 -974.22998
35.289902 -44.8634 -974.172
36.0891 -44.976299 -975.52502
36.895199 -45.0742 -976.13
37.646801 -45.190601 -976.90198
38.415298 -45.2076 -977.328
39.108002 -45.264999 -978.362
39.8769 -45.381401 -978.85303
40.5867 -45.490898 -979.62201
41.5355 -45.586201 -980.83099
42.5093 -45.660999 -982.37402
43.4715 -45.823399 -983.19299
44.612999 -45.9067 -984.54199
45.680599 -46.113602 -985.98602
46.9184 -46.262199 -989.461
-35.088902 -41.837299 -1001.47
-32.8918 -41.520599 -993.25098
-32.3983 -41.502701 -992.28101
-31.9694 -41.4911 -991.42401
-31.583 -41.472801 -990.89001
-31.1661 -41.436199 -989.87201
-30.826599 -41.444401 -989.23602
-30.506001 -41.457699 -988.755
-30.112 -41.432598 -988.17798
-29.6539 -41.420399 -987.51599
-29.201099 -41.408798 -986.77802
-28.7325 -41.3745 -985.97601
-28.2728 -41.387299 -985.30402
-27.860201 -41.417301 -984.909
-27.4104 -41.398399 -984.12299
-26.9902 -41.360802 -983.52197
-26.5907 -41.362999 -983.27301
-26.177099 -41.375599 -982.56097
-25.7819 -41.380699 -981.914
-25.367701 -41.384701 -981.45898
-24.910999 -41.350201 -980.89899
-24.4564 -41.3526 -980.57098
-23.978001 -41.350399 -979.77399
-23.538 -41.3685 -979.55298
-23.0644 -41.3839 -979.08301
-22.5984 -41.3778 -978.55499
-22.165001 -41.3484 -977.96899
-21.781601 -41.3857 -977.70398
-21.378599 -41.387199 -977.31897
-20.947901 -41.388199 -976.85699
-20.469801 -41.4006 -976.112
-20.0054 -41.358501 -975.30402
-19.6008 -41.374001 -974.94299
-19.122101 -41.393799 -974.60699
-18.577499 -41.421799 -974.50403
-18.0844 -41.4263 -974.20898
-17.657 -41.422798 -973.948
-17.238001 -41.4226 -973.48602
-16.8118 -41.448898 -973.17499
-16.406099 -41.455502 -973.245
