# .PCD v0.7 - Point Cloud Data file format
VERSION 0.7
FIELDS x y z
SIZE 4 4 4
TYPE F F F
COUNT 1 1 1
WIDTH 1606
HEIGHT 1
VIEWPOINT 0 0 0 1 0 0 0
POINTS 1606
DATA ascii
-36.7061 -39.646801 -1011.99
-36.7052 -39.8237 -1011.45
-36.462399 -40.123901 -1010.93
-36.666599 -40.244202 -1010.33
-36.662498 -40.426899 -1009.77
-36.746899 -40.5937 -1009.19
-36.334202 -40.902302 -1008.69
-36.708698 -40.997601 -1008.05
-36.563202 -41.235802 -1007.5
-36.266399 -41.535198 -1006.98
-36.2178 -41.764999 -1006.4
-35.8381 -42.049198 -1005.87
-36.075298 -42.216499 -1005.21
-35.8503 -42.492001 -1004.67
-35.663898 -42.776299 -1004.09
-35.7472 -42.934399 -1003.49
-35.764198 -43.1418 -1002.87
-35.170502 -43.577499 -1002.27
-35.281898 -43.767502 -1001.61
-34.867802 -44.145699 -1001.03
-34.861099 -44.348801 -1000.38
-34.900799 -44.554798 -999.72101
-34.548901 -44.9119 -999.11102
-34.233799 -45.244301 -998.49103
-33.9781 -45.5909 -997.83301
-33.690601 -45.920502 -997.20398
-33.721401 -46.1595 -996.48297
-33.408901 -46.498299 -995.80798
-32.4977 -47.076099 -995.21899
-32.583801 -47.279202 -994.466
-32.659199 -47.5219 -993.70203
-31.691299 -48.1133 -993.08398
-31.5797 -48.416599 -992.31299
-31.037399 -48.905201 -991.60303
-30.2209 -49.473801 -990.89899
-29.972 -49.864899 -990.10797
-28.993999 -50.492199 -989.39697
-28.703899 -50.8983 -988.51099
-27.8055 -51.516899 -987.73999
-27.446199 -51.9482 -986.84601
-26.1768 -52.778702 -986.05798
-24.687401 -53.628502 -985.22803
-22.094 -55.319401 -983.27698
-21.5399 -56.007198 -981.92102
-20.0898 -56.968201 -980.96301
-2.86798 -38.139599 -1055.38
-3.58319 -37.976002 -1054.98
-4.2938199 -37.777 -1054.61
-5.0538902 -37.605499 -1054.23
-7.1170001 -37.157501 -1053.08
-9.5764799 -36.520401 -1051.9
-10.086 -36.4286 -1051.59
-10.7122 -36.282902 -1051.24
-11.5958 -36.078701 -1050.83
-12.348 -35.9254 -1050.46
-13.0396 -35.7682 -1050.1
-13.679 -35.631302 -1049.73
-15.0913 -35.346699 -1049
-15.5416 -35.263302 -1048.62
-16.0504 -35.220501 -1048.1899
-16.730801 -35.105099 -1047.74
-17.3582 -34.978699 -1047.3101
-17.917801 -34.900002 -1046.91
-18.333099 -34.870701 -1046.54
-18.8146 -34.793701 -1046.15
-19.526699 -34.640598 -1045.6801
-19.950701 -34.601299 -1045.3101
-20.5016 -34.4944 -1044.89
-21.063 -34.409199 -1044.48
-21.538099 -34.380798 -1044.08
-21.8577 -34.3955 -1043.6801
-22.4195 -34.317699 -1043.21
-22.8988 -34.253101 -1042.74
-23.469999 -34.1926 -1042.27
-23.896 -34.1581 -1041.84
-24.043301 -34.2328 -1041.47
-24.6292 -34.158298 -1040.99
-24.8596 -34.1922 -1040.6
-25.2742 -34.166599 -1040.16
-25.6896 -34.1763 -1039.72
-26.066299 -34.1478 -1039.28
-26.4648 -34.152599 -1038.83
-26.868 -34.140999 -1038.36
-27.087601 -34.166401 -1037.95
-27.481899 -34.183102 -1037.5
-27.767 -34.2164 -1037.05
-27.9396 -34.275299 -1036.64
-28.4417 -34.260799 -1036.15
-28.736 -34.2981 -1035.71
-28.886999 -34.369099 -1035.29
-29.5205 -34.2836 -1034.77
-29.5175 -34.409599 -1034.36
-30.117701 -34.351898 -1033.83
-30.577299 -34.326 -1033.35
-30.5497 -34.459599 -1032.95
-30.9377 -34.479599 -1032.54
-31.094299 -34.5504 -1032.11
-31.4282 -34.588902 -1031.5699
-32.030499 -34.536499 -1031.01
-31.6343 -34.841999 -1030.64
-32.438 -34.6992 -1030.0699
-32.044998 -34.982601 -1029.71
-32.567902 -34.937901 -1029.17
-32.780602 -34.992599 -1028.71
-32.8969 -35.121399 -1028.24
-33.479099 -35.062 -1027.7
-33.433201 -35.241402 -1027.27
-33.713902 -35.291698 -1026.78
-33.9412 -35.3461 -1026.3
-33.822601 -35.5406 -1025.88
-34.495998 -35.463001 -1025.3101
-34.038502 -35.7812 -1024.9301
-34.4412 -35.791 -1024.37
-35.078499 -35.732399 -1023.8
-34.705399 -36.0345 -1023.4
-35.193401 -36.009201 -1022.86
-35.3223 -36.097 -1022.41
-35.851101 -36.089401 -1021.91
-35.944599 -36.186798 -1021.47
-36.137402 -36.275902 -1020.99
-36.444801 -36.3106 -1020.45
-36.120701 -36.594799 -1020.03
-36.546001 -36.611099 -1019.45
-36.923199 -36.652901 -1018.89
-36.515598 -36.9748 -1018.48
-36.655899 -37.098598 -1017.93
-36.567101 -37.2607 -1017.42
-36.8633 -37.371399 -1016.87
-36.910702 -37.525799 -1016.33
-36.893299 -37.719799 -1015.81
-36.889599 -37.893902 -1015.28
-37.1884 -37.9907 -1014.7
-36.844799 -38.273998 -1014.19
-36.921299 -38.453201 -1013.54
-36.0975 -38.935001 -1013.1
-36.781399 -38.8894 -1012.45
-36.689098 -39.1021 -1011.94
-36.6092 -39.311001 -1011.38
-36.7458 -39.463501 -1010.8
-36.689999 -39.695999 -1010.26
-36.788898 -39.833599 -1009.68
-36.622299 -40.115101 -1009.14
-36.441002 -40.345001 -1008.6
-36.2906 -40.568199 -1008.03
-36.664101 -40.641899 -1007.4
-36.429901 -40.946999 -1006.85
-36.290699 -41.196201 -1006.3
-36.1642 -41.4025 -1005.72
-36.1506 -41.632702 -1005.13
-35.9669 -41.9128 -1004.59
-35.8904 -42.116501 -1003.97
-36.087502 -42.2775 -1003.36
-36.249802 -42.435699 -1002.71
-35.342499 -42.9618 -1002.18
-35.337101 -43.185398 -1001.53
-35.376499 -43.3964 -1000.9
-35.0667 -43.721901 -1000.31
-34.773701 -44.055801 -999.698
-34.7542 -44.254799 -999.05798
-33.970001 -44.745201 -998.49103
-34.335999 -44.889 -997.72601
-34.0005 -45.206501 -997.09198
-33.919399 -45.5294 -996.39099
-33.460899 -45.926102 -995.75
-33.103699 -46.245899 -995.07599
-32.6838 -46.716801 -994.39899
-31.888201 -47.232101 -993.78998
-31.7145 -47.540901 -993.034
-31.332001 -47.931 -992.31897
-30.9424 -48.3475 -991.59802
-30.312599 -48.816898 -990.88898
-29.9965 -49.244598 -990.065
-29.0585 -49.873901 -989.34601
-28.5623 -50.3423 -988.54102
-27.9786 -50.853298 -987.72198
-27.436001 -51.372601 -986.88
-26.691601 -51.941502 -985.99597
-25.3389 -52.792599 -985.18103
-24.606001 -53.464802 -984.159
-23.516701 -54.251301 -983.06799
-19.985201 -56.393501 -980.74799
-17.7859 -57.753502 -979.659
-2.6442299 -37.696899 -1055.14
-9.4858398 -36.035 -1051.83
-11.0544 -35.646702 -1051.1
-12.5424 -35.306 -1050.35
-13.0724 -35.2393 -1050.03
-13.7751 -35.085602 -1049.64
-14.6093 -34.895699 -1049.22
-15.1453 -34.787201 -1048.91
-15.9022 -34.619301 -1048.48
-16.2766 -34.598499 -1048.0699
-16.765301 -34.534302 -1047.66
-17.441299 -34.396099 -1047.23
-17.970301 -34.312599 -1046.8199
-18.344601 -34.2962 -1046.4399
-18.8636 -34.221802 -1046.04
-19.438999 -34.1479 -1045.63
-20.181601 -33.986 -1045.1899
-20.8972 -33.8335 -1044.76
-21.187099 -33.868599 -1044.4301
-21.658899 -33.812599 -1044.02
-22.0651 -33.780998 -1043.59
-22.395 -33.783798 -1043.15
-22.9611 -33.7178 -1042.65
-23.242901 -33.7439 -1042.23
-23.813499 -33.6688 -1041.77
-24.120001 -33.678101 -1041.36
-24.5236 -33.640499 -1040.9301
-24.883801 -33.650902 -1040.51
-25.2687 -33.646702 -1040.0699
-25.7171 -33.619301 -1039.62
-26.270399 -33.565399 -1039.13
-26.584999 -33.592602 -1038.71
-26.9238 -33.603802 -1038.26
-27.125099 -33.667198 -1037.85
-27.5331 -33.624599 -1037.39
-27.851601 -33.658501 -1036.96
-28.117201 -33.6978 -1036.53
-28.554701 -33.7024 -1036.05
-28.917999 -33.676399 -1035.58
-28.900101 -33.859501 -1035.2
-29.7855 -33.678001 -1034.62
-29.611799 -33.8755 -1034.25
-29.9993 -33.8657 -1033.77
-30.6731 -33.759102 -1033.24
-30.558701 -33.9319 -1032.87
-31.0394 -33.9049 -1032.4301
-30.932301 -34.079498 -1032.05
-31.285299 -34.1255 -1031.5
-31.9056 -34.062599 -1030.9399
-31.5541 -34.332298 -1030.5699
-32.349201 -34.197201 -1030
-32.1646 -34.408401 -1029.61
-32.6357 -34.393799 -1029.09
-33.0625 -34.376701 -1028.59
-33.2192 -34.4454 -1028.14
-33.132599 -34.624001 -1027.74
-33.617298 -34.619701 -1027.22
-33.546799 -34.788101 -1026.77
-34.154499 -34.749901 -1026.23
-34.264702 -34.849098 -1025.77
-34.324699 -34.962898 -1025.3101
-34.684299 -35.002102 -1024.78
-34.500599 -35.205399 -1024.3199
-35.057999 -35.2206 -1023.75
-34.968498 -35.394699 -1023.29
-35.298901 -35.447102 -1022.82
-35.446602 -35.521198 -1022.4
-35.877602 -35.530899 -1021.89
-36.1511 -35.570702 -1021.39
-35.919399 -35.818401 -1020.97
-36.267101 -35.862598 -1020.42
-36.3634 -36.007999 -1019.91
-36.384899 -36.1422 -1019.43
-36.8083 -36.160599 -1018.85
-36.394699 -36.497601 -1018.42
-37.169899 -36.399899 -1017.75
-36.865101 -36.678902 -1017.31
-36.888 -36.836201 -1016.78
-36.909698 -37.0112 -1016.25
-36.7845 -37.2286 -1015.76
-37.124599 -37.247398 -1015.19
-37.122501 -37.458698 -1014.66
-37.233898 -37.598701 -1014.06
-37.1791 -37.837799 -1013.47
-36.650299 -38.2332 -1012.94
-37.154301 -38.2327 -1012.32
-36.865101 -38.518002 -1011.82
-36.583599 -38.807301 -1011.33
-36.7379 -38.9562 -1010.73
-36.6152 -39.1754 -1010.21
-36.772701 -39.313599 -1009.63
-36.701 -39.519001 -1009.06
-36.8148 -39.6716 -1008.45
-36.459999 -40.0014 -1007.94
-36.604198 -40.139 -1007.34
-36.4366 -40.407398 -1006.79
-36.287701 -40.664299 -1006.23
-36.226398 -40.854698 -1005.64
-36.266499 -41.074799 -1005.06
-36.1731 -41.304699 -1004.47
-35.969501 -41.576302 -1003.9
-36.2957 -41.6693 -1003.25
-36.336102 -41.873901 -1002.67
-35.5308 -42.367401 -1002.11
-35.700401 -42.524101 -1001.4
-35.3153 -42.888901 -1000.85
-34.871498 -43.256302 -1000.28
-34.788399 -43.507702 -999.64001
-34.565899 -43.7757 -999.052
-34.532101 -43.994202 -998.37201
-34.111 -44.399399 -997.72803
-33.8027 -44.758499 -997.09497
-33.6693 -45.067699 -996.38599
-33.355202 -45.421101 -995.72803
-32.879501 -45.803902 -995.07397
-32.865398 -46.067299 -994.349
-32.417198 -46.4842 -993.685
-31.900499 -46.948898 -992.995
-31.488001 -47.307098 -992.28198
-31.2528 -47.685902 -991.53998
-30.649599 -48.145302 -990.784
-29.9774 -48.676899 -990.08398
-29.417101 -49.195801 -989.28998
-29.1481 -49.5998 -988.435
-28.500999 -50.123001 -987.63898
-27.325199 -50.7981 -986.91199
-27.2197 -51.205601 -985.948
-25.630899 -52.1082 -985.14801
-23.951 -53.0923 -984.258
-23.622801 -53.574001 -983.15002
-22.000299 -54.588699 -982.08002
-17.3533 -57.3489 -979.53003
-1.91168 -37.473301 -1055.01
-9.4754601 -35.499298 -1051.77
-10.9911 -35.1091 -1051.04
-11.6208 -34.968399 -1050.7
-12.3148 -34.8218 -1050.33
-13.2549 -34.621498 -1049.9
-14.1038 -34.432598 -1049.48
-14.5883 -34.3354 -1049.14
-15.067 -34.251801 -1048.83
-15.8912 -34.050598 -1048.4
-16.446301 -33.984402 -1047.96
-16.9734 -33.903999 -1047.54
-17.4338 -33.8596 -1047.13
-17.888901 -33.799301 -1046.75
-18.447599 -33.7131 -1046.34
-19.156601 -33.5802 -1045.9
-19.651899 -33.5149 -1045.51
-20.214701 -33.427299 -1045.1
-20.902901 -33.292801 -1044.6801
-21.2684 -33.2672 -1044.33
-21.780001 -33.202499 -1043.92
-22.236 -33.1707 -1043.48
-22.3762 -33.236301 -1043.0601
-22.9149 -33.190102 -1042.55
-23.381901 -33.146099 -1042.11
-23.7966 -33.094898 -1041.6801
-24.143101 -33.129398 -1041.27
-24.6049 -33.0853 -1040.83
-25.0541 -33.048401 -1040.38
-25.351299 -33.088001 -1039.96
-25.452101 -33.161999 -1039.59
-26.122801 -33.062801 -1039.08
-26.597401 -33.0331 -1038.62
-26.910299 -33.0504 -1038.1801
-27.068701 -33.137199 -1037.78
-27.534401 -33.0961 -1037.3
-28.004299 -33.079399 -1036.84
-28.358 -33.092999 -1036.4
-28.396299 -33.182598 -1035.98
-28.9531 -33.155602 -1035.48
-28.914 -33.2854 -1035.09
-29.5837 -33.192699 -1034.5601
-29.466101 -33.3857 -1034.1801
-30.043501 -33.321201 -1033.66
-30.514799 -33.290798 -1033.1801
-30.6642 -33.354401 -1032.77
-31.127399 -33.344898 -1032.34
-31.031099 -33.519001 -1031.92
-31.390699 -33.5368 -1031.38
-31.893999 -33.522499 -1030.85
-31.5107 -33.798199 -1030.48
-32.465 -33.608601 -1029.88
-32.1087 -33.880798 -1029.53
-32.459999 -33.8829 -1029.0601
-33.002701 -33.846802 -1028.5699
-33.366001 -33.843399 -1028.11
-33.743301 -33.882599 -1027.62
-33.842098 -33.988899 -1027.17
-34.118801 -34.0443 -1026.67
-34.1507 -34.2001 -1026.23
-34.425598 -34.227402 -1025.76
-34.8354 -34.256302 -1025.23
-34.831402 -34.4049 -1024.78
-34.875401 -34.567501 -1024.28
-35.002201 -34.6436 -1023.76
-35.272202 -34.744301 -1023.25
-35.758999 -34.753799 -1022.74
-35.663101 -34.8922 -1022.35
-35.924 -34.9678 -1021.84
-36.3969 -34.9403 -1021.3
-36.009899 -35.246601 -1020.88
-36.356602 -35.302101 -1020.33
-36.004601 -35.596401 -1019.88
-36.570099 -35.549 -1019.29
-36.835899 -35.6185 -1018.76
-36.314999 -35.9758 -1018.32
-36.9744 -35.916801 -1017.7
-36.780899 -36.173 -1017.24
-36.885101 -36.301701 -1016.7
-36.983299 -36.4188 -1016.17
-36.8489 -36.634399 -1015.7
-37.122299 -36.729401 -1015.13
-37.045502 -36.9119 -1014.61
-37.4659 -36.9585 -1013.97
-36.9394 -37.396599 -1013.46
-36.355499 -37.799 -1012.94
-37.132 -37.709499 -1012.23
-36.709499 -38.019699 -1011.76
-36.683399 -38.2356 -1011.21
-36.6777 -38.414299 -1010.68
-36.948101 -38.516102 -1010.08
-36.988602 -38.6782 -1009.53
-36.618301 -38.990002 -1009.03
-36.592999 -39.2229 -1008.44
-36.408901 -39.462399 -1007.89
-36.591499 -39.597698 -1007.27
-36.1096 -39.972301 -1006.79
-36.484001 -40.030102 -1006.13
-36.480099 -40.246399 -1005.54
-36.4128 -40.438801 -1004.96
-35.990501 -40.806 -1004.43
-35.988499 -41.019798 -1003.83
-35.933998 -41.271 -1003.25
-35.954102 -41.448399 -1002.65
-35.5182 -41.8162 -1002.06
-35.5452 -42.035801 -1001.38
-35.2966 -42.332901 -1000.78
-34.983898 -42.651299 -1000.21
-34.952 -42.8867 -999.552
-34.8521 -43.134998 -998.922
-34.708401 -43.404999 -998.30499
-34.279099 -43.7887 -997.64203
-33.791901 -44.194199 -997.01801
-33.674599 -44.499599 -996.34802
-33.268101 -44.882 -995.685
-33.244499 -45.1166 -994.96198
-33.088902 -45.430801 -994.25897
-31.944099 -46.091099 -993.71198
-31.672501 -46.4035 -992.99597
-31.6136 -46.681702 -992.26398
-30.592501 -47.6091 -990.79102
-29.9445 -48.102798 -990.03198
-29.681101 -48.494202 -989.21802
-28.945499 -49.065601 -988.48901
-28.4993 -49.500198 -987.63397
-27.628201 -50.144402 -986.854
-27.0924 -50.6656 -986.034
-25.6583 -51.508499 -985.21399
-24.999599 -52.134201 -984.22198
-23.3326 -53.033798 -983.30499
-22.7908 -53.763901 -982.06897
-19.430401 -55.369701 -981.09698
-18.367901 -56.374199 -979.37
-16.709499 -57.574699 -977.82098
-11.7646 -34.375702 -1050.6
-12.5403 -34.201801 -1050.21
-13.3922 -34.005901 -1049.79
-13.9389 -33.906799 -1049.42
-14.648 -33.716301 -1049.03
-15.1459 -33.612598 -1048.71
-15.808 -33.492199 -1048.3199
-16.370199 -33.4142 -1047.88
-16.9856 -33.310398 -1047.4399
-17.630899 -33.210201 -1047
-18.0261 -33.179401 -1046.62
-18.590599 -33.086601 -1046.22
-19.150801 -32.998501 -1045.8101
-19.6385 -32.9319 -1045.4301
-20.2187 -32.851799 -1045.02
-20.8314 -32.729599 -1044.6
-21.491501 -32.617401 -1044.1801
-21.872299 -32.623199 -1043.79
-22.2792 -32.570801 -1043.35
-22.406601 -32.645401 -1042.9399
-23.0497 -32.544498 -1042.4301
-23.3472 -32.588799 -1042.03
-23.757099 -32.571098 -1041.6
-24.1653 -32.5355 -1041.16
-24.6014 -32.539398 -1040.74
-24.941799 -32.516499 -1040.3101
-25.4221 -32.473099 -1039.85
-25.7174 -32.508099 -1039.4301
-26.1826 -32.4758 -1038.97
-26.502001 -32.4823 -1038.54
-26.895599 -32.513699 -1038.09
-27.142599 -32.542198 -1037.66
-27.560801 -32.516899 -1037.1899
-28.201099 -32.432899 -1036.7
-28.181499 -32.565102 -1036.3101
-28.4802 -32.601002 -1035.87
-28.865999 -32.604401 -1035.39
-29.1579 -32.632 -1034.9301
-29.5958 -32.618698 -1034.47
-29.8281 -32.684601 -1034
-30.2342 -32.692001 -1033.52
-30.5945 -32.704899 -1033.0699
-30.7127 -32.766701 -1032.67
-31.1558 -32.746601 -1032.23
-30.8734 -32.985298 -1031.85
-31.638201 -32.8867 -1031.22
-31.754999 -32.975498 -1030.78
-31.615101 -33.190601 -1030.37
-32.356602 -33.083 -1029.83
-32.388699 -33.206902 -1029.39
-32.8013 -33.193001 -1028.9301
-33.215801 -33.1786 -1028.5
-33.399799 -33.285099 -1028.0601
-33.902802 -33.2332 -1027.55
-34.0116 -33.324902 -1027.09
-34.181198 -33.430199 -1026.63
-34.610699 -33.438702 -1026.11
-34.330399 -33.691002 -1025.72
-35.0355 -33.596001 -1025.15
-34.732498 -33.835999 -1024.75
-35.3619 -33.816799 -1024.17
-35.1838 -34.003399 -1023.74
-35.516102 -34.067402 -1023.22
-35.973 -34.071201 -1022.68
-35.697601 -34.301998 -1022.28
-36.022499 -34.3755 -1021.74
-36.324902 -34.398701 -1021.22
-36.103901 -34.655499 -1020.77
-36.4981 -34.670502 -1020.22
-36.2799 -34.893501 -1019.73
-36.579899 -34.976799 -1019.2
-36.980801 -35.02 -1018.62
-36.2169 -35.443001 -1018.23
-36.9473 -35.339298 -1017.6
-36.915699 -35.541599 -1017.1
-36.934299 -35.694599 -1016.6
-37.0135 -35.846699 -1016.09
-36.931499 -36.0289 -1015.61
-37.117699 -36.1586 -1015.05
-37.435799 -36.247101 -1014.46
-37.179001 -36.540298 -1013.92
-36.941898 -36.842999 -1013.35
-36.555199 -37.159599 -1012.78
-37.0695 -37.146198 -1012.14
-36.745098 -37.443401 -1011.66
-36.6945 -37.632301 -1011.15
-36.8568 -37.756599 -1010.59
-37.208302 -37.815701 -1010.05
-36.852699 -38.130798 -1009.56
-37.107399 -38.253399 -1008.93
-36.462799 -38.6689 -1008.39
-36.5154 -38.863701 -1007.8
-36.633099 -39.010399 -1007.19
-36.571499 -39.217701 -1006.62
-36.5583 -39.424198 -1006.05
-36.401901 -39.6819 -1005.48
-36.276199 -39.925201 -1004.91
-36.431801 -40.040901 -1004.28
-36.113998 -40.382401 -1003.72
-35.839401 -40.669102 -1003.21
-36.1721 -40.754299 -1002.53
-35.7034 -41.1731 -1001.96
-35.4062 -41.483101 -1001.33
-35.549702 -41.650799 -1000.68
-35.226101 -41.9496 -1000.1
-35.0397 -42.265999 -999.479
-34.953999 -42.523201 -998.83698
-34.828701 -42.767502 -998.21503
-34.3951 -43.18 -997.55103
-33.9328 -43.573898 -996.95001
-34.122299 -43.749802 -996.20599
-33.397202 -44.223202 -995.61499
-33.3283 -44.499901 -994.90198
-33.392101 -44.741299 -994.16803
-32.9179 -45.1488 -993.53101
-32.0951 -45.678398 -992.92902
-32.324501 -45.786098 -992.23199
-31.607401 -46.3004 -991.60901
-31.209801 -46.737 -990.763
-29.9224 -47.453499 -990.11902
-29.533701 -47.905602 -989.28003
-29.0082 -48.397202 -988.43903
-29.0091 -48.690399 -987.57202
-27.379299 -49.584702 -986.92102
-27.148399 -50.008499 -986.00598
-26.098101 -50.696701 -985.15802
-24.7418 -51.5364 -984.33801
-24.754999 -51.900101 -983.16699
-22.7015 -53.073399 -982.258
-21.326799 -54.031898 -980.97302
-11.832 -33.721298 -1050.49
-12.6237 -33.559502 -1050.09
-13.3799 -33.4011 -1049.6899
-14.0453 -33.259602 -1049.29
-14.7054 -33.1105 -1048.91
-15.2692 -33.008099 -1048.59
-15.7759 -32.9226 -1048.25
-16.426901 -32.814499 -1047.79
-17.129801 -32.699699 -1047.3101
-17.673201 -32.641201 -1046.91
-17.985201 -32.624298 -1046.55
-18.541 -32.503799 -1046.13
-19.3239 -32.364101 -1045.6801
-19.6763 -32.351501 -1045.3199
-20.2467 -32.2757 -1044.92
-20.631901 -32.251701 -1044.53
-21.191299 -32.166401 -1044.11
-21.723101 -32.1021 -1043.66
-22.1075 -32.0737 -1043.24
-22.542601 -32.062401 -1042.8
-23.0392 -32.015499 -1042.35
-23.444 -31.9825 -1041.91
-23.741899 -31.9946 -1041.5
-24.230101 -31.9608 -1041.0601
-24.651199 -31.947901 -1040.62
-24.8939 -31.9702 -1040.21
-25.486 -31.905899 -1039.74
-25.743 -31.925501 -1039.33
-26.187 -31.906 -1038.87
-26.6257 -31.8867 -1038.41
-26.934799 -31.910999 -1037.98
-27.2694 -31.914801 -1037.52
-27.644699 -31.924601 -1037.0699
-28.1866 -31.8878 -1036.59
-28.120199 -32.023201 -1036.21
-28.5037 -32.034901 -1035.75
-28.820101 -32.0452 -1035.3
-28.9554 -32.152699 -1034.88
-29.550501 -32.080502 -1034.38
-29.667101 -32.160599 -1033.9301
-30.1238 -32.159 -1033.4399
-30.6257 -32.121201 -1032.95
-30.7358 -32.207901 -1032.5699
-31.124599 -32.206799 -1032.14
-30.857 -32.4324 -1031.75
-31.5734 -32.362301 -1031.14
-32.0448 -32.333 -1030.63
-31.872499 -32.5429 -1030.21
-32.3116 -32.535 -1029.76
-32.510201 -32.584599 -1029.3101
-32.938499 -32.5905 -1028.86
-33.1619 -32.6255 -1028.4301
-33.239201 -32.759201 -1028.01
-33.955898 -32.6549 -1027.46
-33.9081 -32.799999 -1027.02
-34.161701 -32.8713 -1026.5601
-34.736599 -32.8092 -1026.03
-34.318802 -33.1064 -1025.65
-35.117802 -32.984299 -1025.0699
-34.5793 -33.348099 -1024.6899
-35.267799 -33.2551 -1024.12
-35.6315 -33.282902 -1023.59
-35.513199 -33.478901 -1023.14
-36.009602 -33.466 -1022.6
-35.440601 -33.8377 -1022.23
-35.776001 -33.855301 -1021.7
-36.5126 -33.761902 -1021.09
-35.850498 -34.189499 -1020.71
-36.5089 -34.116001 -1020.13
-36.352001 -34.3302 -1019.62
-36.4161 -34.4673 -1019.1
-37.024799 -34.432999 -1018.48
-36.347401 -34.857498 -1018.1
-37.295898 -34.676399 -1017.46
-36.849998 -35 -1017.05
-37.0522 -35.091301 -1016.51
-37.237598 -35.205799 -1015.99
-36.967999 -35.4632 -1015.52
-37.165798 -35.5783 -1014.92
-36.901402 -35.8769 -1014.4
-36.705299 -36.161999 -1013.85
-36.9202 -36.288502 -1013.21
-36.6838 -36.539299 -1012.68
-37.047001 -36.5993 -1012.08
-36.867298 -36.8013 -1011.61
-36.952 -36.969501 -1011.09
-37.234699 -37.0495 -1010.54
-37.209599 -37.238098 -1010.02
-37.366001 -37.3722 -1009.43
-36.9772 -37.715199 -1008.91
-36.640999 -38.047401 -1008.31
-36.786598 -38.204201 -1007.67
-36.562302 -38.440899 -1007.13
-36.605701 -38.639702 -1006.53
-36.185101 -38.977299 -1006.04
-36.408199 -39.103699 -1005.39
-36.536301 -39.251301 -1004.78
-36.467201 -39.508801 -1004.21
-35.981701 -39.856201 -1003.7
-36.123699 -40.0056 -1003.05
-36.060101 -40.2234 -1002.48
-35.507099 -40.630199 -1001.92
-35.756401 -40.797901 -1001.21
-35.382301 -41.119202 -1000.64
-35.374599 -41.346401 -999.99799
-35.050301 -41.707001 -999.40002
-34.891399 -41.942699 -998.76703
-34.969799 -42.150002 -998.13202
-34.2388 -42.6129 -997.55798
-34.4207 -42.841999 -996.823
-33.8036 -43.274899 -996.20898
-33.1404 -43.732601 -995.617
-33.367599 -43.927601 -994.87598
-32.562901 -44.4328 -994.26898
-32.391399 -44.720901 -993.58698
-32.451698 -44.925098 -992.92102
-32.650398 -45.0312 -992.29199
-32.311001 -45.459801 -991.53198
-31.202801 -46.155899 -990.84998
-31.205601 -46.433899 -990.03101
-29.7033 -47.222 -989.41699
-29.6791 -47.548698 -988.44598
-28.4592 -48.236 -987.74402
-28.0728 -48.7369 -986.784
-27.3144 -49.312801 -986.01001
-27.3125 -49.638599 -985.01001
-25.8489 -50.525299 -984.25598
-22.4659 -52.5098 -982.38501
-21.664301 -53.211601 -981.06897
-12.7426 -32.919601 -1049.97
-13.3683 -32.778599 -1049.59
-13.9574 -32.695599 -1049.22
-14.7941 -32.511799 -1048.79
-15.6267 -32.2798 -1048.39
-16.0881 -32.1749 -1048.0699
-16.566999 -32.125801 -1047.6899
-17.2463 -32.048 -1047.2
-17.8053 -31.9613 -1046.78
-18.174999 -31.930599 -1046.39
-18.6094 -31.9037 -1046.02
-19.104099 -31.836901 -1045.64
-19.7775 -31.7288 -1045.1899
-20.3395 -31.6378 -1044.77
-20.622999 -31.632999 -1044.4
-21.177999 -31.559999 -1043.95
-21.7251 -31.498899 -1043.51
-22.136499 -31.472 -1043.1
-22.621799 -31.417801 -1042.67
-22.9058 -31.4366 -1042.26
-23.3964 -31.408899 -1041.8101
-23.855801 -31.3678 -1041.37
-24.344101 -31.328501 -1040.9301
-24.6537 -31.330601 -1040.51
-24.941 -31.334101 -1040.1
-25.3806 -31.337999 -1039.65
-25.9109 -31.292999 -1039.1899
-26.326401 -31.250999 -1038.74
-26.5389 -31.328699 -1038.33
-26.7421 -31.390301 -1037.92
-27.2335 -31.3577 -1037.45
-27.4266 -31.4041 -1037.01
-27.990999 -31.347401 -1036.52
-28.1632 -31.3925 -1036.1
-28.611099 -31.384399 -1035.62
-28.981501 -31.405899 -1035.15
-28.9998 -31.5277 -1034.76
-29.655701 -31.4589 -1034.25
-29.609301 -31.5917 -1033.84
-29.931801 -31.616699 -1033.38
-30.535801 -31.540001 -1032.85
-30.901199 -31.575399 -1032.4301
-31.2374 -31.6066 -1032.02
-31.2684 -31.7005 -1031.5601
-31.4263 -31.804399 -1031.0699
-32.011902 -31.741699 -1030.53
-31.603001 -32.042801 -1030.1801
-32.581299 -31.840599 -1029.59
-32.806801 -31.922501 -1029.1801
-33.048801 -31.948 -1028.76
-33.231998 -32.006599 -1028.33
-33.3409 -32.124802 -1027.9
-33.921501 -32.053501 -1027.37
-33.551601 -32.330002 -1027.01
-34.223202 -32.248699 -1026.45
-34.641399 -32.233002 -1025.95
-34.3578 -32.495399 -1025.55
-35.129299 -32.3759 -1024.96
-34.494598 -32.774101 -1024.61
-35.256802 -32.6637 -1024.01
-35.949299 -32.569302 -1023.43
-35.2659 -32.966099 -1023.08
-35.9841 -32.874298 -1022.49
-35.687 -33.127899 -1022.06
-35.754799 -33.278099 -1021.58
-36.290401 -33.2407 -1021
-35.712601 -33.605301 -1020.6
-36.913601 -33.363701 -1019.91
-36.366798 -33.734299 -1019.5
-36.500702 -33.840099 -1018.97
-37.117401 -33.8022 -1018.36
-36.4203 -34.2388 -1017.99
-36.9977 -34.165401 -1017.42
-36.444302 -34.5233 -1017.02
-37.005501 -34.511501 -1016.42
-37.450401 -34.537399 -1015.85
-36.925098 -34.877102 -1015.39
-37.077301 -35.023499 -1014.8
-36.647499 -35.375198 -1014.28
-37.093498 -35.435501 -1013.63
-37.2313 -35.543098 -1013.04
-36.980801 -35.837898 -1012.56
-37.095798 -35.936298 -1012.05
-37.313499 -36.040699 -1011.55
-37.4161 -36.191799 -1011.03
-37.435501 -36.388199 -1010.49
-37.0443 -36.674999 -1009.99
-37.069599 -36.835201 -1009.42
-37.2883 -36.990398 -1008.8
-36.6105 -37.407799 -1008.26
-36.801601 -37.583401 -1007.58
-36.849701 -37.7691 -1006.99
-36.4575 -38.092499 -1006.48
-36.642399 -38.227501 -1005.88
-36.478901 -38.4856 -1005.32
-36.375999 -38.7141 -1004.73
-36.070202 -39.022999 -1004.2
-36.167 -39.192501 -1003.56
-36.000301 -39.4482 -1003.02
-36.3806 -39.5233 -1002.34
-35.714199 -39.974499 -1001.84
-35.547001 -40.234001 -1001.17
-35.355499 -40.5368 -1000.58
-35.333199 -40.758598 -999.94702
-34.984699 -41.093102 -999.32898
-34.897598 -41.323898 -998.70203
-34.815899 -41.5574 -998.07098
-34.4589 -41.9319 -997.47601
-34.060101 -42.298302 -996.81
-34.248699 -42.493401 -996.06799
-33.668999 -42.943901 -995.453
-33.446899 -43.245499 -994.789
-32.724899 -43.737099 -994.16998
-32.5583 -43.997601 -993.58099
-32.8559 -44.1064 -992.914
-33.031601 -44.217999 -992.22601
-31.3085 -45.1381 -991.64697
-31.558001 -45.335201 -990.78497
-30.945601 -45.8508 -990.04602
-30.760099 -46.213699 -989.27002
-29.880699 -46.810699 -988.56403
-28.988899 -47.386398 -987.80499
-28.128901 -48.002899 -986.98102
-26.864599 -48.8027 -986.078
-26.775499 -49.208698 -985.07703
-25.5502 -50.0159 -984.30798
-23.799 -51.3381 -982.22699
-22.4538 -52.252499 -981.15198
-19.621901 -53.817799 -980.03003
-11.9498 -32.499599 -1050.26
-12.586 -32.3466 -1049.89
-13.2199 -32.230701 -1049.52
-13.98 -32.067402 -1049.12
-14.7731 -31.886 -1048.7
-16.120501 -31.577299 -1047.96
-16.5182 -31.547701 -1047.62
-17.0518 -31.489901 -1047.16
-17.595301 -31.425501 -1046.73
-18.2463 -31.3349 -1046.29
-18.702101 -31.250401 -1045.9
-19.132799 -31.197399 -1045.51
-19.739901 -31.118299 -1045.0699
-20.2202 -31.0632 -1044.67
-20.7117 -31.010401 -1044.25
-21.1933 -30.944099 -1043.83
-21.6957 -30.891399 -1043.39
-22.186501 -30.843399 -1042.96
-22.5634 -30.8363 -1042.5699
-23.0413 -30.812401 -1042.14
-23.350401 -30.816601 -1041.73
-23.894501 -30.7586 -1041.27
-24.2964 -30.730101 -1040.84
-24.6434 -30.7201 -1040.4301
-24.9116 -30.7738 -1040.01
-25.450701 -30.693701 -1039.54
-25.806999 -30.6854 -1039.11
-26.0786 -30.731701 -1038.6899
-26.3139 -30.7885 -1038.27
-26.687901 -30.775101 -1037.8101
-27.368799 -30.6959 -1037.3
-27.3347 -30.8531 -1036.92
-28.0476 -30.738701 -1036.41
-28.2607 -30.7906 -1035.98
-28.6406 -30.7792 -1035.5
-29.0159 -30.797899 -1035.04
-28.953199 -30.946501 -1034.66
-29.604099 -30.8757 -1034.14
-29.820299 -30.936399 -1033.6801
-30.2097 -30.952499 -1033.21
-30.5569 -30.956499 -1032.76
-30.975901 -30.933701 -1032.3101
-31.048401 -31.0149 -1031.9399
-31.2138 -31.1292 -1031.46
-31.479 -31.1838 -1030.95
-31.758301 -31.240101 -1030.48
-31.563499 -31.4422 -1030.08
-32.517601 -31.2773 -1029.51
-32.790901 -31.291401 -1029.0699
-33.015499 -31.3351 -1028.67
-33.479301 -31.3235 -1028.1899
-33.7281 -31.398701 -1027.73
-34.0327 -31.4186 -1027.26
-33.896999 -31.6141 -1026.84
-34.2024 -31.6304 -1026.34
-34.623699 -31.667299 -1025.84
-34.3339 -31.9105 -1025.4399
-35.140099 -31.782499 -1024.86
-34.417198 -32.185501 -1024.52
-35.2108 -32.087399 -1023.9
-35.7384 -32.056 -1023.35
-35.369499 -32.330799 -1022.94
-35.998199 -32.277 -1022.38
-35.301899 -32.6978 -1022
-35.805401 -32.658699 -1021.44
-36.3381 -32.640701 -1020.87
-35.806499 -32.991501 -1020.47
-36.619999 -32.881401 -1019.86
-36.172901 -33.202801 -1019.42
-36.5121 -33.245201 -1018.85
-36.990501 -33.250301 -1018.29
-36.420502 -33.604801 -1017.87
-37.2435 -33.5033 -1017.27
-36.524601 -33.915199 -1016.89
-37.188099 -33.848999 -1016.27
-37.2374 -34.014599 -1015.77
-36.831799 -34.312 -1015.29
-36.924999 -34.4589 -1014.73
-36.6343 -34.757099 -1014.23
-36.7747 -34.877399 -1013.62
-37.040798 -34.9813 -1013.06
-37.4198 -35.025799 -1012.51
-37.4062 -35.203602 -1012.05
-37.1595 -35.464802 -1011.58
-37.2449 -35.594299 -1011.01
-37.3484 -35.7705 -1010.42
-37.267899 -35.991402 -1009.89
-37.155602 -36.224201 -1009.34
-37.404301 -36.3232 -1008.72
-37.416599 -36.5406 -1008.06
-36.855499 -36.929001 -1007.49
-36.832802 -37.1558 -1006.9
-36.528301 -37.468498 -1006.38
-36.507999 -37.6493 -1005.8
-36.639599 -37.811199 -1005.2
-36.3577 -38.083801 -1004.66
-36.104698 -38.3927 -1004.11
-36.4048 -38.4911 -1003.44
-36.2444 -38.7896 -1002.88
-36.009399 -39.050301 -1002.33
-36.195702 -39.167099 -1001.65
-35.674999 -39.575699 -1001.09
-35.731602 -39.769199 -1000.43
-35.4603 -40.073399 -999.84998
-35.3312 -40.3433 -999.20697
-34.7332 -40.790298 -998.66199
-34.8414 -40.9758 -997.97803
-35.1194 -41.099602 -997.28699
-34.094101 -41.633801 -996.75702
-34.0135 -41.969101 -996.04303
-33.751701 -42.315899 -995.37903
-33.3036 -42.6791 -994.76801
-33.345001 -42.8596 -994.09497
-33.445499 -43.031502 -993.48499
-33.087002 -43.360298 -992.94
-33.0835 -43.590401 -992.24799
-32.567699 -44.1273 -991.39801
-31.744101 -44.6754 -990.69598
-31.496799 -45.001202 -989.91498
-30.802 -45.533298 -989.229
-29.962999 -46.0672 -988.51898
-30.0606 -46.3671 -987.69202
-29.0222 -47.030399 -986.94299
-28.172701 -47.6278 -985.96198
-26.696699 -48.569901 -985.04999
-26.002899 -49.165501 -984.216
-25.4506 -49.6203 -983.40002
-22.7672 -51.0117 -982.60498
-12.691 -31.7059 -1049.77
-13.386 -31.565001 -1049.38
-14.0123 -31.446699 -1049.01
-14.6141 -31.315201 -1048.62
-15.4664 -31.132099 -1048.1899
-16.1458 -30.993 -1047.8199
-16.604401 -30.909901 -1047.49
-17.257601 -30.806499 -1047.05
-17.7397 -30.792801 -1046.61
-18.238001 -30.724701 -1046.2
-18.6359 -30.689699 -1045.8199
-19.3584 -30.541401 -1045.35
-19.8647 -30.500099 -1044.9301
-20.3361 -30.4277 -1044.52
-20.7033 -30.4326 -1044.14
-21.234501 -30.3407 -1043.71
-21.7796 -30.2768 -1043.27
-22.1835 -30.247801 -1042.86
-22.6099 -30.2533 -1042.45
-23.0135 -30.2213 -1042.03
-23.534 -30.1488 -1041.58
-23.924101 -30.124201 -1041.16
-24.3188 -30.110201 -1040.74
-24.7192 -30.1024 -1040.3199
-25.2922 -30.027901 -1039.85
-25.551901 -30.0567 -1039.4399
-25.691099 -30.1406 -1039.0601
-26.452499 -30.0154 -1038.52
-26.4575 -30.153299 -1038.14
-26.795799 -30.1583 -1037.6899
-27.279301 -30.135 -1037.22
-27.6043 -30.148199 -1036.76
-28.183599 -30.0865 -1036.26
-28.392 -30.145201 -1035.83
-28.577999 -30.2236 -1035.41
-29.1213 -30.160801 -1034.91
-28.948099 -30.368299 -1034.5601
-29.7834 -30.225201 -1033.98
-29.6255 -30.4186 -1033.62
-30.1168 -30.381399 -1033.12
-30.542801 -30.3661 -1032.66
-30.8256 -30.3841 -1032.23
-31.4291 -30.310801 -1031.75
-31.095501 -30.547501 -1031.36
-31.507799 -30.586201 -1030.84
-32.1745 -30.513 -1030.29
-31.946699 -30.720501 -1029.91
-32.705898 -30.5979 -1029.39
-32.6786 -30.747999 -1029
-33.1049 -30.714701 -1028.53
-33.598499 -30.686001 -1028.05
-33.5144 -30.8612 -1027.64
-34.201698 -30.7638 -1027.11
-34.002899 -30.9914 -1026.71
-34.284401 -31.055 -1026.21
-34.6264 -31.052999 -1025.7
-34.233799 -31.364599 -1025.3101
-35.070099 -31.2138 -1024.73
-34.859901 -31.4352 -1024.29
-35.2854 -31.469999 -1023.76
-35.805599 -31.4501 -1023.21
-34.947601 -31.900801 -1022.88
-35.919899 -31.7082 -1022.27
-35.432201 -32.037701 -1021.88
-35.821602 -32.057899 -1021.31
-36.508999 -31.990601 -1020.72
-35.891602 -32.370399 -1020.33
-36.6782 -32.257702 -1019.72
-36.250999 -32.5746 -1019.28
-36.4706 -32.685398 -1018.74
-36.958698 -32.686798 -1018.18
-36.3088 -33.051399 -1017.79
-37.399799 -32.860802 -1017.14
-36.251499 -33.417099 -1016.83
-36.880299 -33.365398 -1016.22
-37.237701 -33.435799 -1015.66
-36.704201 -33.7621 -1015.2
-37.374298 -33.719501 -1014.56
-37.131001 -33.994999 -1014.09
-37.4631 -34.069199 -1013.49
-37.204102 -34.328602 -1013.03
-37.458199 -34.4216 -1012.46
-37.6698 -34.514999 -1011.92
-37.096699 -34.893902 -1011.47
-37.3549 -34.967999 -1010.88
-37.390499 -35.137699 -1010.34
-37.5732 -35.259701 -1009.77
-37.553799 -35.4692 -1009.19
-37.4277 -35.682598 -1008.63
-37.474701 -35.894299 -1007.98
-36.614101 -36.4156 -1007.46
-37.013699 -36.484402 -1006.78
-36.792198 -36.777199 -1006.24
-36.8232 -36.932598 -1005.67
-36.595798 -37.211899 -1005.11
-36.5774 -37.4217 -1004.53
-36.132099 -37.7771 -1004.03
-36.152599 -37.971699 -1003.41
-36.070099 -38.199299 -1002.84
-36.205299 -38.3764 -1002.21
-36.301601 -38.5481 -1001.57
-35.682098 -38.9715 -1001.03
-35.4636 -39.2314 -1000.4
-35.420399 -39.4883 -999.78601
-35.634602 -39.621799 -999.06598
-34.9245 -40.094898 -998.56299
-34.969799 -40.301998 -997.901
-34.6674 -40.6278 -997.28699
-34.496601 -40.933701 -996.65698
-33.8792 -41.3685 -996.02502
-33.684799 -41.691002 -995.34698
-33.687698 -41.882599 -994.72198
-34.0383 -41.961899 -994.07202
-33.693901 -42.287201 -993.534
-33.551102 -42.563999 -992.883
-33.085499 -42.936199 -992.21802
-32.001301 -43.643101 -991.48798
-31.805401 -43.993801 -990.59399
-31.239 -44.476898 -989.90399
-30.9256 -44.867001 -989.18597
-30.029499 -45.417099 -988.49402
-29.585199 -45.8811 -987.698
-29.332199 -46.2593 -986.883
-28.4781 -46.9221 -986.07397
-26.702 -47.918701 -985.07202
-25.8929 -48.535999 -984.21301
-25.680401 -48.913399 -983.34302
-24.2717 -49.717201 -982.55603
-21.4545 -51.231899 -981.45801
-22.0245 -51.480801 -980.07001
-23.724001 -51.453602 -978.065
-11.3719 -31.4161 -1050.42
-12.1859 -31.2355 -1050.02
-12.9379 -31.0502 -1049.62
-13.535 -30.9109 -1049.25
-14.1461 -30.813999 -1048.88
-14.6774 -30.7376 -1048.52
-15.3704 -30.587799 -1048.1
-16.297199 -30.372 -1047.65
-16.634399 -30.341999 -1047.37
-17.360701 -30.198999 -1046.97
-17.748699 -30.174601 -1046.54
-18.307699 -30.1035 -1046.09
-18.8309 -30.043301 -1045.67
-19.2332 -30.021299 -1045.28
-19.802999 -29.9321 -1044.84
-20.3535 -29.841801 -1044.41
-20.830099 -29.7899 -1044
-21.291401 -29.743999 -1043.59
-21.756001 -29.7171 -1043.17
-22.072901 -29.709999 -1042.79
-22.677601 -29.632299 -1042.33
-23.0734 -29.608801 -1041.92
-23.761801 -29.4928 -1041.46
-24.0548 -29.507999 -1041.08
-24.499001 -29.4713 -1040.64
-24.8619 -29.459 -1040.24
-25.1758 -29.4659 -1039.83
-25.507099 -29.4765 -1039.4
-25.926399 -29.4554 -1038.92
-26.6429 -29.359301 -1038.39
-26.3797 -29.600401 -1038.05
-26.8265 -29.555 -1037.5699
-27.424 -29.4988 -1037.0699
-27.4368 -29.618401 -1036.6899
-28.143101 -29.5403 -1036.17
-28.291901 -29.6049 -1035.75
-28.4743 -29.6747 -1035.3199
-29.042101 -29.635 -1034.83
-29.157301 -29.7117 -1034.4
-29.5907 -29.7027 -1033.9301
-29.6527 -29.7959 -1033.5
-30.134701 -29.7612 -1033.02
-30.6215 -29.7383 -1032.54
-30.8353 -29.807501 -1032.14
-31.0208 -29.838699 -1031.74
-30.994101 -30.008101 -1031.28
-31.582199 -29.9851 -1030.72
-31.946699 -29.983999 -1030.26
-31.968901 -30.1 -1029.84
-32.475601 -30.0721 -1029.35
-32.595798 -30.169901 -1028.91
-33.105 -30.155701 -1028.42
-33.632599 -30.1243 -1027.9301
-33.202499 -30.410801 -1027.5601
-34.1586 -30.2327 -1026.96
-33.681301 -30.518999 -1026.61
-34.187199 -30.5063 -1026.0699
-34.671799 -30.4981 -1025.5699
-34.550201 -30.6623 -1025.14
-35.304901 -30.574499 -1024.55
-34.642101 -30.9519 -1024.2
-35.205299 -30.9102 -1023.65
-35.748001 -30.8887 -1023.08
-34.9743 -31.3134 -1022.74
-35.995998 -31.122999 -1022.13
-35.424599 -31.4645 -1021.76
-35.993198 -31.4443 -1021.18
-36.340599 -31.4772 -1020.65
-35.713501 -31.846399 -1020.25
-36.752499 -31.666 -1019.58
-36.079498 -32.057301 -1019.2
-36.513699 -32.084202 -1018.64
-36.817699 -32.148998 -1018.1
-36.320999 -32.4832 -1017.67
-37.087002 -32.398899 -1017.06
-36.417702 -32.791698 -1016.69
-37.025299 -32.743801 -1016.07
-37.305199 -32.804699 -1015.51
-36.567501 -33.2285 -1015.12
-37.73 -33.023998 -1014.41
-36.9608 -33.476398 -1014.01
-37.4963 -33.478901 -1013.41
-37.314999 -33.692699 -1012.91
-37.292702 -33.8937 -1012.38
-37.565399 -33.963902 -1011.82
-37.155602 -34.2841 -1011.36
-37.734402 -34.2542 -1010.73
-37.621201 -34.479801 -1010.21
-37.616501 -34.645199 -1009.66
-37.626801 -34.855598 -1009.1
-37.25 -35.160198 -1008.6
-37.194599 -35.400902 -1007.98
-36.8736 -35.7094 -1007.37
-36.969501 -35.915699 -1006.72
-37.029701 -36.089802 -1006.12
-36.799 -36.374298 -1005.6
-36.456299 -36.6679 -1005.06
-36.544399 -36.8591 -1004.44
-36.385899 -37.098999 -1003.9
-36.343399 -37.325802 -1003.3
-36.1371 -37.5746 -1002.74
-36.397099 -37.695599 -1002.09
-35.9515 -38.060501 -1001.55
-35.764999 -38.3293 -1000.92
-35.561298 -38.642502 -1000.31
-35.1595 -38.970798 -999.73901
-35.443401 -39.0919 -999.03802
-34.942299 -39.493099 -998.46997
-35.127399 -39.658501 -997.79102
-34.506802 -40.064098 -997.21997
-34.638901 -40.264599 -996.59302
-34.160801 -40.611099 -995.948
-33.9809 -40.939701 -995.30103
-34.0942 -41.086102 -994.68402
-33.983101 -41.326302 -994.12799
-34.2864 -41.432701 -993.479
-33.3568 -42.006802 -992.91101
-33.560501 -42.183701 -992.11499
-32.7234 -42.763901 -991.315
-32.369099 -43.225601 -990.49597
-30.9758 -43.953899 -989.91199
-31.122499 -44.182999 -989.112
-30.6047 -44.6315 -988.33301
-30.066 -45.108501 -987.56097
-29.130699 -45.721199 -986.84302
-27.832899 -46.4855 -986.07397
-26.7393 -47.2313 -985.07898
-25.817699 -47.919899 -984.22198
-25.4207 -48.349998 -983.28497
-24.4582 -49.033298 -982.44098
-22.2117 -50.6208 -980.28198
-10.8951 -30.927601 -1050.64
-11.4303 -30.830999 -1050.3
-12.1132 -30.709 -1049.9399
-12.7682 -30.560101 -1049.5699
-13.3896 -30.4263 -1049.2
-14.1395 -30.2796 -1048.79
-14.6742 -30.192301 -1048.42
-15.2979 -30.083 -1048.02
-16.0896 -29.8972 -1047.58
-16.674601 -29.796 -1047.23
-17.2654 -29.6539 -1046.89
-17.7834 -29.5889 -1046.47
-18.351101 -29.548599 -1046
-18.759199 -29.514 -1045.59
-19.377899 -29.4188 -1045.15
-19.785601 -29.3922 -1044.75
-20.314699 -29.332899 -1044.33
-20.7269 -29.315901 -1043.9301
-21.323999 -29.2136 -1043.48
-21.787701 -29.151699 -1043.0699
-22.2831 -29.099899 -1042.64
-22.733801 -29.0599 -1042.25
-23.370701 -28.955 -1041.8101
-23.684999 -28.965 -1041.42
-24.2777 -28.8813 -1040.97
-24.6287 -28.871599 -1040.5601
-24.912001 -28.889601 -1040.16
-25.300301 -28.9035 -1039.73
-25.690599 -28.886101 -1039.28
-25.933701 -28.956699 -1038.84
-26.743 -28.822201 -1038.27
-26.4618 -29.042101 -1037.9301
-26.9594 -28.9984 -1037.45
-27.42 -28.9702 -1036.98
-27.469 -29.079201 -1036.58
-28.1556 -28.974501 -1036.0601
-28.0518 -29.1437 -1035.7
-28.6623 -29.0748 -1035.1899
-28.975599 -29.100901 -1034.75
-28.962601 -29.249201 -1034.35
-29.651699 -29.133301 -1033.8
-29.8426 -29.2129 -1033.37
-30.1584 -29.2635 -1032.92
-30.518299 -29.2451 -1032.46
-30.7715 -29.2943 -1032.0601
-31.3248 -29.239799 -1031.58
-31.244801 -29.416201 -1031.15
-31.8002 -29.342199 -1030.62
-32.1707 -29.3564 -1030.17
-32.276199 -29.4506 -1029.77
-32.682201 -29.4622 -1029.29
-33.006199 -29.4799 -1028.8101
-33.063999 -29.594601 -1028.37
-33.450001 -29.6182 -1027.88
-33.1786 -29.862101 -1027.48
-33.869598 -29.771099 -1026.91
-33.683899 -29.990299 -1026.49
-33.898899 -30.096201 -1026.02
-34.759998 -29.933599 -1025.4301
-34.408501 -30.199301 -1025.0601
-35.2999 -30.057199 -1024.47
-34.6199 -30.444201 -1024.11
-35.379601 -30.353201 -1023.52
-35.682098 -30.367399 -1022.99
-34.969299 -30.796 -1022.65
-35.907902 -30.595301 -1022.02
-35.386002 -30.9653 -1021.65
-35.949501 -30.9161 -1021.08
-36.2117 -30.9589 -1020.57
-35.832699 -31.2836 -1020.15
-36.596901 -31.199499 -1019.53
-36.281101 -31.4496 -1019.09
-36.465302 -31.547899 -1018.57
-36.640598 -31.674801 -1018.03
-36.3344 -31.933001 -1017.58
-37.0387 -31.857599 -1016.99
-36.6026 -32.178398 -1016.56
-36.957199 -32.237999 -1015.97
-37.0228 -32.389801 -1015.45
-37.018398 -32.5467 -1014.96
-37.428699 -32.5653 -1014.36
-36.8811 -32.938599 -1013.93
-37.152699 -33.038799 -1013.36
-37.414299 -33.123402 -1012.79
-36.819801 -33.5168 -1012.36
-37.5872 -33.430901 -1011.71
-37.330299 -33.671101 -1011.22
-37.5313 -33.785198 -1010.67
-37.561901 -33.942799 -1010.12
-37.651402 -34.122299 -1009.56
-37.586899 -34.310902 -1009.02
-37.2145 -34.644299 -1008.53
-37.5117 -34.754902 -1007.87
-37.383499 -35.001701 -1007.24
-36.957199 -35.363998 -1006.68
-36.883598 -35.599499 -1006.08
-36.744801 -35.846001 -1005.54
-36.8727 -35.961498 -1004.9
-36.512299 -36.311001 -1004.4
-36.546299 -36.494202 -1003.8
-36.272301 -36.798901 -1003.24
-36.296902 -36.987099 -1002.61
-36.156601 -37.217999 -1002.06
-36.528999 -37.3339 -1001.38
-35.584499 -37.869801 -1000.88
-35.638401 -38.0802 -1000.23
-35.652199 -38.271999 -999.591
-35.4641 -38.554001 -998.96698
-35.230202 -38.858101 -998.36298
-34.8829 -39.173698 -997.77002
-34.746399 -39.441898 -997.133
-34.638901 -39.699699 -996.51599
-34.765202 -39.8918 -995.84802
-34.5219 -40.174099 -995.22198
-34.047501 -40.5331 -994.737
-34.0952 -40.7192 -994.133
-33.881401 -41.031601 -993.51703
-33.791599 -41.281601 -992.815
-33.664299 -41.585899 -992.07202
-32.9702 -42.138 -991.30499
-32.5056 -42.608398 -990.42102
-31.358299 -43.269001 -989.802
-31.1674 -43.582298 -989.07001
-30.548599 -44.079899 -988.31
-29.817101 -44.612099 -987.54901
-29.2875 -45.095699 -986.74597
-28.8062 -45.575298 -985.88898
-27.212601 -46.504799 -985.01898
-26.3978 -47.1143 -984.15997
-25.8276 -47.638401 -983.21301
-24.7668 -48.3694 -982.29901
-24.1495 -49.032299 -981.28802
-23.097401 -49.701698 -980.37201
-22.275499 -50.464401 -979.13098
-9.7612896 -30.5758 -1051.3
-10.1309 -30.5445 -1050.9301
-10.7203 -30.4457 -1050.58
-11.4088 -30.280399 -1050.21
-12.1989 -30.0924 -1049.8101
-12.8931 -29.986401 -1049.4399
-13.5291 -29.8766 -1049.0699
-14.1188 -29.7652 -1048.7
-14.7384 -29.642099 -1048.3101
-15.3582 -29.531799 -1047.91
-16.8811 -29.204399 -1047.0601
-17.5051 -29.084999 -1046.73
-18.0485 -28.9664 -1046.34
-18.4445 -28.976601 -1045.92
-18.7607 -28.986099 -1045.5
-19.389 -28.912701 -1045.05
-19.865499 -28.8335 -1044.65
-20.259899 -28.8221 -1044.25
-20.763201 -28.763901 -1043.8199
-21.2146 -28.7108 -1043.39
-21.7857 -28.625799 -1042.97
-22.3664 -28.561001 -1042.54
-22.8284 -28.4911 -1042.16
-23.3241 -28.443001 -1041.74
-23.6551 -28.426399 -1041.34
-24.2391 -28.349199 -1040.89
-24.721701 -28.313801 -1040.45
-25.0154 -28.350201 -1040.05
-25.4755 -28.2845 -1039.59
-25.899799 -28.2736 -1039.14
-25.743 -28.455999 -1038.76
-26.615601 -28.3298 -1038.1899
-26.403999 -28.5149 -1037.84
-27.0184 -28.421499 -1037.3199
-27.5252 -28.386 -1036.85
-27.5977 -28.5061 -1036.45
-27.967199 -28.4963 -1035.99
-28.131701 -28.601299 -1035.59
-28.440701 -28.610201 -1035.15
-29.076401 -28.5427 -1034.63
-29.118099 -28.6712 -1034.22
-29.6443 -28.6243 -1033.72
-29.6612 -28.737101 -1033.3101
-30.0432 -28.740499 -1032.84
-30.6157 -28.702999 -1032.34
-30.9608 -28.7215 -1031.92
-31.469 -28.632601 -1031.45
-31.3829 -28.787901 -1031.0699
-31.749701 -28.798599 -1030.61
-32.293701 -28.7686 -1030.13
-32.547901 -28.819201 -1029.7
-32.879299 -28.852501 -1029.22
-32.823502 -28.992701 -1028.8199
-33.201199 -29.0231 -1028.29
-33.5844 -29.059099 -1027.78
-33.588299 -29.191401 -1027.34
-34.048901 -29.1849 -1026.8101
-33.904202 -29.384501 -1026.39
-34.3745 -29.3808 -1025.84
-34.5247 -29.4842 -1025.38
-34.3475 -29.705099 -1024.96
-35.100399 -29.6056 -1024.4
-34.6068 -29.907499 -1024
-35.2654 -29.853001 -1023.44
-35.708698 -29.85 -1022.91
-35.285198 -30.157 -1022.52
-35.996498 -30.0611 -1021.94
-35.5191 -30.3722 -1021.54
-36.016998 -30.3465 -1020.98
-36.2929 -30.4382 -1020.47
-36.290199 -30.5959 -1019.97
-36.649799 -30.628799 -1019.45
-36.168701 -30.9552 -1019.03
-36.353298 -31.065001 -1018.51
-36.9156 -31.0485 -1017.91
-36.707802 -31.2794 -1017.42
-37.053299 -31.3363 -1016.89
-36.786098 -31.5816 -1016.43
-36.9828 -31.686399 -1015.88
-37.307701 -31.7292 -1015.34
-37.067402 -32.0233 -1014.87
-37.488098 -32.031601 -1014.27
-37.2798 -32.283501 -1013.79
-37.4258 -32.370098 -1013.22
-37.395302 -32.5947 -1012.71
-37.5546 -32.721699 -1012.13
-37.659901 -32.858101 -1011.6
-37.496601 -33.092098 -1011.11
-37.634701 -33.204102 -1010.56
-37.422798 -33.460201 -1010.07
-37.509201 -33.624802 -1009.51
-37.547298 -33.8167 -1008.91
-37.2757 -34.09 -1008.41
-37.153702 -34.319599 -1007.82
-37.3708 -34.473598 -1007.18
-36.967499 -34.816601 -1006.65
-36.911598 -35.061401 -1006.01
-36.9016 -35.244099 -1005.41
-36.774399 -35.496601 -1004.85
-36.679901 -35.6936 -1004.29
-36.4193 -35.993999 -1003.76
-36.453201 -36.1647 -1003.15
-36.281601 -36.428001 -1002.59
-36.333599 -36.5681 -1001.98
-36.522598 -36.771099 -1001.33
-36.3204 -37.0266 -1000.73
-35.886002 -37.401699 -1000.12
-35.5172 -37.747299 -999.547
-35.333099 -38.039902 -998.91901
-35.022598 -38.3465 -998.34003
-35.202801 -38.493801 -997.68903
-34.9146 -38.785801 -997.09802
-34.842701 -38.9995 -996.47302
-34.617199 -39.351101 -995.901
-34.729198 -39.511101 -995.24902
-34.5756 -39.7425 -994.69501
-34.240898 -40.120098 -994.08698
-34.608898 -40.195202 -993.35199
-33.5811 -40.790199 -992.79102
-33.708599 -41.031601 -992.00098
-32.799301 -41.604 -991.28302
-32.335701 -42.070099 -990.42603
-31.564199 -42.6129 -989.71899
-31.374599 -42.923599 -988.99402
-30.593 -43.531799 -988.22998
-30.1682 -43.925999 -987.505
-29.303801 -44.521198 -986.758
-28.979601 -44.881401 -985.87598
-27.4142 -45.849201 -984.987
-26.063 -46.677898 -984.15302
-25.4189 -47.221001 -983.26898
-24.1026 -48.060101 -982.33899
-23.788099 -48.513901 -981.401
-23.5872 -48.893101 -980.42999
-23.3689 -49.425301 -979.146
-20.193701 -51.146801 -978.06897
-8.6767597 -30.2092 -1052.1
-9.1253099 -30.1572 -1051.62
-9.5728102 -30.104099 -1051.2
-10.3046 -29.966 -1050.78
-11.4888 -29.740801 -1050.11
-12.216 -29.550699 -1049.72
-12.8501 -29.445999 -1049.37
-13.5873 -29.290199 -1048.96
-14.1884 -29.179399 -1048.58
-14.9538 -29.0431 -1048.16
-15.4991 -28.9347 -1047.77
-15.9374 -28.8913 -1047.41
-16.6821 -28.7267 -1046.99
-17.4284 -28.5354 -1046.6
-17.814501 -28.5168 -1046.3
-18.4587 -28.429001 -1045.84
-19.022499 -28.363899 -1045.37
-19.3799 -28.3578 -1044.96
-19.823799 -28.341299 -1044.55
-20.277 -28.291599 -1044.14
-20.780899 -28.216999 -1043.7
-21.265699 -28.1756 -1043.29
-21.7733 -28.134701 -1042.88
-22.3127 -28.0513 -1042.46
-22.755199 -27.996099 -1042.0601
-23.245001 -27.945999 -1041.62
-23.6005 -27.9242 -1041.23
-24.117399 -27.8736 -1040.8199
-24.6523 -27.8039 -1040.37
-24.9566 -27.8004 -1039.9399
-25.2689 -27.844 -1039.52
-25.6394 -27.8501 -1039.0699
-25.9196 -27.903299 -1038.6
-26.535299 -27.8265 -1038.09
-26.669399 -27.912399 -1037.6899
-27.1744 -27.884501 -1037.21
-27.2985 -27.944799 -1036.8
-27.5916 -28.000401 -1036.35
-28.138901 -27.946199 -1035.87
-28.208599 -28.038601 -1035.47
-28.749001 -28.003599 -1034.98
-29.120001 -28.0124 -1034.51
-29.062201 -28.164301 -1034.13
-29.7264 -28.053801 -1033.61
-29.8188 -28.1693 -1033.1801
-30.311001 -28.157301 -1032.7
-30.5056 -28.214399 -1032.28
-30.870199 -28.1915 -1031.85
-31.296101 -28.202801 -1031.42
-31.5765 -28.2257 -1031
-31.906401 -28.2213 -1030.54
-32.2882 -28.254999 -1030.08
-32.2178 -28.417101 -1029.6801
-32.9963 -28.296801 -1029.12
-32.9673 -28.448099 -1028.7
-33.2127 -28.490499 -1028.22
-33.663898 -28.520599 -1027.6899
-33.391499 -28.756201 -1027.3
-33.974701 -28.697901 -1026.74
-33.843102 -28.8871 -1026.3101
-34.214802 -28.9011 -1025.79
-34.6572 -28.909901 -1025.26
-34.102699 -29.259199 -1024.9
-35.170601 -29.0396 -1024.28
-34.8302 -29.2869 -1023.89
-35.3578 -29.323799 -1023.36
-35.603802 -29.365999 -1022.86
-35.224602 -29.658199 -1022.45
-36.177502 -29.474701 -1021.82
-35.587299 -29.8286 -1021.43
-36.019199 -29.8512 -1020.87
-36.515499 -29.836 -1020.33
-35.811001 -30.2418 -1019.96
-36.525299 -30.1607 -1019.36
-36.131802 -30.4727 -1018.91
-36.4963 -30.5026 -1018.37
-37.132401 -30.4585 -1017.75
-36.268101 -30.916599 -1017.41
-37.132 -30.7638 -1016.79
-36.694901 -31.0972 -1016.37
-37.0723 -31.1576 -1015.8
-37.096699 -31.309 -1015.29
-36.656799 -31.616899 -1014.84
-37.640099 -31.446699 -1014.17
-37.2197 -31.7661 -1013.74
-37.366501 -31.901699 -1013.16
-37.171398 -32.128399 -1012.66
-36.954201 -32.4119 -1012.17
-37.621799 -32.3596 -1011.55
-37.605999 -32.524899 -1011.02
-37.5424 -32.721401 -1010.52
-37.688499 -32.857201 -1009.96
-37.443699 -33.097698 -1009.46
-37.703499 -33.240501 -1008.84
-37.5037 -33.4813 -1008.29
-37.162701 -33.781601 -1007.77
-37.1493 -33.998798 -1007.17
-37.200901 -34.182701 -1006.55
-36.8391 -34.530201 -1005.94
-36.6642 -34.806198 -1005.39
-36.695301 -34.926701 -1004.8
-36.6525 -35.115002 -1004.27
-36.745998 -35.2733 -1003.7
-37.0756 -35.355099 -1003.08
-36.962502 -35.592201 -1002.52
-36.376999 -36.024399 -1002.02
-36.4925 -36.187099 -1001.36
-36.2145 -36.4921 -1000.79
-36.436901 -36.652802 -1000.09
-35.7901 -37.060398 -999.53998
