# .PCD v0.7 - Point Cloud Data file format
VERSION 0.7
FIELDS x y z p_x p_y
SIZE 8 8 8 8 8
TYPE F F F F F
COUNT 1 1 1 1 1
WIDTH 804
HEIGHT 1
VIEWPOINT 0 0 0 1 0 0 0
POINTS 804
DATA ascii
3.2176004 -5.5076828e+21 1.6283656e-314 697.37683 422.92346
2.8602414 -5.6348194e+21 1.6283796e-314 700.09863 423.13345
2.8735204 -5.7163526e+21 1.6283885e-314 703.19946 423.18448
2.5466409 -5.790063e+21 1.6283966e-314 706.30347 423.38126
2.6868005 -5.882004e+21 1.6284067e-314 709.1897 423.37518
2.9360814 -6.012829e+21 1.6284211e-314 711.94025 423.32422
2.8193612 -6.0804191e+21 1.6284285e-314 715.1322 423.431
2.5653596 -6.1495538e+21 1.6284361e-314 719.25214 423.61121
10212.318 -7.1148374e+21 1.628542e-314 446.01462 405.71649
9635.5997 -7.056178e+21 1.6285355e-314 447.04831 405.83539
8875.545 -6.9652683e+21 1.6285255e-314 448.09116 405.98355
7767.7373 -6.877241e+21 1.6285159e-314 449.28436 406.29547
7614.3858 -6.8101689e+21 1.6285085e-314 450.4021 406.35797
7268.0264 -6.7262758e+21 1.6284993e-314 451.55395 406.49676
6807.9639 -6.6656934e+21 1.6284927e-314 452.5852 406.68771
6619.6319 -6.6048227e+21 1.628486e-314 453.60846 406.76547
6429.2491 -6.544461e+21 1.6284794e-314 454.66052 406.84476
6140.3975 -6.4638871e+21 1.6284705e-314 455.88251 406.96246
5869.1631 -6.4052998e+21 1.6284641e-314 457.14026 407.07947
5553.5225 -6.3497388e+21 1.628458e-314 458.47461 407.21722
5306.8623 -6.2949886e+21 1.628452e-314 459.79523 407.32629
4898.4912 -6.2343386e+21 1.6284454e-314 461.17215 407.50256
4661.4951 -6.1857853e+21 1.62844e-314 462.5433 407.61029
4394.1905 -6.1231402e+21 1.6284332e-314 463.90884 407.72711
4275.4092 -6.072155e+21 1.6284276e-314 465.15253 407.78287
3974.9644 -6.0413098e+21 1.6284242e-314 466.28799 407.96945
3898.6148 -5.9809526e+21 1.6284176e-314 467.38849 408.035
3789.2925 -5.94015e+21 1.6284131e-314 468.51486 408.13382
3794.0855 -5.8960958e+21 1.6284082e-314 469.92654 408.14026
3509.1265 -5.8314601e+21 1.6284012e-314 471.49918 408.38803
3485.7788 -5.7702922e+21 1.6283944e-314 473.05109 408.41608
3315.9995 -5.739375e+21 1.6283911e-314 474.52573 408.57428
3146.0972 -5.7230675e+21 1.6283893e-314 476.04273 408.73706
2975.5816 -5.6877232e+21 1.6283854e-314 477.67935 408.89749
2936.9976 -5.6401292e+21 1.6283802e-314 479.05017 408.93939
2848.3609 -5.5946023e+21 1.6283752e-314 480.23245 409.02121
2722.1616 -5.5623565e+21 1.6283716e-314 481.45718 409.13889
2553.4487 -5.5383793e+21 1.628369e-314 482.86865 409.29758
2548.8609 -5.5040664e+21 1.6283652e-314 484.46866 409.31781
2376.6636 -5.4513112e+21 1.6283595e-314 486.10828 409.47604
2251.8999 -5.4261496e+21 1.6283567e-314 487.6542 409.59958
2197.7925 -5.4015014e+21 1.628354e-314 489.20599 409.66351
2045.3796 -5.3597396e+21 1.6283494e-314 490.88238 409.81082
1973.5359 -5.3232874e+21 1.6283454e-314 492.49161 409.94888
1943.4705 -5.303958e+21 1.6283433e-314 493.91534 410.0174
1871.9548 -5.2911903e+21 1.6283419e-314 495.19748 410.15564
1822.4959 -5.2688344e+21 1.6283394e-314 496.6113 410.25626
1776.1697 -5.2472126e+21 1.6283371e-314 498.22815 410.35492
1749.4431 -5.1928317e+21 1.6283311e-314 499.91287 410.41363
1696.9324 -5.1761593e+21 1.6283293e-314 501.48852 410.52347
1647.1248 -5.1561633e+21 1.6283271e-314 503.0925 410.62839
1570.8171 -5.1341002e+21 1.6283247e-314 504.7681 410.77908
1540.9978 -5.112555e+21 1.6283223e-314 506.41272 410.85037
1456.2312 -5.0778728e+21 1.6283185e-314 508.11108 411.01303
1440.072 -5.0764721e+21 1.6283183e-314 509.57239 411.06296
1322.824 -5.0276261e+21 1.628313e-314 511.08972 411.27502
1343.1404 -5.0284368e+21 1.6283131e-314 512.49359 411.26245
1239.5115 -4.9995101e+21 1.6283099e-314 514.05493 411.45676
1205.3718 -4.9794421e+21 1.6283077e-314 515.78296 411.53729
1145.6931 -4.9685929e+21 1.6283065e-314 517.54175 411.66394
1073.7878 -4.9348745e+21 1.6283028e-314 519.36816 411.80746
1024.0007 -4.9014488e+21 1.6282991e-314 521.13263 411.91242
1006.7357 -4.9264617e+21 1.6283019e-314 522.88269 412.00409
983.30652 -4.8908248e+21 1.628298e-314 524.71124 412.10465
957.33777 -4.8937746e+21 1.6282983e-314 526.30255 412.21869
938.75232 -4.88234e+21 1.628297e-314 527.83856 412.30353
943.14539 -4.8657352e+21 1.6282952e-314 529.30902 412.3078
918.3031 -4.8768051e+21 1.6282964e-314 530.83319 412.41873
905.91248 -4.8193256e+21 1.6282901e-314 532.70642 412.47775
845.3739 -4.8269232e+21 1.628291e-314 534.47412 412.71375
843.01843 -4.7922455e+21 1.6282872e-314 536.38995 412.7442
812.8617 -4.7811756e+21 1.6282859e-314 538.12463 412.87195
771.00086 -4.794164e+21 1.6282874e-314 539.85004 413.04462
745.56433 -4.7695158e+21 1.6282847e-314 541.64752 413.15436
726.68201 -4.7523976e+21 1.6282828e-314 543.3241 413.24145
727.1532 -4.7355767e+21 1.6282809e-314 544.81812 413.25961
685.65027 -4.7299697e+21 1.6282803e-314 546.3667 413.4245
668.08874 -4.7152469e+21 1.6282779e-314 548.02637 413.50595
655.21716 -4.6917088e+21 1.6282728e-314 549.96429 413.5705
648.21276 -4.7133644e+21 1.6282775e-314 551.75977 413.63129
597.73987 -4.7041793e+21 1.6282755e-314 553.53778 413.82797
588.50305 -4.7001575e+21 1.6282746e-314 555.39526 413.8869
560.78332 -4.6884617e+21 1.628272e-314 557.43146 414.00879
530.46301 -4.6799386e+21 1.6282702e-314 559.16278 414.1362
490.95685 -4.6870611e+21 1.6282717e-314 560.84186 414.30045
486.10309 -4.7108198e+21 1.628277e-314 562.32147 414.34946
458.69074 -4.6720078e+21 1.6282684e-314 564.08411 414.45551
412.07819 -4.6806029e+21 1.6282703e-314 565.82819 414.64566
394.5882 -4.6663625e+21 1.6282672e-314 567.40735 414.72467
402.47296 -4.6666575e+21 1.6282673e-314 569.59601 414.73187
433.54108 -4.6959512e+21 1.6282737e-314 571.21027 414.66199
376.44293 -4.679092e+21 1.62827e-314 573.18579 414.88174
331.61212 -4.6433784e+21 1.6282622e-314 575.4577 415.0571
304.52741 -4.6633001e+21 1.6282665e-314 576.94147 415.18057
268.06281 -4.6368122e+21 1.6282607e-314 578.84277 415.32523
301.82404 -4.6554053e+21 1.6282648e-314 580.48926 415.24216
300.14459 -4.6875024e+21 1.6282718e-314 582.14941 415.28586
232.79105 -4.6448916e+21 1.6282625e-314 584.2345 415.6127
202.9722 -4.6795716e+21 1.6282701e-314 585.82983 415.85452
199.48038 -4.6661779e+21 1.6282672e-314 587.87286 415.90546
201.05728 -4.65035e+21 1.6282637e-314 589.8855 415.92032
180.14212 -4.6252267e+21 1.6282582e-314 591.86322 416.08548
180.52103 -4.673521e+21 1.6282688e-314 593.96118 416.13284
169.17508 -4.6284355e+21 1.6282589e-314 595.94043 416.2254
155.01309 -4.6537817e+21 1.6282644e-314 597.6698 416.35843
146.67777 -4.6643337e+21 1.6282668e-314 599.30426 416.4447
140.70792 -4.644412e+21 1.6282624e-314 601.00549 416.50519
140.11392 -4.6661036e+21 1.6282671e-314 602.82141 416.54514
122.15041 -4.6449277e+21 1.6282625e-314 604.88623 416.73315
116.27266 -4.6583574e+21 1.6282654e-314 606.92682 416.85016
112.51204 -4.6713795e+21 1.6282683e-314 608.95264 416.93771
104.5453 -4.6664729e+21 1.6282672e-314 611.05316 417.07794
100.23683 -4.6610505e+21 1.628266e-314 613.21039 417.16879
93.967362 -4.6855839e+21 1.6282714e-314 615.13214 417.29285
88.053788 -4.6813415e+21 1.6282705e-314 617.05151 417.40234
85.217301 -4.6801233e+21 1.6282702e-314 618.82947 417.46851
79.285782 -4.6821522e+21 1.6282707e-314 620.62781 417.57846
74.795548 -4.687946e+21 1.6282719e-314 622.51501 417.67127
69.762589 -4.6903802e+21 1.6282725e-314 624.71039 417.77521
64.435196 -4.693222e+21 1.6282731e-314 626.85162 417.88245
61.789437 -4.7031097e+21 1.6282753e-314 629.02899 417.98605
61.523201 -4.7125154e+21 1.6282773e-314 631.10761 418.02881
56.764168 -4.7084577e+21 1.6282764e-314 633.39227 418.19336
53.351692 -4.718825e+21 1.6282787e-314 635.56439 418.32388
51.838722 -4.7470113e+21 1.6282822e-314 637.39063 418.39871
49.861122 -4.7636881e+21 1.628284e-314 639.26971 418.48471
46.996498 -4.7896604e+21 1.6282869e-314 641.14154 418.59622
45.59745 -4.7787392e+21 1.6282857e-314 643.21265 418.66513
40.883217 -4.8150427e+21 1.6282897e-314 645.45966 418.8345
40.37632 -4.8138627e+21 1.6282895e-314 647.7182 418.88342
36.890877 -4.8361466e+21 1.628292e-314 650.04804 419.01834
34.242562 -4.8835199e+21 1.6282972e-314 652.21435 419.13153
32.170235 -4.888019e+21 1.6282977e-314 654.58289 419.22571
30.046085 -4.9063937e+21 1.6282997e-314 656.89435 419.37573
30.072331 -4.9443906e+21 1.6283038e-314 658.96503 419.41223
28.564488 -4.9553118e+21 1.628305e-314 660.88513 419.526
27.849598 -4.9837205e+21 1.6283082e-314 662.97516 419.60172
27.359364 -5.045627e+21 1.6283149e-314 664.90918 419.66751
23.744007 -5.0251897e+21 1.6283127e-314 667.28223 419.8985
22.668797 -5.038768e+21 1.6283142e-314 669.50543 419.99368
22.346241 -5.0665822e+21 1.6283172e-314 671.9165 420.05283
22.65984 -5.1268674e+21 1.6283239e-314 674.54584 420.0853
22.080006 -5.2086978e+21 1.6283328e-314 677.25946 420.17059
18.59969 -5.1585953e+21 1.6283273e-314 679.66412 420.39035
18.3232 -5.2192498e+21 1.628334e-314 681.68335 420.44519
16.343678 -5.2575439e+21 1.6283382e-314 683.74316 420.59
15.730562 -5.2737793e+21 1.62834e-314 686.27582 420.67966
15.795519 -5.4009115e+21 1.6283539e-314 688.92151 420.73093
15.420801 -5.4463663e+21 1.6283589e-314 691.76636 420.82202
14.267199 -5.5170548e+21 1.6283667e-314 694.55267 420.99966
14.138239 -5.5455356e+21 1.6283698e-314 697.43335 421.06241
12.991678 -5.6414577e+21 1.6283803e-314 700.26929 421.24295
13.631044 -5.6780585e+21 1.6283843e-314 703.40588 421.22778
13.388483 -5.7672658e+21 1.6283941e-314 706.57281 421.31494
12.907206 -5.9138805e+21 1.6284102e-314 709.24335 421.42722
11.876482 -6.0397606e+21 1.628424e-314 712.1294 421.59894
12.626558 -6.1007843e+21 1.6284307e-314 715.34454 421.57648
13.142405 -6.2588337e+21 1.628448e-314 719.21735 421.60178
14.131205 -6.1818762e+21 1.6284396e-314 725.12921 421.57886
18391.387 -7.0694591e+21 1.628537e-314 447.39655 404.23871
18012.574 -6.9865208e+21 1.6285279e-314 448.32196 404.26712
16151.186 -6.9021819e+21 1.6285186e-314 449.40839 404.47571
15401.623 -6.8004321e+21 1.6285075e-314 450.64984 404.62006
14993.662 -6.7250193e+21 1.6284992e-314 451.75671 404.69946
14602.904 -6.6697556e+21 1.6284931e-314 452.77014 404.77997
14249.498 -6.6081419e+21 1.6284864e-314 453.82187 404.8515
13850.217 -6.5585572e+21 1.6284809e-314 454.84647 404.93588
12833.756 -6.4798974e+21 1.6284723e-314 456.07013 405.14365
12457.092 -6.4176982e+21 1.6284655e-314 457.33148 405.22351
11501.74 -6.3650871e+21 1.6284597e-314 458.62241 405.42783
10984.662 -6.3039913e+21 1.628453e-314 459.98868 405.53937
10872.264 -6.2284344e+21 1.6284447e-314 461.38626 405.56256
10195.279 -6.1785525e+21 1.6284392e-314 462.69983 405.7103
8956.9747 -6.12727e+21 1.6284336e-314 464.1174 405.97723
8477.4122 -6.0886832e+21 1.6284294e-314 465.30673 406.08527
8165.1319 -6.0487633e+21 1.628425e-314 466.4946 406.16354
7891.0303 -6.0098747e+21 1.6284207e-314 467.67532 406.28598
7712.6084 -5.9578581e+21 1.628415e-314 468.90573 406.36533
7644.1201 -5.9091562e+21 1.6284097e-314 470.27472 406.40158
7276.2998 -5.847547e+21 1.6284029e-314 471.83658 406.56329
7098.4522 -5.7913916e+21 1.6283968e-314 473.33139 406.64563
6769.0537 -5.7608437e+21 1.6283934e-314 474.72455 406.79761
6556.1436 -5.7257246e+21 1.6283896e-314 476.30139 406.90213
6465.21 -5.7013016e+21 1.6283869e-314 477.89978 406.95853
5947.9678 -5.6688351e+21 1.6283833e-314 479.26166 407.18906
5586.6201 -5.6196918e+21 1.6283779e-314 480.53052 407.34793
5696.4756 -5.5777813e+21 1.6283733e-314 481.75055 407.30896
5476.6006 -5.53919e+21 1.6283691e-314 483.07846 407.41199
5417.128 -5.514839e+21 1.6283664e-314 484.55426 407.45343
5005.6436 -5.4746984e+21 1.628362e-314 486.1799 407.64191
4858.1045 -5.4403135e+21 1.6283582e-314 487.77332 407.71985
4505.1944 -5.4095449e+21 1.6283549e-314 489.34503 407.8855
4153.3467 -5.3632794e+21 1.6283498e-314 490.9891 408.04779
4059.9566 -5.3440986e+21 1.6283477e-314 492.54791 408.1218
3993.6011 -5.3045479e+21 1.6283434e-314 494.09616 408.19162
3888.2105 -5.2973152e+21 1.6283426e-314 495.38339 408.29919
3710.855 -5.284624e+21 1.6283412e-314 496.79504 408.46835
3585.1069 -5.2602731e+21 1.6283385e-314 498.47903 408.59491
3539.5191 -5.2253747e+21 1.6283347e-314 500.09699 408.64969
3434.7437 -5.1858961e+21 1.6283303e-314 501.67084 408.7529
3351.3491 -5.1665667e+21 1.6283282e-314 503.22275 408.8429
3236.5386 -5.1301866e+21 1.6283242e-314 504.89108 408.95709
3078.3921 -5.0977967e+21 1.6283207e-314 506.60141 409.10992
2968.9468 -5.085029e+21 1.6283193e-314 508.23166 409.22516
2878.6694 -5.0582461e+21 1.6283163e-314 509.80685 409.3197
2809.6519 -5.0404614e+21 1.6283144e-314 511.19363 409.39551
2634.2612 -5.0186955e+21 1.628312e-314 512.64624 409.56204
2663.4253 -4.9925025e+21 1.6283091e-314 514.20196 409.55478
2534.648 -4.9821713e+21 1.628308e-314 515.89868 409.68835
2399.562 -4.9825406e+21 1.628308e-314 517.74145 409.83227
2173.7905 -4.9528033e+21 1.6283048e-314 519.57105 410.04587
2108.9097 -4.9434313e+21 1.6283037e-314 521.36639 410.1268
2041.0173 -4.9547218e+21 1.628305e-314 523.13336 410.22095
2033.9919 -4.9003409e+21 1.628299e-314 524.89282 410.24698
2011.6287 -4.8884604e+21 1.6282977e-314 526.49182 410.30713
1997.7019 -4.8813042e+21 1.6282969e-314 527.97034 410.35217
1905.6648 -4.8565118e+21 1.6282942e-314 529.4859 410.52686
1891.8406 -4.8427894e+21 1.6282927e-314 531.08307 410.57202
1822.3318 -4.8330481e+21 1.6282916e-314 532.84064 410.71576
1778.2791 -4.8148986e+21 1.6282896e-314 534.63928 410.81467
1698.7351 -4.7901063e+21 1.6282869e-314 536.46509 410.97308
1646.6746 -4.7988838e+21 1.6282879e-314 538.21149 411.09137
1605.4685 -4.7557933e+21 1.6282832e-314 540.06043 411.18039
1516.5037 -4.7576398e+21 1.6282834e-314 541.81146 411.36023
1505.3835 -4.7510691e+21 1.6282826e-314 543.41498 411.40268
1442.53 -4.7269433e+21 1.62828e-314 544.96149 411.52862
1431.2869 -4.7262047e+21 1.6282799e-314 546.4989 411.57166
1384.8376 -4.7368287e+21 1.6282811e-314 548.12915 411.67895
1337.1199 -4.7096016e+21 1.6282767e-314 550.02924 411.78098
1341.4206 -4.7036613e+21 1.6282754e-314 551.87994 411.79974
1252.0247 -4.7059131e+21 1.6282759e-314 553.6543 411.98142
1185.6282 -4.7004886e+21 1.6282747e-314 555.53662 412.12189
1118.2903 -4.6921524e+21 1.6282729e-314 557.45288 412.26324
1133.9983 -4.6661419e+21 1.6282671e-314 559.37134 412.25452
1058.3655 -4.6845143e+21 1.6282712e-314 560.88287 412.41592
1032.5403 -4.6918934e+21 1.6282728e-314 562.46515 412.48807
961.89465 -4.6658829e+21 1.6282671e-314 564.11176 412.72955
938.63928 -4.6862482e+21 1.6282716e-314 565.9444 412.84671
923.97571 -4.6568802e+21 1.6282651e-314 567.70831 412.91159
942.27454 -4.6766555e+21 1.6282695e-314 569.62647 412.88748
920.86292 -4.6918191e+21 1.6282728e-314 571.4754 412.99625
913.14173 -4.6924834e+21 1.6282729e-314 573.31567 413.05167
863.51868 -4.6737417e+21 1.6282688e-314 575.58148 413.24884
872.67346 -4.6866175e+21 1.6282716e-314 576.97082 413.24469
783.68762 -4.6283634e+21 1.6282589e-314 578.88171 413.5545
804.35217 -4.6869125e+21 1.6282717e-314 582.27527 413.56146
701.51184 -4.6021682e+21 1.6282531e-314 584.48749 413.91284
671.73401 -4.6262602e+21 1.6282584e-314 586.02978 414.04904
688.03577 -4.6708639e+21 1.6282682e-314 588.07208 414.04349
683.36634 -4.6549256e+21 1.6282647e-314 589.966 414.08243
672.69641 -4.6430834e+21 1.6282621e-314 591.91162 414.14447
632.8219 -4.6649236e+21 1.6282669e-314 593.96106 414.32205
589.07678 -4.6310926e+21 1.6282595e-314 595.99249 414.4899
584.74524 -4.660017e+21 1.6282658e-314 597.70801 414.54321
562.67786 -4.6467719e+21 1.6282629e-314 599.41528 414.64014
539.75061 -4.6512732e+21 1.6282639e-314 601.16681 414.74786
564.08069 -4.6616405e+21 1.6282662e-314 603.00671 414.69739
521.62561 -4.6493907e+21 1.6282635e-314 604.96252 414.86847
476.50812 -4.664739e+21 1.6282668e-314 607.06317 415.06189
475.08478 -4.6663986e+21 1.6282672e-314 609.11151 415.0994
431.60578 -4.6626358e+21 1.6282664e-314 611.18805 415.27927
406.89679 -4.6676168e+21 1.6282675e-314 613.25421 415.39807
422.83014 -4.6769505e+21 1.6282695e-314 615.32843 415.37955
407.64411 -4.6823008e+21 1.6282707e-314 617.17963 415.46249
357.57062 -4.68444e+21 1.6282712e-314 618.91437 415.6618
332.25739 -4.6884257e+21 1.628272e-314 620.70844 415.77799
340.12164 -4.6856582e+21 1.6282714e-314 622.67444 415.78076
311.12189 -4.7006372e+21 1.6282747e-314 624.75677 415.91815
289.84332 -4.6976108e+21 1.6282741e-314 626.97992 416.02454
260.88458 -4.7048435e+21 1.6282756e-314 629.08142 416.15915
245.31973 -4.7067621e+21 1.6282761e-314 631.30847 416.28442
238.25919 -4.7221081e+21 1.6282794e-314 633.41205 416.37125
225.2493 -4.7395579e+21 1.6282814e-314 635.6095 416.49777
227.80423 -4.7401523e+21 1.6282814e-314 637.54504 416.51068
214.50247 -4.727826e+21 1.6282801e-314 639.44513 416.62903
195.94241 -4.7665659e+21 1.6282843e-314 641.26904 416.79138
200.6835 -4.8023515e+21 1.6282883e-314 643.23132 416.79611
185.88675 -4.8016895e+21 1.6282882e-314 645.52618 416.93289
171.66336 -4.8269232e+21 1.628291e-314 647.80237 417.07007
160.52738 -4.8545933e+21 1.628294e-314 650.11847 417.18716
148.65921 -4.8703829e+21 1.6282957e-314 652.31427 417.30524
131.29215 -4.8726707e+21 1.628296e-314 654.72986 417.46185
137.36453 -4.9463091e+21 1.6283041e-314 656.91052 417.46729
124.8282 -4.9549425e+21 1.628305e-314 659.0459 417.60919
124.5594 -4.9476377e+21 1.6283042e-314 661.13135 417.64426
122.47554 -4.9870397e+21 1.6283085e-314 663.1568 417.71106
118.16194 -5.0220912e+21 1.6283124e-314 665.15649 417.80707
112.53761 -5.0314632e+21 1.6283134e-314 667.52368 417.92224
93.219864 -5.0457756e+21 1.628315e-314 669.71216 418.22174
91.545609 -5.063781e+21 1.6283169e-314 672.31885 418.28827
95.861771 -5.1368294e+21 1.628325e-314 675.02344 418.28397
98.831376 -5.2099498e+21 1.628333e-314 677.4538 418.29373
83.742753 -5.1822797e+21 1.6283299e-314 679.82764 418.53122
80.222733 -5.198218e+21 1.6283317e-314 681.94141 418.61469
76.316178 -5.2359266e+21 1.6283358e-314 683.97766 418.70566
77.588517 -5.3347266e+21 1.6283467e-314 686.30304 418.74069
74.46016 -5.4030507e+21 1.6283542e-314 689.18115 418.83905
73.198075 -5.4156698e+21 1.6283555e-314 692.07227 418.90344
65.940506 -5.4787562e+21 1.6283625e-314 694.77216 419.05389
69.672989 -5.6038256e+21 1.6283762e-314 697.44592 419.06509
56.582405 -5.5858968e+21 1.6283742e-314 700.64191 419.38919
60.552956 -5.705652e+21 1.6283874e-314 703.67151 419.34805
57.336342 -5.8312394e+21 1.6284011e-314 706.59753 419.49988
54.484474 -5.8852511e+21 1.6284071e-314 709.6543 419.63275
60.012795 -6.091561e+21 1.6284297e-314 712.33325 419.55777
51.270394 -6.0500153e+21 1.6284251e-314 715.83246 419.84079
61.73954 -6.2755826e+21 1.6284499e-314 719.53241 419.65262
44184.399 -7.0783132e+21 1.6285379e-314 447.80551 402.16779
40367.586 -6.9990633e+21 1.6285292e-314 448.69855 402.35315
36732.305 -6.8994527e+21 1.6285183e-314 449.71698 402.52469
32693.949 -6.8147445e+21 1.628509e-314 450.89465 402.72882
31979.934 -6.7407369e+21 1.6285009e-314 451.99817 402.79605
30155.418 -6.6710076e+21 1.6284933e-314 453.04047 402.97949
29475.809 -6.615816e+21 1.6284872e-314 454.04318 403.048
28275.512 -6.5561208e+21 1.6284807e-314 455.08743 403.17007
26841.918 -6.5098553e+21 1.6284756e-314 456.21994 403.32236
25822.84 -6.4365142e+21 1.6284675e-314 457.49759 403.42514
24618.277 -6.373054e+21 1.6284606e-314 458.7937 403.5509
23128.981 -6.3165338e+21 1.6284544e-314 460.13178 403.7095
22683.652 -6.2490924e+21 1.628447e-314 461.49969 403.75601
20801.793 -6.1847495e+21 1.6284399e-314 462.86133 403.95401
20370.887 -6.1354621e+21 1.6284345e-314 464.23498 404.00507
19600.184 -6.0860261e+21 1.6284291e-314 465.54001 404.09067
17586.918 -6.0525238e+21 1.6284254e-314 466.69116 404.30948
17130.465 -6.0123111e+21 1.628421e-314 467.91858 404.36401
16309.459 -5.9681128e+21 1.6284161e-314 469.20727 404.46442
15687.357 -5.9153577e+21 1.6284104e-314 470.65891 404.60153
15243.35 -5.8697542e+21 1.6284054e-314 472.13211 404.70386
14554.732 -5.8252631e+21 1.6284005e-314 473.58365 404.85782
14215.912 -5.7826141e+21 1.6283958e-314 475.05545 404.93906
13851.693 -5.7586324e+21 1.6283932e-314 476.55102 405.0318
13469.787 -5.715024e+21 1.6283884e-314 478.09354 405.12308
13061.818 -5.6638902e+21 1.6283828e-314 479.47345 405.21512
12049.131 -5.628028e+21 1.6283788e-314 480.82541 405.43924
11581.037 -5.5980701e+21 1.6283756e-314 482.05804 405.54831
11345.928 -5.5476748e+21 1.62837e-314 483.37985 405.60352
10964.342 -5.5194867e+21 1.6283669e-314 484.7702 405.69742
10498.873 -5.485989e+21 1.6283633e-314 486.32147 405.81009
10061.584 -5.4333779e+21 1.6283575e-314 487.93085 405.91211
10092.225 -5.4075543e+21 1.6283547e-314 489.53842 405.923
9187.6622 -5.3779656e+21 1.6283514e-314 491.13641 406.13083
8626.9981 -5.3334701e+21 1.6283465e-314 492.81604 406.26279
7976.1436 -5.3212248e+21 1.6283452e-314 494.23492 406.46515
7838.0264 -5.3140641e+21 1.6283444e-314 495.62448 406.5433
7666.7334 -5.2956173e+21 1.6283424e-314 497.11734 406.63391
7603.4092 -5.2590931e+21 1.6283384e-314 498.70288 406.67496
7357.3194 -5.2359987e+21 1.6283358e-314 500.29584 406.79761
7059.378 -5.2129042e+21 1.6283333e-314 501.87955 406.9422
6839.1748 -5.157636e+21 1.6283272e-314 503.52734 407.04568
6846.878 -5.1377166e+21 1.6283251e-314 505.11908 407.06152
6385.2569 -5.1163921e+21 1.6283227e-314 506.69104 407.27631
6109.9248 -5.0896046e+21 1.6283198e-314 508.41815 407.41281
6048.3194 -5.0663616e+21 1.6283172e-314 509.9892 407.45697
5828.4483 -5.0428978e+21 1.6283146e-314 511.40793 407.56613
5651.9092 -5.0223839e+21 1.6283124e-314 512.8081 407.65738
5324.5576 -5.0024645e+21 1.6283102e-314 514.3288 407.815
5175.0537 -4.9770822e+21 1.6283074e-314 516.09113 407.89914
4923.4756 -5.0004694e+21 1.62831e-314 517.94958 408.04178
4825.499 -4.9668996e+21 1.6283063e-314 519.78961 408.10297
4634.3819 -4.9353158e+21 1.6283028e-314 521.56647 408.20349
4495.6084 -4.9429179e+21 1.6283037e-314 523.34509 408.29248
4236.9053 -4.9037366e+21 1.6282994e-314 525.04974 408.41873
4051.0679 -4.9004174e+21 1.628299e-314 526.58484 408.54022
3999.4995 -4.8756251e+21 1.6282963e-314 528.10632 408.60126
3951.5347 -4.8560705e+21 1.6282942e-314 529.62152 408.66052
3744.646 -4.8512742e+21 1.6282936e-314 531.21173 408.86069
3673.0073 -4.834156e+21 1.6282917e-314 532.94006 408.94428
3549.5542 -4.824122e+21 1.6282906e-314 534.7265 409.07489
3561.3511 -4.8120208e+21 1.6282893e-314 536.53961 409.08987
3383.5425 -4.8088457e+21 1.628289e-314 538.25958 409.26779
3307.1128 -4.7830221e+21 1.6282861e-314 540.10095 409.35501
3178.3745 -4.7475292e+21 1.6282822e-314 541.98163 409.48511
3079.2515 -4.7444308e+21 1.6282819e-314 543.56329 409.59375
3032.189 -4.739783e+21 1.6282814e-314 545.06165 409.65613
2901.853 -4.7312938e+21 1.6282805e-314 546.60101 409.78943
2831.1147 -4.7148033e+21 1.6282778e-314 548.2406 409.86932
2731.9097 -4.7051003e+21 1.6282757e-314 550.19769 409.97974
2656.6264 -4.6963565e+21 1.6282738e-314 552.09088 410.06924
2594.4067 -4.7051003e+21 1.6282757e-314 553.81146 410.15381
2503.6802 -4.6927424e+21 1.628273e-314 555.68793 410.25446
2376.0903 -4.6932941e+21 1.6282731e-314 557.49823 410.39218
2333.7778 -4.6840347e+21 1.6282711e-314 559.36377 410.45285
2240.8403 -4.6778737e+21 1.6282697e-314 561.08148 410.55615
2137.0474 -4.6812312e+21 1.6282705e-314 562.56622 410.66986
2103.4595 -4.6766195e+21 1.6282694e-314 564.24341 410.7225
1978.7366 -4.6814158e+21 1.6282705e-314 565.9953 410.9183
1938.678 -4.6489494e+21 1.6282634e-314 567.79242 410.99902
1815.5725 -4.6516042e+21 1.628264e-314 569.81152 411.2428
1819.136 -4.6671372e+21 1.6282674e-314 571.67017 411.27325
1738.0764 -4.6229388e+21 1.6282577e-314 575.83124 411.45578
1545.2366 -4.6143797e+21 1.6282558e-314 579.11762 411.83377
1512.4895 -4.6645183e+21 1.6282668e-314 580.65936 411.93759
1489.2854 -4.6965051e+21 1.6282738e-314 582.27295 412.01755
1579.8889 -4.640611e+21 1.6282615e-314 584.42712 411.86969
1488.1184 -4.6308719e+21 1.6282594e-314 586.16516 412.04953
1450.3528 -4.6655519e+21 1.628267e-314 588.2215 412.16263
1363.9065 -4.6513475e+21 1.6282639e-314 590.07483 412.33307
1342.8538 -4.6327522e+21 1.6282598e-314 592.09741 412.39215
1321.4719 -4.679718e+21 1.6282701e-314 594.06421 412.48117
1239.429 -4.6230131e+21 1.6282577e-314 596.07361 412.62711
1255.8342 -4.6502036e+21 1.6282637e-314 597.84576 412.63913
1230.3567 -4.6533021e+21 1.6282643e-314 599.56244 412.71103
1154.8264 -4.6548153e+21 1.6282647e-314 601.27405 412.86783
1150.2795 -4.663854e+21 1.6282666e-314 603.10101 412.90826
1113.0881 -4.6621562e+21 1.6282663e-314 605.06506 413.00189
1025.4954 -4.6671754e+21 1.6282674e-314 607.15185 413.1868
1008.3229 -4.6648876e+21 1.6282669e-314 609.21558 413.27429
1001.9122 -4.6583934e+21 1.6282654e-314 611.32477 413.32632
970.97718 -4.6619715e+21 1.6282662e-314 613.40851 413.46643
949.27893 -4.6777994e+21 1.6282697e-314 615.41174 413.57904
939.05921 -4.6807515e+21 1.6282704e-314 617.29785 413.64481
879.56507 -4.6766938e+21 1.6282695e-314 619.06775 413.87436
890.81848 -4.6868382e+21 1.6282717e-314 620.79443 413.86725
862.6178 -4.6979057e+21 1.6282741e-314 622.68292 413.99805
848.4762 -4.6948073e+21 1.6282734e-314 624.87701 414.07941
838.6969 -4.6919295e+21 1.6282728e-314 627.15057 414.14722
818.01233 -4.7095273e+21 1.6282767e-314 629.16119 414.25696
775.70081 -4.7070571e+21 1.6282761e-314 631.35248 414.43487
756.03968 -4.7061699e+21 1.6282759e-314 633.60419 414.53699
747.10022 -4.7354281e+21 1.6282809e-314 635.72668 414.61026
732.35462 -4.7418457e+21 1.6282816e-314 637.67609 414.69254
714.70081 -4.760959e+21 1.6282837e-314 639.52069 414.78568
689.17249 -4.7695158e+21 1.6282847e-314 641.41193 414.90427
667.66858 -4.8048601e+21 1.6282885e-314 643.36585 415.01553
657.193 -4.8249326e+21 1.6282907e-314 645.60663 415.09049
618.0763 -4.8382137e+21 1.6282922e-314 647.92432 415.26294
599.27552 -4.8444107e+21 1.6282929e-314 650.24085 415.36462
599.08118 -4.8568811e+21 1.6282942e-314 652.50214 415.4032
599.08118 -4.9021873e+21 1.6282992e-314 654.79547 415.44824
556.8512 -4.9227012e+21 1.6283015e-314 657.11176 415.63254
561.72571 -4.9431386e+21 1.6283037e-314 659.23767 415.65329
545.76136 -4.9510334e+21 1.6283046e-314 661.25049 415.74078
502.67145 -4.9847563e+21 1.6283083e-314 663.18945 415.92456
523.61243 -5.0108007e+21 1.6283111e-314 665.31805 415.89172
506.01984 -5.0594981e+21 1.6283165e-314 667.6944 415.99835
440.60675 -5.0741123e+21 1.6283181e-314 670.14001 416.26196
418.00714 -5.1239176e+21 1.6283235e-314 672.58105 416.38657
422.34894 -5.1550555e+21 1.628327e-314 675.18524 416.41858
423.48541 -5.1925389e+21 1.6283311e-314 677.61523 416.45999
356.40338 -5.1836083e+21 1.6283301e-314 680.05322 416.72421
400.95758 -5.2309816e+21 1.6283353e-314 682.07123 416.61359
368.84479 -5.2729642e+21 1.6283399e-314 684.11194 416.76242
349.16364 -5.3494849e+21 1.6283483e-314 686.46808 416.88037
337.09064 -5.40342e+21 1.6283542e-314 689.27588 416.97528
320.30719 -5.4727078e+21 1.6283618e-314 692.0625 417.08859
299.92975 -5.5153569e+21 1.6283665e-314 694.88916 417.20963
303.37042 -5.5588167e+21 1.6283712e-314 697.81824 417.25195
292.52619 -5.6583552e+21 1.6283822e-314 700.60907 417.35049
270.14142 -5.7075706e+21 1.6283876e-314 703.60645 417.4819
281.63068 -5.758781e+21 1.6283932e-314 706.9046 417.50427
269.93659 -5.8879803e+21 1.6284074e-314 709.86145 417.61331
265.1546 -6.0388013e+21 1.6284239e-314 712.61847 417.69971
236.98441 -6.0667642e+21 1.628427e-314 716.36737 417.92175
261.09967 -6.1996564e+21 1.6284416e-314 720.32208 417.86301
90907.672 -7.1179359e+21 1.6285423e-314 447.99927 400.42242
82505.922 -7.0172894e+21 1.6285312e-314 448.99454 400.61972
73341.36 -6.9296313e+21 1.6285216e-314 449.99487 400.84198
67844.235 -6.8543672e+21 1.6285134e-314 451.05014 400.97464
64567.399 -6.7476003e+21 1.6285017e-314 452.23199 401.06595
62617.055 -6.6954307e+21 1.6284959e-314 453.20987 401.1644
61556.68 -6.6322677e+21 1.628489e-314 454.23627 401.21356
57398.43 -6.5745675e+21 1.6284827e-314 455.23605 401.42575
54853.649 -6.5001906e+21 1.6284745e-314 456.41855 401.55118
52632.649 -6.4266243e+21 1.6284664e-314 457.72043 401.66205
50568.899 -6.3764497e+21 1.6284609e-314 458.98517 401.77231
48399.024 -6.3146918e+21 1.6284542e-314 460.34305 401.88574
47149.242 -6.2517495e+21 1.6284473e-314 461.70959 401.9509
44508.805 -6.2125682e+21 1.628443e-314 462.99576 402.09586
41895.867 -6.1505131e+21 1.6284362e-314 464.41348 402.23377
39206.274 -6.1094898e+21 1.6284317e-314 465.67374 402.38058
37648.492 -6.0438183e+21 1.6284245e-314 466.96133 402.46024
35871.149 -6.0126084e+21 1.628421e-314 468.10623 402.56088
34185.555 -5.9668608e+21 1.628416e-314 469.41836 402.65454
32444.918 -5.9093769e+21 1.6284097e-314 470.88379 402.76663
31068.668 -5.8816347e+21 1.6284067e-314 472.29578 402.92422
29398.809 -5.8371391e+21 1.6284018e-314 473.80106 403.10873
29125.527 -5.798845e+21 1.6283976e-314 475.26431 403.14764
28365.965 -5.7617309e+21 1.6283935e-314 476.78259 403.2391
27135.527 -5.710597e+21 1.6283879e-314 478.27988 403.37537
26339.59 -5.6757707e+21 1.6283841e-314 479.63916 403.46909
26083.668 -5.636738e+21 1.6283798e-314 480.9729 403.50412
24487.543 -5.622349e+21 1.6283782e-314 482.22098 403.68744
22352.699 -5.5768221e+21 1.6283732e-314 483.6322 403.92026
21246.777 -5.5411085e+21 1.6283693e-314 485.09811 404.04852
20841.777 -5.4915239e+21 1.6283639e-314 486.64822 404.09958
19916.731 -5.4640024e+21 1.6283608e-314 488.1766 404.21246
18991.356 -5.4217947e+21 1.6283562e-314 489.78897 404.32208
17407.027 -5.4140485e+21 1.6283554e-314 491.29336 404.51086
17184.199 -5.3651979e+21 1.62835e-314 493.00668 404.54575
16129.725 -5.3412928e+21 1.6283474e-314 494.49301 404.70007
16295.529 -5.3311822e+21 1.6283463e-314 495.91598 404.68393
16021.1 -5.3071285e+21 1.6283436e-314 497.28604 404.75589
15352.303 -5.2660287e+21 1.6283391e-314 498.81668 404.90878
14986.779 -5.230761e+21 1.6283353e-314 500.50705 405.00171
14376.311 -5.2124628e+21 1.6283333e-314 502.13776 405.15106
13914.936 -5.1757135e+21 1.6283292e-314 503.79504 405.26355
13046.256 -5.1530604e+21 1.6283267e-314 505.35913 405.46558
12999.068 -5.1265747e+21 1.6283238e-314 507.01993 405.49338
12249.998 -5.112555e+21 1.6283223e-314 508.67099 405.67413
12070.92 -5.0792734e+21 1.6283186e-314 510.25256 405.72675
11694.248 -5.0544811e+21 1.6283159e-314 511.70587 405.82202
11068.217 -5.0395787e+21 1.6283143e-314 513.11108 405.97269
10663.693 -5.020024e+21 1.6283121e-314 514.6543 406.07703
10359.115 -5.0009873e+21 1.6283101e-314 516.3291 406.16229
10530.17 -4.9927232e+21 1.6283091e-314 518.19721 406.1525
9820.9043 -4.9682236e+21 1.6283065e-314 519.94305 406.32349
9319.8809 -4.9334739e+21 1.6283026e-314 521.7077 406.44745
8885.5371 -4.9489662e+21 1.6283043e-314 523.4704 406.57217
8416.959 -4.9113342e+21 1.6283002e-314 525.15314 406.68719
8191.1006 -4.8976117e+21 1.6282987e-314 526.70068 406.75565
8023.8193 -4.8927433e+21 1.6282982e-314 528.16034 406.84839
7788.0537 -4.8638167e+21 1.628295e-314 529.69727 406.96448
7585.8779 -4.8325302e+21 1.6282916e-314 531.32367 407.06702
7314.7217 -4.8309089e+21 1.6282914e-314 533.07098 407.20963
7016.124 -4.8226448e+21 1.6282905e-314 534.86682 407.36279
7079.6943 -4.8001403e+21 1.628288e-314 536.74616 407.35846
6848.2686 -4.8033874e+21 1.6282884e-314 538.44989 407.48486
6751.6865 -4.7801443e+21 1.6282858e-314 540.2417 407.54739
6483.9717 -4.7414764e+21 1.6282816e-314 542.07172 407.67932
6271.4717 -4.7470113e+21 1.6282822e-314 543.646 407.79629
6142.6084 -4.7391165e+21 1.6282813e-314 545.1748 407.87305
5826.6436 -4.717645e+21 1.6282784e-314 546.72528 408.02493
5719.9014 -4.7162804e+21 1.6282781e-314 548.34815 408.09515
5438.5889 -4.7084217e+21 1.6282764e-314 550.23566 408.24057
5265.4091 -4.7090116e+21 1.6282766e-314 552.1228 408.34445
5038.7353 -4.7004165e+21 1.6282747e-314 553.99268 408.46585
4864.8213 -4.6967641e+21 1.6282739e-314 555.82526 408.56686
4480.2861 -4.6968744e+21 1.6282739e-314 557.58215 408.75891
4373.708 -4.679718e+21 1.6282701e-314 559.46045 408.82446
4281.0596 -4.6883153e+21 1.628272e-314 561.14618 408.89514
4168.9111 -4.6808979e+21 1.6282704e-314 562.77154 408.96451
4295.8057 -4.6754756e+21 1.6282692e-314 564.31433 408.93131
4082.5239 -4.6858789e+21 1.6282715e-314 566.17865 409.0632
3919.5044 -4.6724492e+21 1.6282685e-314 567.70831 409.21939
3766.8872 -4.6663625e+21 1.6282672e-314 570.06177 409.38358
3662.8071 -4.6874281e+21 1.6282718e-314 571.7489 409.51034
3732.1528 -4.6780944e+21 1.6282698e-314 573.54852 409.47412
3557.4165 -4.654741e+21 1.6282646e-314 575.86536 409.64749
3399.0669 -4.6521965e+21 1.6282641e-314 577.42096 409.80612
3277.9888 -4.654705e+21 1.6282646e-314 579.20502 409.93909
3413.3618 -4.6572878e+21 1.6282652e-314 580.90491 409.85107
3348.2759 -4.6980183e+21 1.6282741e-314 582.59155 409.95465
3079.3325 -4.6218692e+21 1.6282574e-314 584.57666 410.17612
3064.2173 -4.6614919e+21 1.6282661e-314 586.30219 410.23672
2912.4614 -4.6849939e+21 1.6282713e-314 588.24927 410.4093
2777.2935 -4.6510886e+21 1.6282638e-314 590.25971 410.53897
2682.7583 -4.6524171e+21 1.6282641e-314 592.15558 410.6503
2609.3169 -4.6693507e+21 1.6282679e-314 594.16711 410.75333
2537.5552 -4.6429348e+21 1.6282621e-314 596.15668 410.83246
2485.4946 -4.6478798e+21 1.6282631e-314 598.01392 410.90863
2386.0435 -4.640352e+21 1.6282615e-314 599.73023 411.01688
2289.8286 -4.6521222e+21 1.6282641e-314 601.37964 411.13104
2247.3521 -4.6523068e+21 1.6282641e-314 603.23834 411.19662
2092.8931 -4.6578395e+21 1.6282653e-314 605.22949 411.36279
2120.7446 -4.6619715e+21 1.6282662e-314 607.28485 411.3732
1997.6399 -4.6754756e+21 1.6282692e-314 609.32031 411.56024
1979.2698 -4.6647773e+21 1.6282668e-314 611.41107 411.61914
1939.2512 -4.6723028e+21 1.6282685e-314 613.47858 411.72372
1902.8381 -4.6870228e+21 1.6282717e-314 615.49957 411.82489
1850.0813 -4.6815622e+21 1.6282705e-314 617.42993 411.94275
1785.8567 -4.6804926e+21 1.6282703e-314 619.16376 412.07929
1751.3069 -4.6831857e+21 1.6282709e-314 620.94714 412.16763
1714.6272 -4.6919678e+21 1.6282728e-314 622.89819 412.26517
1707.1926 -4.6931094e+21 1.6282731e-314 624.98035 412.31101
1658.3069 -4.6992343e+21 1.6282744e-314 627.22034 412.43265
1626.1331 -4.7025557e+21 1.6282751e-314 629.37506 412.52301
1549.0461 -4.6997139e+21 1.6282745e-314 631.54602 412.68753
1537.7004 -4.7137337e+21 1.6282776e-314 633.65137 412.74649
1471.386 -4.7513663e+21 1.6282827e-314 635.79999 412.9043
1438.2288 -4.7480471e+21 1.6282823e-314 637.78491 412.99127
1431.1223 -4.7656787e+21 1.6282842e-314 639.63861 413.03656
1373.0208 -4.7825762e+21 1.6282861e-314 641.53711 413.16946
1334.4358 -4.794754e+21 1.6282874e-314 643.50586 413.26898
1339.6995 -4.814232e+21 1.6282896e-314 645.77289 413.29999
1262.0598 -4.8293596e+21 1.6282912e-314 648.0379 413.47147
1235.6819 -4.844852e+21 1.6282929e-314 650.38672 413.55679
1205.9856 -4.8805656e+21 1.6282968e-314 652.55792 413.64957
1126.134 -4.8837406e+21 1.6282972e-314 654.95313 413.82398
1124.0247 -4.9094156e+21 1.6283e-314 657.32617 413.87054
1079.3987 -4.9381216e+21 1.6283032e-314 659.35907 413.98486
1026.3352 -4.9895482e+21 1.6283088e-314 661.26807 414.11655
1017.7433 -5.001208e+21 1.6283101e-314 663.31146 414.17642
1051.1565 -4.9970782e+21 1.6283096e-314 665.5213 414.14267
1031.3323 -5.0503513e+21 1.6283155e-314 667.89856 414.22546
985.03675 -5.07758e+21 1.6283185e-314 670.41809 414.41595
961.31067 -5.116982e+21 1.6283228e-314 672.83069 414.543
934.60511 -5.1536503e+21 1.6283268e-314 675.35297 414.68124
958.55628 -5.2195425e+21 1.628334e-314 677.7641 414.65201
925.04065 -5.2088465e+21 1.6283329e-314 680.25934 414.80258
882.00208 -5.2024243e+21 1.6283321e-314 682.44775 414.98163
891.85315 -5.2417543e+21 1.6283365e-314 684.40326 414.98727
869.59095 -5.3798842e+21 1.6283516e-314 689.46466 415.17145
847.44202 -5.4659209e+21 1.6283611e-314 692.23431 415.30795
859.9347 -5.5315879e+21 1.6283683e-314 694.99915 415.32291
789.13538 -5.5613252e+21 1.6283715e-314 697.84393 415.61285
803.10267 -5.6408678e+21 1.6283802e-314 700.77881 415.62824
795.17688 -5.746234e+21 1.6283918e-314 703.81567 415.72433
794.92102 -5.8181024e+21 1.6283997e-314 706.93573 415.78894
812.96399 -5.9104127e+21 1.6284098e-314 710.06232 415.79639
806.90198 -6.0425663e+21 1.6284243e-314 713.02252 415.89029
794.51136 -6.0920744e+21 1.6284297e-314 716.1648 415.9913
828.79505 -6.453781e+21 1.6284694e-314 720.60205 416.01993
149233.47 -7.0239322e+21 1.628532e-314 449.23019 398.89691
139874.84 -6.9423945e+21 1.628523e-314 450.22498 399.12427
137671.59 -6.8545158e+21 1.6285134e-314 451.30841 399.16534
134002.84 -6.7706182e+21 1.6285042e-314 452.39151 399.24606
129931.73 -6.7172731e+21 1.6284983e-314 453.3938 399.3476
123872.23 -6.6469539e+21 1.6284906e-314 454.4339 399.4953
122149.98 -6.5709512e+21 1.6284823e-314 455.50232 399.52847
116378.86 -6.5093419e+21 1.6284755e-314 456.6261 399.67358
111375.86 -6.4382841e+21 1.6284677e-314 457.87579 399.7973
104940.23 -6.3676677e+21 1.62846e-314 459.26627 399.96103
99599.047 -6.3117375e+21 1.6284538e-314 460.5491 400.10013
93973.422 -6.2656972e+21 1.6284488e-314 461.86264 400.25095
89890.547 -6.2071098e+21 1.6284424e-314 463.23926 400.35794
86723.86 -6.1500718e+21 1.6284361e-314 464.56836 400.44086
83901.86 -6.1170153e+21 1.6284325e-314 465.78384 400.52176
82425.985 -6.0750283e+21 1.6284279e-314 467.02164 400.56455
74379.485 -6.0337843e+21 1.6284234e-314 468.22824 400.77963
69160.172 -5.9770435e+21 1.6284171e-314 469.57382 400.9173
66192.735 -5.9309266e+21 1.6284121e-314 471.01028 401.00113
63950.055 -5.8900474e+21 1.6284076e-314 472.49027 401.11026
62466.305 -5.8440026e+21 1.6284025e-314 473.98425 401.19519
60381.617 -5.7964131e+21 1.6283973e-314 475.46869 401.31119
55173.461 -5.7499269e+21 1.6283922e-314 476.96335 401.5925
54996.524 -5.714952e+21 1.6283884e-314 478.45142 401.61267
54634.117 -5.6728929e+21 1.6283838e-314 479.81393 401.63821
53333.867 -5.6363687e+21 1.6283798e-314 481.14581 401.71472
50125.242 -5.6162241e+21 1.6283775e-314 482.42178 401.897
47781.68 -5.5762321e+21 1.6283732e-314 483.83716 402.0289
44781.43 -5.5464228e+21 1.6283699e-314 485.38803 402.20129
41804.117 -5.5035485e+21 1.6283652e-314 486.92319 402.36786
41895.867 -5.4691635e+21 1.6283614e-314 488.53598 402.37628
39132.211 -5.4502034e+21 1.6283593e-314 490.09634 402.54037
38406.086 -5.4006908e+21 1.6283539e-314 491.70947 402.58695
37117.649 -5.3667472e+21 1.6283502e-314 493.35385 402.66919
35249.211 -5.348377e+21 1.6283482e-314 494.74896 402.78372
33791.711 -5.3288944e+21 1.628346e-314 496.13748 402.87601
32015.981 -5.2948787e+21 1.6283423e-314 497.53824 403.02035
31509.715 -5.2693523e+21 1.6283395e-314 499.0123 403.08841
30259.949 -5.2444114e+21 1.6283368e-314 500.65695 403.23834
29468.277 -5.2181419e+21 1.6283339e-314 502.31641 403.33942
28513.746 -5.1801405e+21 1.6283297e-314 503.96906 403.45386
27588.043 -5.172025e+21 1.6283288e-314 505.56903 403.57449
26014.527 -5.1395586e+21 1.6283253e-314 507.28137 403.75766
25997.152 -5.1082721e+21 1.6283218e-314 508.93988 403.77502
25137.652 -5.0924824e+21 1.6283201e-314 510.48209 403.88528
24508.184 -5.0653302e+21 1.6283171e-314 511.92218 403.96576
23840.043 -5.058764e+21 1.6283164e-314 513.31006 404.05637
22554.231 -5.0397993e+21 1.6283143e-314 514.89325 404.21173
21261.856 -5.0042344e+21 1.6283104e-314 516.57172 404.36395
20143.809 -4.9926512e+21 1.6283091e-314 518.35596 404.50711
20174.949 -4.9652017e+21 1.6283061e-314 520.10022 404.52213
19182.402 -4.9381936e+21 1.6283032e-314 521.84815 404.64648
18435.293 -4.9404094e+21 1.6283034e-314 523.58618 404.754
17047.559 -4.9097129e+21 1.6283e-314 525.25134 404.91809
16831.949 -4.8949546e+21 1.6282984e-314 526.85156 404.96133
16046.662 -4.8750306e+21 1.6282962e-314 528.34326 405.09805
15953.436 -4.8711981e+21 1.6282958e-314 529.82446 405.13986
15450.936 -4.8480991e+21 1.6282933e-314 531.41168 405.26456
15095.732 -4.8289903e+21 1.6282912e-314 533.24048 405.36291
14829.162 -4.8191004e+21 1.6282901e-314 534.97809 405.44385
14261.295 -4.8048601e+21 1.6282885e-314 536.771 405.58865
13620.186 -4.8050807e+21 1.6282886e-314 538.54291 405.75336
13538.271 -4.7668632e+21 1.6282844e-314 540.3952 405.78787
13248.436 -4.7656787e+21 1.6282842e-314 542.12952 405.87656
12839.49 -4.7565319e+21 1.6282832e-314 543.73395 405.98618
12649.928 -4.7420709e+21 1.6282816e-314 545.29529 406.0466
11657.553 -4.7178657e+21 1.6282785e-314 546.8559 406.27432
11642.146 -4.726574e+21 1.6282799e-314 548.48663 406.30716
11231.24 -4.7030354e+21 1.6282752e-314 550.34503 406.41095
10575.225 -4.7061338e+21 1.6282759e-314 552.19562 406.58209
10281.291 -4.6910805e+21 1.6282726e-314 554.15381 406.66647
9642.3144 -4.6745906e+21 1.628269e-314 556.07336 406.82327
9321.1894 -4.7117791e+21 1.6282772e-314 557.72034 406.94013
9099.5098 -4.6918552e+21 1.6282728e-314 559.62793 407.00543
8906.3457 -4.6903802e+21 1.6282725e-314 561.30621 407.07211
8594.7207 -4.6926298e+21 1.628273e-314 562.80359 407.16357
8453.166 -4.679754e+21 1.6282701e-314 564.45337 407.21197
7956.3994 -4.6899366e+21 1.6282724e-314 566.2644 407.40311
7886.2744 -4.6608659e+21 1.628266e-314 567.94635 407.44223
7851.294 -4.6840347e+21 1.6282711e-314 570.00281 407.50308
7558.0205 -4.6730414e+21 1.6282687e-314 571.83264 407.65079
7251.9697 -4.6720078e+21 1.6282684e-314 573.75909 407.81137
6848.5127 -4.664739e+21 1.6282668e-314 575.94025 408.01404
6608.9776 -4.6396517e+21 1.6282613e-314 579.35138 408.15552
6668.9463 -4.6539664e+21 1.6282645e-314 581.01239 408.16409
6609.5518 -4.6646287e+21 1.6282668e-314 582.74036 408.22272
6586.9424 -4.6650723e+21 1.6282669e-314 584.44653 408.25937
6149.2432 -4.6228645e+21 1.6282577e-314 586.38904 408.45309
5847.9424 -4.6834064e+21 1.6282709e-314 588.26007 408.64591
5838.5205 -4.669389e+21 1.6282679e-314 590.34003 408.67453
5659.9346 -4.6337114e+21 1.62826e-314 592.41235 408.76328
5461.1963 -4.6690197e+21 1.6282678e-314 594.39124 408.89932
5118.8526 -4.6292484e+21 1.6282591e-314 596.33276 409.05408
5143.5127 -4.6522685e+21 1.6282641e-314 598.08496 409.0838
4819.0283 -4.6583191e+21 1.6282654e-314 599.75366 409.25226
4740.3838 -4.6524532e+21 1.6282641e-314 601.48218 409.30978
4537.4697 -4.644117e+21 1.6282623e-314 603.34613 409.42129
4347.169 -4.6531557e+21 1.6282643e-314 605.37469 409.53955
4177.4307 -4.664113e+21 1.6282667e-314 607.38129 409.64966
4068.5571 -4.6557003e+21 1.6282649e-314 609.51739 409.73691
4028.0064 -4.6657726e+21 1.6282671e-314 611.53339 409.80869
3984.5474 -4.6577674e+21 1.6282653e-314 613.66187 409.87494
3834.1431 -4.6796437e+21 1.6282701e-314 615.65912 410.04681
3715.4009 -4.6772095e+21 1.6282696e-314 617.4848 410.17575
3633.9712 -4.6713795e+21 1.6282683e-314 619.31152 410.27094
3562.1275 -4.6758809e+21 1.6282693e-314 621.11072 410.36307
3566.5103 -4.6845503e+21 1.6282712e-314 623.01141 410.39371
3394.1099 -4.6980544e+21 1.6282742e-314 625.06561 410.58054
3325.5845 -4.7028867e+21 1.6282752e-314 627.32025 410.67703
3334.3091 -4.7031817e+21 1.6282753e-314 629.45648 410.70322
3207.8247 -4.7172757e+21 1.6282784e-314 631.63135 410.85287
3108.0864 -4.7177554e+21 1.6282785e-314 633.81018 410.97253
3072.4927 -4.7405171e+21 1.6282815e-314 635.96906 411.04392
2941.8696 -4.7425843e+21 1.6282817e-314 637.8443 411.18545
2807.8091 -4.7580046e+21 1.6282834e-314 639.75909 411.33398
2865.9712 -4.7846434e+21 1.6282863e-314 641.61877 411.32031
2810.061 -4.7775592e+21 1.6282855e-314 643.62323 411.39767
2700.2876 -4.8205776e+21 1.6282903e-314 645.88477 411.53787
2470.9536 -4.8388037e+21 1.6282923e-314 648.21258 411.77466
2555.2075 -4.8559939e+21 1.6282941e-314 650.41071 411.74161
2422.6216 -4.8753999e+21 1.6282963e-314 652.67883 411.89517
2369.0864 -4.8981296e+21 1.6282988e-314 655.00037 411.98291
2279.4653 -4.9126627e+21 1.6283004e-314 657.38562 412.10037
2221.9986 -4.9325866e+21 1.6283025e-314 659.52972 412.18793
2183.0864 -4.9697774e+21 1.6283066e-314 661.46503 412.26065
2105.0571 -4.9817299e+21 1.6283079e-314 663.52661 412.3624
2034.4837 -5.030058e+21 1.6283132e-314 665.56567 412.47781
2040.0335 -5.0459963e+21 1.628315e-314 668.03125 412.51102
2015.3342 -5.0804578e+21 1.6283188e-314 670.52985 412.60068
1962.1272 -5.1327716e+21 1.6283245e-314 672.95398 412.74188
1881.4778 -5.1456835e+21 1.6283259e-314 675.50207 412.922
1925.5706 -5.2240461e+21 1.6283345e-314 677.82929 412.90259
1890.7962 -5.255184e+21 1.6283379e-314 680.3114 413.00803
1869.2102 -5.2327516e+21 1.6283355e-314 682.7273 413.07724
1787.9661 -5.3281603e+21 1.6283459e-314 684.55798 413.26642
1737.2366 -5.3609195e+21 1.6283495e-314 687.13104 413.40051
1768.9602 -5.416557e+21 1.6283556e-314 689.63287 413.39923
1707.3362 -5.4468797e+21 1.628359e-314 692.4079 413.55423
1674.9778 -5.5107092e+21 1.628366e-314 695.14258 413.66681
1692.2629 -5.6025736e+21 1.628376e-314 697.9469 413.70313
1678.3772 -5.6435249e+21 1.6283805e-314 701.0271 413.78451
1606.5129 -5.7432841e+21 1.6283915e-314 704.11352 413.97717
1595.5559 -5.8848818e+21 1.628407e-314 707.11993 414.07532
1564.8772 -5.8487269e+21 1.6284031e-314 710.27545 414.16827
1699.3284 -6.0030878e+21 1.62842e-314 713.20264 414.02396
1595.4534 -6.1094133e+21 1.6284317e-314 716.86377 414.28
1725.1741 -6.2863552e+21 1.6284511e-314 720.63422 414.16272
204848.59 -6.8613793e+21 1.6285141e-314 451.53952 397.42716
200995.09 -6.7716541e+21 1.6285043e-314 452.64621 397.50876
196231.97 -6.7076084e+21 1.6284973e-314 453.66965 397.62311
193769.09 -6.6528581e+21 1.6284913e-314 454.63 397.68039
187849.84 -6.581431e+21 1.6284834e-314 455.69293 397.82284
186330.72 -6.5105219e+21 1.6284757e-314 456.8609 397.8526
178335.34 -6.4546637e+21 1.6284695e-314 458.07257 398.05807
172948.34 -6.3789582e+21 1.6284612e-314 459.43893 398.19031
170287.47 -6.3242845e+21 1.6284552e-314 460.71262 398.2583
161673.47 -6.267985e+21 1.628449e-314 462.05453 398.48257
157871.09 -6.2217916e+21 1.628444e-314 463.38068 398.58484
154773.84 -6.1618036e+21 1.6284374e-314 464.75504 398.66409
150305.59 -6.1105211e+21 1.6284318e-314 466.02692 398.78122
148844.09 -6.0824817e+21 1.6284287e-314 467.20978 398.82712
145445.47 -6.0343022e+21 1.6284234e-314 468.43076 398.91675
138590.34 -5.9836818e+21 1.6284179e-314 469.75293 399.09793
131747.09 -5.9330658e+21 1.6284123e-314 471.17548 399.28061
130788.92 -5.8865797e+21 1.6284072e-314 472.67432 399.3114
126491.11 -5.8527846e+21 1.6284035e-314 474.14233 399.43451
120726.55 -5.7982551e+21 1.6283975e-314 475.64139 399.58893
119968.92 -5.7616588e+21 1.6283935e-314 477.13031 399.61822
113056.17 -5.7146547e+21 1.6283883e-314 478.62619 399.806
110369.23 -5.6943615e+21 1.6283861e-314 479.92346 399.88946
103827.42 -5.6535589e+21 1.6283816e-314 481.25775 400.06757
100811.48 -5.6269967e+21 1.6283787e-314 482.5806 400.1579
98107.422 -5.5808798e+21 1.6283737e-314 484.01019 400.23434
93172.547 -5.5510705e+21 1.6283704e-314 485.54303 400.37756
89971.797 -5.5182347e+21 1.6283668e-314 487.10577 400.4744
86529.86 -5.4680601e+21 1.6283613e-314 488.73544 400.5722
81967.235 -5.4288023e+21 1.628357e-314 490.33078 400.70337
80376.047 -5.4045999e+21 1.6283543e-314 491.93616 400.76163
75357.297 -5.3898461e+21 1.6283527e-314 493.46152 400.91293
72063.422 -5.3663058e+21 1.6283501e-314 494.86035 401.01346
68629.36 -5.3331773e+21 1.6283465e-314 496.29401 401.11469
65342.68 -5.2999002e+21 1.6283428e-314 497.69244 401.21668
63481.461 -5.2818183e+21 1.6283409e-314 499.12634 401.33124
62202.867 -5.2495005e+21 1.6283373e-314 500.82929 401.41394
59825.867 -5.2433035e+21 1.6283366e-314 502.39542 401.56235
58765.492 -5.2019109e+21 1.6283321e-314 504.08539 401.6301
55512.305 -5.1710658e+21 1.6283287e-314 505.75449 401.81793
53723.805 -5.1481199e+21 1.6283262e-314 507.46661 401.93152
51905.18 -5.1106365e+21 1.6283221e-314 509.12476 402.04071
50125.242 -5.0814892e+21 1.6283189e-314 510.64535 402.14877
49368.961 -5.0749229e+21 1.6283182e-314 512.03754 402.20844
48195.211 -5.0642944e+21 1.628317e-314 513.51202 402.29016
47406.149 -5.0429699e+21 1.6283147e-314 515.0271 402.3483
43995.649 -5.0089542e+21 1.6283109e-314 516.76398 402.54501
43098.461 -4.9923539e+21 1.6283091e-314 518.49023 402.61395
40288.93 -4.9713266e+21 1.6283068e-314 520.20447 402.78305
37809.711 -4.9353158e+21 1.6283028e-314 521.98041 402.93039
37355.555 -4.9414407e+21 1.6283035e-314 523.72632 402.98401
35180.399 -4.9098615e+21 1.6283001e-314 525.40448 403.11527
34842.899 -4.8845513e+21 1.6282973e-314 526.97876 403.14911
33259.555 -4.8774671e+21 1.6282965e-314 528.45233 403.25418
31833.137 -4.8764358e+21 1.6282964e-314 529.95789 403.40332
