# .PCD v0.7 - Point Cloud Data file format
VERSION 0.7
FIELDS x y z p_x p_y
SIZE 8 8 8 8 8
TYPE F F F F F
COUNT 1 1 1 1 1
WIDTH 753
HEIGHT 1
VIEWPOINT 0 0 0 1 0 0 0
POINTS 753
DATA ascii
4.8625918e+10 -9.5214766e+21 1.6288018e-314 569.76263 346.72967
5.2241408e+10 -9.5834552e+21 1.6288052e-314 571.74475 346.9263
5.0409185e+10 -9.5613155e+21 1.6288039e-314 573.74573 347.0769
5.2213064e+10 -9.5908321e+21 1.6288056e-314 575.74969 347.14844
5.3272191e+10 -9.6129718e+21 1.6288068e-314 577.79834 347.31964
5.3676778e+10 -9.6225644e+21 1.6288073e-314 579.82471 347.41922
5.4089982e+10 -9.6351024e+21 1.628808e-314 581.72748 347.59271
5.3293687e+10 -9.6284641e+21 1.6288076e-314 583.70904 347.75351
5.4394036e+10 -9.6491267e+21 1.6288088e-314 585.71814 347.86777
5.4869074e+10 -9.6616647e+21 1.6288094e-314 587.86206 348.01404
5.5203209e+10 -9.6727345e+21 1.6288101e-314 589.95801 348.17825
5.4607946e+10 -9.6697892e+21 1.6288099e-314 592.12164 348.35327
5.5090684e+10 -9.6815886e+21 1.6288105e-314 594.15143 348.47705
5.5510737e+10 -9.6948742e+21 1.6288113e-314 596.43994 348.65949
5.5843168e+10 -9.7074213e+21 1.628812e-314 598.58691 348.87161
5.6757134e+10 -9.7229136e+21 1.6288128e-314 600.74213 348.93695
5.4885393e+10 -9.7015125e+21 1.6288116e-314 602.84882 349.12384
5.6507179e+10 -9.7295519e+21 1.6288132e-314 605.0437 349.23068
5.6105181e+10 -9.7310291e+21 1.6288133e-314 607.29285 349.42908
5.6269218e+10 -9.7391446e+21 1.6288137e-314 609.56897 349.58041
5.5534789e+10 -9.7317677e+21 1.6288133e-314 611.82947 349.69876
5.5964279e+10 -9.7443147e+21 1.628814e-314 614.2193 349.88141
5.4991037e+10 -9.7347221e+21 1.6288135e-314 616.56946 350.01712
5.594796e+10 -9.7524302e+21 1.6288144e-314 619.04571 350.1264
5.5429145e+10 -9.7516916e+21 1.6288144e-314 621.42456 350.32626
5.4042731e+10 -9.738406e+21 1.6288137e-314 623.75885 350.53369
5.4386336e+10 -9.7472601e+21 1.6288141e-314 626.21051 350.63831
5.4940377e+10 -9.7583299e+21 1.6288148e-314 628.60889 350.74344
5.2405477e+10 -9.7265976e+21 1.628813e-314 631.02008 350.92929
5.2208771e+10 -9.7295519e+21 1.6288132e-314 633.6709 351.10071
5.2363403e+10 -9.7361902e+21 1.6288135e-314 636.37604 351.21933
5.1622093e+10 -9.7339835e+21 1.6288134e-314 639.01148 351.4686
5.0513977e+10 -9.7229136e+21 1.6288128e-314 641.73029 351.63809
4.9409303e+10 -9.7059441e+21 1.6288119e-314 644.56323 351.66986
4.8143999e+10 -9.6941356e+21 1.6288112e-314 647.38904 351.86853
4.742674e+10 -9.6874973e+21 1.6288109e-314 650.1665 352.00232
4.6304059e+10 -9.6779047e+21 1.6288103e-314 653.06708 352.20471
4.517707e+10 -9.6624033e+21 1.6288095e-314 656.14825 352.27481
4.1359696e+10 -9.6151875e+21 1.6288069e-314 659.17407 352.56277
3.8736323e+10 -9.5834552e+21 1.6288052e-314 662.36676 352.79486
3.606229e+10 -9.5414006e+21 1.6288029e-314 665.81952 352.79105
3.3382216e+10 -9.4985983e+21 1.6288005e-314 669.45422 353.14081
3.3291596e+10 -9.4985983e+21 1.6288005e-314 673.55707 353.24695
3.3559163e+10 -9.5074524e+21 1.628801e-314 678.4129 353.31012
2.7424666e+10 -9.3347923e+21 1.6287855e-314 682.52362 353.67957
1.5885478e+09 -7.0751382e+21 1.6285376e-314 448.96378 333.32199
1.7763454e+09 -7.1288571e+21 1.6285435e-314 449.85834 333.50702
1.9648402e+09 -7.1807296e+21 1.6285492e-314 450.79239 333.64529
2.1484508e+09 -7.2327461e+21 1.6285549e-314 451.76135 333.81802
2.599529e+09 -7.2921486e+21 1.6285614e-314 452.80069 333.92194
2.9644949e+09 -7.3435752e+21 1.628567e-314 453.83795 334.08682
3.3380501e+09 -7.3964069e+21 1.6285728e-314 454.88553 334.25906
3.6091684e+09 -7.4323412e+21 1.6285768e-314 455.90146 334.33304
3.8959662e+09 -7.473441e+21 1.6285813e-314 456.92706 334.47986
4.338132e+09 -7.5312177e+21 1.6285876e-314 458.03922 334.63492
4.7596841e+09 -7.5635355e+21 1.6285912e-314 459.18195 334.79718
5.4363556e+09 -7.6098731e+21 1.6285963e-314 460.2991 334.92258
6.1609175e+09 -7.6602683e+21 1.6286018e-314 461.47745 335.07416
6.9578476e+09 -7.71369e+21 1.6286076e-314 462.68167 335.18478
7.4058148e+09 -7.7454179e+21 1.6286111e-314 463.85703 335.30392
7.8752533e+09 -7.7786229e+21 1.6286148e-314 465.04153 335.4274
8.3736832e+09 -7.8147778e+21 1.6286187e-314 466.24069 335.5621
8.8478454e+09 -7.8516713e+21 1.6286228e-314 467.44388 335.76718
9.3830042e+09 -7.8915192e+21 1.6286272e-314 468.67279 335.9321
9.9572389e+09 -7.9313625e+21 1.6286315e-314 469.94052 336.06497
1.0558319e+10 -7.972683e+21 1.6286361e-314 471.23184 336.18631
1.1221895e+10 -8.0169579e+21 1.6286409e-314 472.55444 336.28644
1.1685751e+10 -8.0523742e+21 1.6286448e-314 473.87079 336.45264
1.210129e+10 -8.0818908e+21 1.628648e-314 475.15369 336.56924
1.2699789e+10 -8.1254226e+21 1.6286528e-314 476.57877 336.74149
1.3369805e+10 -8.1704316e+21 1.6286578e-314 477.97095 336.84582
1.3766658e+10 -8.2036366e+21 1.6286614e-314 479.28662 337.06815
1.414612e+10 -8.2287262e+21 1.6286641e-314 480.59003 337.1355
1.4565313e+10 -8.2626653e+21 1.6286679e-314 481.93658 337.33887
1.5060953e+10 -8.2980861e+21 1.6286718e-314 483.3327 337.47195
1.5636474e+10 -8.3394067e+21 1.6286763e-314 484.73886 337.62665
1.5825668e+10 -8.3541605e+21 1.6286779e-314 486.0946 337.72809
1.6662972e+10 -8.4102393e+21 1.6286841e-314 487.60339 337.862
1.680299e+10 -8.4264748e+21 1.6286858e-314 489.06097 338.05347
1.7515745e+10 -8.4648409e+21 1.6286901e-314 490.53757 338.18594
1.8447749e+10 -8.4995231e+21 1.6286939e-314 492.00354 338.34097
1.8560275e+10 -8.506166e+21 1.6286946e-314 493.38287 338.43655
2.0197511e+10 -8.5629789e+21 1.6287008e-314 494.89249 338.60599
2.0547555e+10 -8.5784757e+21 1.6287025e-314 496.30124 338.74908
2.1350716e+10 -8.6087264e+21 1.6287058e-314 497.83386 338.89523
2.2321812e+10 -8.6434086e+21 1.6287096e-314 499.36316 339.03195
2.2803698e+10 -8.6603782e+21 1.6287115e-314 500.84424 339.09241
2.3878308e+10 -8.7002216e+21 1.6287159e-314 502.3757 339.28754
2.4134718e+10 -8.7142413e+21 1.6287174e-314 503.91547 339.4454
2.5235509e+10 -8.7540891e+21 1.6287218e-314 505.50638 339.60123
2.6216485e+10 -8.7909826e+21 1.6287258e-314 507.10059 339.78491
2.6243977e+10 -8.7961482e+21 1.6287264e-314 508.63443 339.90317
2.7571982e+10 -8.8411572e+21 1.6287313e-314 510.19049 340.02127
2.7702973e+10 -8.8514885e+21 1.6287325e-314 511.73956 340.19943
2.8763837e+10 -8.8869048e+21 1.6287364e-314 513.34174 340.27875
2.9632696e+10 -8.9201098e+21 1.62874e-314 514.95422 340.45584
2.948624e+10 -8.9193712e+21 1.6287399e-314 516.58441 340.56296
3.121798e+10 -8.9776613e+21 1.6287463e-314 518.22095 340.71738
3.0353822e+10 -8.9562647e+21 1.628744e-314 519.84113 340.84601
3.2022844e+10 -9.0123435e+21 1.6287501e-314 521.53876 340.99176
3.3259803e+10 -9.0544026e+21 1.6287547e-314 523.25415 341.1087
3.2216126e+10 -9.0285745e+21 1.6287519e-314 524.75848 341.2706
3.4217579e+10 -9.0949846e+21 1.6287592e-314 526.50427 341.42062
3.3251218e+10 -9.0721108e+21 1.6287567e-314 528.12555 341.59143
3.6246102e+10 -9.139255e+21 1.628764e-314 529.87726 341.7171
3.7913404e+10 -9.1702487e+21 1.6287674e-314 531.58154 341.87445
3.5887882e+10 -9.1466364e+21 1.6287648e-314 533.25427 342.0596
3.9913136e+10 -9.2115693e+21 1.628772e-314 535.02765 342.1546
3.9259448e+10 -9.2093535e+21 1.6287717e-314 536.9071 342.36212
4.0159683e+10 -9.2248504e+21 1.6287734e-314 538.50421 342.43478
4.0681087e+10 -9.2292774e+21 1.6287739e-314 540.07294 342.37289
3.6764918e+10 -9.1731986e+21 1.6287678e-314 541.72723 342.47159
4.6929388e+10 -9.3347923e+21 1.6287855e-314 543.85748 342.64673
3.8095495e+10 -9.2329659e+21 1.6287743e-314 544.70196 343.43396
3.8873768e+10 -9.2248504e+21 1.6287734e-314 547 343
5.3273076e+10 -9.4646592e+21 1.6287986e-314 550.36139 343.50149
4.6055793e+10 -9.3731629e+21 1.6287897e-314 558.50751 344.04584
5.4785745e+10 -9.5104068e+21 1.6288012e-314 560.49823 344.16739
5.0696954e+10 -9.4521122e+21 1.628798e-314 562.32904 344.27588
4.8547734e+10 -9.4262874e+21 1.6287955e-314 564.11932 344.45972
5.2881367e+10 -9.4978598e+21 1.6288005e-314 566.0293 344.61102
5.6647197e+10 -9.5591087e+21 1.6288038e-314 567.97186 344.72269
5.1962225e+10 -9.4963826e+21 1.6288004e-314 569.93756 344.95923
5.6304444e+10 -9.5679628e+21 1.6288043e-314 571.93463 345.10168
5.2686365e+10 -9.5148293e+21 1.6288014e-314 573.86371 345.17474
5.5522763e+10 -9.565747e+21 1.6288042e-314 575.92725 345.3829
5.695384e+10 -9.5937864e+21 1.6288057e-314 577.94556 345.5593
5.6667808e+10 -9.5937864e+21 1.6288057e-314 579.96387 345.67999
5.6595653e+10 -9.5952636e+21 1.6288058e-314 581.89563 345.763
5.7898738e+10 -9.6203487e+21 1.6288072e-314 583.90601 345.90884
5.8193388e+10 -9.6306799e+21 1.6288077e-314 585.90582 346.07968
5.9333255e+10 -9.652081e+21 1.6288089e-314 588.04077 346.20035
5.8778362e+10 -9.6469109e+21 1.6288086e-314 590.05255 346.3006
6.0513526e+10 -9.6823272e+21 1.6288106e-314 592.40576 346.53983
5.9156308e+10 -9.6668348e+21 1.6288097e-314 594.40772 346.67841
5.8665837e+10 -9.6653576e+21 1.6288097e-314 596.5589 346.85629
5.9353866e+10 -9.6801114e+21 1.6288105e-314 598.80963 346.97003
6.0201706e+10 -9.69709e+21 1.6288114e-314 600.9162 347.09955
6.0335694e+10 -9.7081508e+21 1.628812e-314 603.10461 347.33371
6.1442106e+10 -9.7265976e+21 1.628813e-314 605.31183 347.40704
5.9584094e+10 -9.7066827e+21 1.6288119e-314 607.427 347.61261
6.0552159e+10 -9.7236522e+21 1.6288128e-314 609.7616 347.70496
6.0023906e+10 -9.7236522e+21 1.6288128e-314 611.97858 347.92032
6.0667273e+10 -9.7398832e+21 1.6288137e-314 614.47803 348.09109
6.020341e+10 -9.7354517e+21 1.6288135e-314 616.78735 348.17895
5.9101323e+10 -9.722175e+21 1.6288128e-314 619.16211 348.30484
5.9150312e+10 -9.7339835e+21 1.6288134e-314 621.63177 348.57687
5.9730993e+10 -9.7450443e+21 1.628814e-314 624.03168 348.67206
5.7601532e+10 -9.7184821e+21 1.6288126e-314 626.39868 348.8392
5.8256958e+10 -9.7332449e+21 1.6288134e-314 628.84607 348.97058
5.6696152e+10 -9.7103666e+21 1.6288121e-314 631.34552 349.02661
5.7143697e+10 -9.7265976e+21 1.628813e-314 633.91559 349.26801
5.666866e+10 -9.7214365e+21 1.6288127e-314 636.5354 349.35162
5.6517468e+10 -9.7295519e+21 1.6288132e-314 639.36273 349.63715
5.4049579e+10 -9.6941356e+21 1.6288112e-314 641.93054 349.71323
5.3715444e+10 -9.6904427e+21 1.628811e-314 644.92255 349.77441
5.0340471e+10 -9.6476495e+21 1.6288087e-314 647.58954 350.00928
4.8683475e+10 -9.6284641e+21 1.6288076e-314 650.46551 350.17618
5.1495821e+10 -9.68085e+21 1.6288105e-314 653.5025 350.45038
4.6159749e+10 -9.6026405e+21 1.6288062e-314 656.32989 350.54373
4.7261835e+10 -9.6255098e+21 1.6288075e-314 659.57544 350.72061
3.888237e+10 -9.508191e+21 1.628801e-314 666.31836 351.03503
4.3178189e+10 -9.5768169e+21 1.6288048e-314 670.35071 351.16931
3.6480606e+10 -9.4801516e+21 1.6287995e-314 674.00604 351.32199
3.3134834e+10 -9.4211218e+21 1.628795e-314 678.70227 351.62469
1.8093089e+09 -7.046806e+21 1.6285345e-314 449.31403 331.45074
1.9721956e+09 -7.0949135e+21 1.6285398e-314 450.14761 331.64407
2.2439061e+09 -7.1549014e+21 1.6285463e-314 451.07407 331.76987
2.6768389e+09 -7.2118674e+21 1.6285526e-314 452.05649 331.8685
3.0732641e+09 -7.2681669e+21 1.6285588e-314 453.09085 332.05249
3.4524022e+09 -7.3243178e+21 1.6285649e-314 454.16019 332.28375
3.7179397e+09 -7.3596621e+21 1.6285688e-314 455.14145 332.35959
4.0578852e+09 -7.4078461e+21 1.6285741e-314 456.17053 332.51785
4.6241762e+09 -7.4618578e+21 1.62858e-314 457.23224 332.63702
5.2624108e+09 -7.5057588e+21 1.6285848e-314 458.30872 332.75858
5.7088707e+09 -7.5371174e+21 1.6285883e-314 459.38879 332.86255
6.4110971e+09 -7.5846394e+21 1.6285935e-314 460.53876 332.97778
7.3643674e+09 -7.6513422e+21 1.6286008e-314 461.80389 333.17923
7.7562809e+09 -7.6804895e+21 1.628604e-314 462.92911 333.30811
8.2830592e+09 -7.7188557e+21 1.6286082e-314 464.12705 333.45987
8.7290942e+09 -7.7535379e+21 1.628612e-314 465.27655 333.64233
9.246419e+09 -7.7889542e+21 1.6286159e-314 466.47528 333.73908
1.0016721e+10 -7.8420832e+21 1.6286217e-314 467.75552 333.8945
1.0539641e+10 -7.8797107e+21 1.6286259e-314 468.96152 334.04474
1.1140934e+10 -7.91882e+21 1.6286302e-314 470.2117 334.10416
1.1574512e+10 -7.9512864e+21 1.6286337e-314 471.47397 334.26349
1.2224981e+10 -7.9992453e+21 1.628639e-314 472.79562 334.45041
1.2774525e+10 -8.0368774e+21 1.6286431e-314 474.09634 334.57047
1.3266299e+10 -8.0730323e+21 1.6286471e-314 475.42334 334.71249
1.3732514e+10 -8.1062373e+21 1.6286507e-314 476.80594 334.84699
1.4108109e+10 -8.1387037e+21 1.6286543e-314 478.11871 335.0705
1.469029e+10 -8.1763358e+21 1.6286584e-314 479.47256 335.14606
1.53442e+10 -8.2213448e+21 1.6286633e-314 480.84872 335.27545
1.578701e+10 -8.2552884e+21 1.6286671e-314 482.18845 335.44547
1.6224889e+10 -8.2870163e+21 1.6286705e-314 483.57455 335.5661
1.6493963e+10 -8.3113673e+21 1.6286732e-314 484.94244 335.77014
1.679633e+10 -8.334241e+21 1.6286757e-314 486.349 335.88263
1.7449161e+10 -8.3696573e+21 1.6286796e-314 487.79407 335.9949
1.8213671e+10 -8.3976968e+21 1.6286827e-314 489.23669 336.12588
1.9656348e+10 -8.4463942e+21 1.628688e-314 490.72498 336.242
2.070476e+10 -8.4847648e+21 1.6286922e-314 492.18295 336.39719
2.0821152e+10 -8.4965733e+21 1.6286935e-314 493.59351 336.60947
2.1981221e+10 -8.5371552e+21 1.628698e-314 495.06357 336.74167
2.2553743e+10 -8.5607676e+21 1.6287006e-314 496.5152 336.91266
2.3576793e+10 -8.5961839e+21 1.6287045e-314 498.04224 337.02539
2.4563782e+10 -8.6330774e+21 1.6287085e-314 499.52866 337.20056
2.4126116e+10 -8.6234847e+21 1.6287075e-314 500.96747 337.30289
2.5865589e+10 -8.6803021e+21 1.6287137e-314 502.58514 337.40601
2.6215633e+10 -8.6965331e+21 1.6287155e-314 504.12659 337.55304
2.7156648e+10 -8.7334266e+21 1.6287195e-314 505.70868 337.76175
2.8333478e+10 -8.7710587e+21 1.6287236e-314 507.29724 337.8223
2.8266467e+10 -8.7769629e+21 1.6287243e-314 508.82465 338.01566
2.9797634e+10 -8.8256603e+21 1.6287296e-314 510.39471 338.08057
2.9855175e+10 -8.8345144e+21 1.6287306e-314 511.95551 338.27234
3.070516e+10 -8.8669808e+21 1.6287342e-314 513.48169 338.43762
3.1615685e+10 -8.9016631e+21 1.628738e-314 515.10992 338.61108
3.1568007e+10 -8.9031357e+21 1.6287381e-314 516.74207 338.70151
3.2992219e+10 -8.9510991e+21 1.6287434e-314 518.3714 338.82336
3.2521933e+10 -8.9429836e+21 1.6287425e-314 520.01263 339.00479
3.3492587e+10 -8.9761886e+21 1.6287461e-314 521.68231 339.10821
3.5716113e+10 -9.0307903e+21 1.6287521e-314 523.45489 339.28519
3.4772067e+10 -9.0219362e+21 1.6287512e-314 525.00049 339.44058
3.7957214e+10 -9.0750607e+21 1.628757e-314 526.65527 339.56396
3.6767507e+10 -9.065468e+21 1.6287559e-314 528.33807 339.78177
3.9474209e+10 -9.1082657e+21 1.6287606e-314 529.99915 339.83817
4.2632717e+10 -9.1636059e+21 1.6287667e-314 531.76483 340.02405
3.9632249e+10 -9.1208082e+21 1.628762e-314 533.46375 340.116
4.3590492e+10 -9.1872183e+21 1.6287693e-314 535.17053 340.2735
4.187594e+10 -9.1628673e+21 1.6287666e-314 537.00452 340.34515
4.344533e+10 -9.1923839e+21 1.6287699e-314 538.64215 340.49222
4.362657e+10 -9.2027107e+21 1.628771e-314 540.17816 340.69574
5.0915975e+10 -9.3296266e+21 1.6287849e-314 544.05725 341.09802
4.6538564e+10 -9.2993759e+21 1.6287816e-314 558.62567 342.14136
6.0748014e+10 -9.5222152e+21 1.6288018e-314 560.61054 342.31104
5.3092688e+10 -9.4107905e+21 1.6287938e-314 562.52655 342.46646
5.4069338e+10 -9.4307144e+21 1.628796e-314 564.29297 342.60278
5.6458224e+10 -9.4705589e+21 1.628799e-314 566.19 342.6973
5.981773e+10 -9.5273763e+21 1.6288021e-314 568.1665 342.8577
5.6124908e+10 -9.4801516e+21 1.6287995e-314 570.14154 343.09161
5.9663983e+10 -9.536969e+21 1.6288026e-314 572.08209 343.17563
5.6885977e+10 -9.5000755e+21 1.6288006e-314 574.02954 343.32944
5.9667423e+10 -9.549516e+21 1.6288033e-314 576.0816 343.52124
6.1728989e+10 -9.5834552e+21 1.6288052e-314 578.10693 343.61423
6.0405293e+10 -9.5716467e+21 1.6288045e-314 580.11926 343.83508
6.134331e+10 -9.5893549e+21 1.6288055e-314 582.10492 343.92545
6.3017493e+10 -9.6203487e+21 1.6288072e-314 584.12927 344.09311
6.1643104e+10 -9.6048563e+21 1.6288063e-314 586.11017 344.23297
6.286889e+10 -9.623303e+21 1.6288073e-314 588.18799 344.25928
6.2305379e+10 -9.6210872e+21 1.6288072e-314 590.26215 344.42905
6.3259714e+10 -9.6446951e+21 1.6288085e-314 592.50848 344.67526
6.4173679e+10 -9.6631419e+21 1.6288095e-314 594.66718 344.80017
6.3874769e+10 -9.6631419e+21 1.6288095e-314 596.81244 344.93985
6.4377266e+10 -9.6756889e+21 1.6288102e-314 599.03839 345.08261
6.4913285e+10 -9.6889745e+21 1.6288109e-314 601.12445 345.23468
6.315751e+10 -9.668312e+21 1.6288098e-314 603.22504 345.38965
6.3085355e+10 -9.6742117e+21 1.6288101e-314 605.36987 345.58057
6.4102408e+10 -9.6919199e+21 1.6288111e-314 607.63373 345.66721
6.4816226e+10 -9.7081508e+21 1.628812e-314 609.98761 345.81683
6.3504523e+10 -9.6956128e+21 1.6288113e-314 612.18329 346.01761
6.4300819e+10 -9.7125824e+21 1.6288122e-314 614.66827 346.17004
6.3744189e+10 -9.7081508e+21 1.628812e-314 616.94995 346.28357
6.2753776e+10 -9.7000353e+21 1.6288116e-314 619.38135 346.47553
6.191367e+10 -9.6919199e+21 1.6288111e-314 621.80273 346.61258
6.2264156e+10 -9.7015125e+21 1.6288116e-314 624.21411 346.74765
6.3491646e+10 -9.7265976e+21 1.628813e-314 626.65448 346.92288
6.2129283e+10 -9.7111052e+21 1.6288122e-314 628.98962 347.07132
6.0531548e+10 -9.6919199e+21 1.6288111e-314 631.56964 347.23355
6.0450808e+10 -9.693397e+21 1.6288112e-314 634.1781 347.33154
5.9337548e+10 -9.684543e+21 1.6288107e-314 636.75922 347.53995
5.9937989e+10 -9.7000353e+21 1.6288116e-314 639.45593 347.7265
5.8847928e+10 -9.6882359e+21 1.6288109e-314 642.19665 347.87512
5.5332938e+10 -9.6365796e+21 1.6288081e-314 644.99158 347.95587
5.6044167e+10 -9.6565036e+21 1.6288092e-314 647.96149 348.19519
5.6320778e+10 -9.668312e+21 1.6288098e-314 650.86505 348.40173
5.3090116e+10 -9.623303e+21 1.6288073e-314 653.72113 348.53412
5.3017108e+10 -9.6277256e+21 1.6288076e-314 656.59186 348.70135
5.2631429e+10 -9.6255098e+21 1.6288075e-314 659.91797 348.82593
4.7509234e+10 -9.5487775e+21 1.6288033e-314 663.16327 348.89099
4.4820587e+10 -9.5170451e+21 1.6288015e-314 666.59338 349.15356
4.1421562e+10 -9.4690818e+21 1.6287989e-314 670.45587 349.28589
3.9249142e+10 -9.4462125e+21 1.6287976e-314 674.39887 349.56995
3.3542844e+10 -9.3561889e+21 1.6287878e-314 678.89087 349.82953
1.9620488e+09 -7.0062241e+21 1.62853e-314 449.62268 329.68317
2.2119081e+09 -7.0634828e+21 1.6285363e-314 450.5228 329.77725
2.7427661e+09 -7.1329869e+21 1.6285439e-314 451.49719 329.88263
3.208555e+09 -7.1932e+21 1.6285505e-314 452.4552 329.96027
3.5275638e+09 -7.2367318e+21 1.6285553e-314 453.39282 330.07031
3.8357284e+09 -7.2854337e+21 1.6285607e-314 454.3837 330.32742
4.2404214e+09 -7.3416567e+21 1.6285668e-314 455.44455 330.48694
4.7163034e+09 -7.3781088e+21 1.6285708e-314 456.46869 330.58807
5.4024244e+09 -7.4259956e+21 1.6285761e-314 457.4928 330.7309
6.0818893e+09 -7.4742517e+21 1.6285814e-314 458.56961 330.89218
6.7132509e+09 -7.5164594e+21 1.628586e-314 459.63196 330.98303
7.4661571e+09 -7.5662647e+21 1.6285915e-314 460.80649 331.0773
8.0047483e+09 -7.6085445e+21 1.6285961e-314 462.02219 331.30209
8.7095481e+09 -7.658575e+21 1.6286016e-314 463.2175 331.47095
9.1403408e+09 -7.6915548e+21 1.6286052e-314 464.3515 331.63724
9.7014764e+09 -7.7306641e+21 1.6286095e-314 465.55957 331.75546
1.0409503e+10 -7.7778844e+21 1.6286147e-314 466.76221 331.84875
1.1038067e+10 -7.8214206e+21 1.6286195e-314 467.9888 331.98337
1.1491191e+10 -7.8546257e+21 1.6286231e-314 469.17288 332.11618
1.2124047e+10 -7.9003733e+21 1.6286281e-314 470.46252 332.29507
1.260423e+10 -7.935051e+21 1.6286319e-314 471.7359 332.43338
1.3049399e+10 -7.968256e+21 1.6286356e-314 472.98932 332.58435
1.3799729e+10 -8.0191692e+21 1.6286412e-314 474.36029 332.71655
1.4195296e+10 -8.0516357e+21 1.6286447e-314 475.67395 332.9191
1.4925228e+10 -8.0981218e+21 1.6286498e-314 477.06598 332.97144
1.5217502e+10 -8.1217342e+21 1.6286524e-314 478.36545 333.12534
1.5656659e+10 -8.1556778e+21 1.6286561e-314 479.68301 333.29642
1.6073058e+10 -8.1888784e+21 1.6286598e-314 481.00839 333.4852
1.6534768e+10 -8.2198721e+21 1.6286632e-314 482.33783 333.57568
1.7035127e+10 -8.256027e+21 1.6286671e-314 483.74536 333.71027
1.8065494e+10 -8.2980861e+21 1.6286718e-314 485.18289 333.87216
1.8647028e+10 -8.3202213e+21 1.6286742e-314 486.57864 333.98596
2.0012405e+10 -8.3674461e+21 1.6286794e-314 488.02994 334.13208
2.0391219e+10 -8.3844156e+21 1.6286812e-314 489.46243 334.26077
2.1495452e+10 -8.4220477e+21 1.6286854e-314 490.93424 334.37082
2.2248788e+10 -8.4515598e+21 1.6286886e-314 492.36752 334.53711
2.2994408e+10 -8.4788606e+21 1.6286916e-314 493.81836 334.66632
2.4312959e+10 -8.5231355e+21 1.6286964e-314 495.28851 334.77609
2.4568074e+10 -8.5386279e+21 1.6286981e-314 496.72681 334.95886
2.5350197e+10 -8.5674059e+21 1.6287013e-314 498.19037 335.10251
2.6577687e+10 -8.6124149e+21 1.6287062e-314 499.72867 335.27911
2.6421777e+10 -8.6131535e+21 1.6287063e-314 501.18466 335.43185
2.8017365e+10 -8.6662824e+21 1.6287122e-314 502.78668 335.55395
2.812817e+10 -8.6758751e+21 1.6287132e-314 504.328 335.71704
2.895625e+10 -8.7024373e+21 1.6287161e-314 505.88254 335.76364
3.0384755e+10 -8.7548277e+21 1.6287219e-314 507.49762 335.97876
3.0339224e+10 -8.7577776e+21 1.6287222e-314 509.03262 336.10547
3.1673242e+10 -8.8027865e+21 1.6287271e-314 510.59406 336.22665
3.1857496e+10 -8.814595e+21 1.6287284e-314 512.12286 336.3801
3.2438604e+10 -8.8374688e+21 1.6287309e-314 513.66504 336.52502
3.4234323e+10 -8.8957588e+21 1.6287373e-314 515.34491 336.61829
3.3801818e+10 -8.8869048e+21 1.6287364e-314 516.9483 336.74426
3.5700646e+10 -8.9319137e+21 1.6287413e-314 518.62268 336.92584
3.4895766e+10 -8.9267481e+21 1.6287407e-314 520.21204 337.11304
3.7797438e+10 -8.9761886e+21 1.6287461e-314 521.91956 337.25263
3.9700964e+10 -9.0108663e+21 1.62875e-314 523.60175 337.40408
3.8858302e+10 -9.0020123e+21 1.628749e-314 525.18665 337.5195
4.2271089e+10 -9.0625181e+21 1.6287556e-314 526.87958 337.73145
4.1188729e+10 -9.049237e+21 1.6287542e-314 528.52344 337.83273
4.3648033e+10 -9.0920302e+21 1.6287589e-314 530.19781 337.96909
4.5569614e+10 -9.1267124e+21 1.6287627e-314 531.91223 338.11246
4.3921187e+10 -9.1045772e+21 1.6287602e-314 533.62671 338.21603
4.8098484e+10 -9.1739372e+21 1.6287678e-314 535.35565 338.37115
4.6275699e+10 -9.1510634e+21 1.6287653e-314 537.17572 338.50848
4.6898488e+10 -9.1643445e+21 1.6287668e-314 538.79474 338.61267
4.7382962e+10 -9.1761485e+21 1.6287681e-314 540.34674 338.74264
4.5670114e+10 -9.1503248e+21 1.6287653e-314 542.14612 338.77548
5.4018679e+10 -9.2831405e+21 1.6287798e-314 544.42206 338.91656
4.9728004e+10 -9.2167304e+21 1.6287725e-314 545.76306 338.9137
6.5894261e+10 -9.5222152e+21 1.6288018e-314 560.84003 340.45664
5.7950282e+10 -9.4034136e+21 1.628793e-314 562.73315 340.54617
5.7274245e+10 -9.398248e+21 1.6287925e-314 564.49725 340.69272
6.0417319e+10 -9.450635e+21 1.6287979e-314 566.3902 340.81274
6.3980413e+10 -9.511884e+21 1.6288012e-314 568.37994 341.00851
5.99277e+10 -9.4565437e+21 1.6287982e-314 570.28717 341.18002
6.5335042e+10 -9.5414006e+21 1.6288029e-314 572.34344 341.25601
6.327174e+10 -9.5140907e+21 1.6288014e-314 574.23969 341.38592
6.4241541e+10 -9.5347532e+21 1.6288025e-314 576.28308 341.54663
6.635724e+10 -9.5716467e+21 1.6288045e-314 578.34314 341.68381
6.3397176e+10 -9.5340147e+21 1.6288024e-314 580.23779 341.8873
6.5409786e+10 -9.5672242e+21 1.6288043e-314 582.25653 341.97052
6.6146804e+10 -9.5864095e+21 1.6288053e-314 584.25201 342.17548
6.6431132e+10 -9.5923092e+21 1.6288056e-314 586.31 342.23737
6.6399347e+10 -9.5960022e+21 1.6288058e-314 588.43396 342.36328
6.7733365e+10 -9.623303e+21 1.6288073e-314 590.49249 342.55301
6.6894111e+10 -9.6188715e+21 1.6288071e-314 592.62817 342.76858
6.7876823e+10 -9.6373182e+21 1.6288081e-314 594.81006 342.87549
6.6816811e+10 -9.6255098e+21 1.6288075e-314 596.91577 343.00861
6.7395789e+10 -9.6432179e+21 1.6288084e-314 599.21057 343.24283
6.7648332e+10 -9.6498653e+21 1.6288088e-314 601.29187 343.33051
6.8484113e+10 -9.6653576e+21 1.6288097e-314 603.44665 343.4346
6.6405343e+10 -9.6424884e+21 1.6288084e-314 605.49402 343.65939
7.1055983e+10 -9.69709e+21 1.6288114e-314 607.92529 343.72678
6.8436009e+10 -9.6838044e+21 1.6288107e-314 610.12555 343.95981
6.9764006e+10 -9.6992968e+21 1.6288115e-314 612.48541 344.06381
6.7321045e+10 -9.6756889e+21 1.6288102e-314 614.776 344.2355
6.8841456e+10 -9.7007739e+21 1.6288116e-314 617.23114 344.3219
6.593722e+10 -9.6638805e+21 1.6288096e-314 619.54187 344.49982
6.6989466e+10 -9.6867587e+21 1.6288108e-314 622.07471 344.68997
6.5490526e+10 -9.6660962e+21 1.6288097e-314 624.37836 344.77808
6.554207e+10 -9.6756889e+21 1.6288102e-314 626.82574 345.01941
6.5505141e+10 -9.6771661e+21 1.6288103e-314 629.18878 345.08231
6.6459476e+10 -9.69709e+21 1.6288114e-314 631.85834 345.25104
6.4072327e+10 -9.6660962e+21 1.6288097e-314 634.36523 345.40598
6.3178121e+10 -9.6594579e+21 1.6288093e-314 636.99774 345.59463
6.2472036e+10 -9.6513424e+21 1.6288089e-314 639.65753 345.69949
6.3297528e+10 -9.6712573e+21 1.62881e-314 642.46545 345.90878
6.1195559e+10 -9.6469109e+21 1.6288086e-314 645.30017 346.11276
5.7697739e+10 -9.6026405e+21 1.6288062e-314 648.10468 346.35226
5.9559207e+10 -9.6336343e+21 1.6288079e-314 651.16553 346.45666
5.5867236e+10 -9.5805008e+21 1.628805e-314 653.94739 346.56894
5.9059266e+10 -9.6314185e+21 1.6288078e-314 657.20221 346.65488
5.3871796e+10 -9.5605769e+21 1.6288039e-314 660.12372 346.8916
5.5058915e+10 -9.581978e+21 1.6288051e-314 663.58954 346.99905
4.761147e+10 -9.4757291e+21 1.6287993e-314 666.99005 347.20844
4.5455368e+10 -9.4432569e+21 1.6287974e-314 670.67999 347.2749
4.0060904e+10 -9.3650429e+21 1.6287888e-314 675.00055 347.41702
3.8257025e+10 -9.3502846e+21 1.6287872e-314 679.55585 347.76135
3.0339658e+10 -9.1783642e+21 1.6287683e-314 685.42133 348.0654
2.7770189e+09 -7.047986e+21 1.6285346e-314 450.91672 327.85251
3.1755925e+09 -7.1022183e+21 1.6285406e-314 451.84518 327.98013
3.5034056e+09 -7.1494431e+21 1.6285457e-314 452.74222 328.14535
3.9491159e+09 -7.209431e+21 1.6285523e-314 453.73364 328.27264
4.3632569e+09 -7.2608621e+21 1.628558e-314 454.75357 328.39133
5.0906123e+09 -7.310816e+21 1.6285634e-314 455.76422 328.52185
5.9225467e+09 -7.3675569e+21 1.6285697e-314 456.80896 328.65979
6.481749e+09 -7.4101339e+21 1.6285743e-314 457.8093 328.85782
7.0282865e+09 -7.4485001e+21 1.6285786e-314 458.86758 328.97894
7.7711002e+09 -7.4975713e+21 1.6285839e-314 459.91257 329.06805
8.4520684e+09 -7.5486286e+21 1.6285895e-314 461.0958 329.2915
9.1663176e+09 -7.5974026e+21 1.6285949e-314 462.33139 329.41687
9.627388e+09 -7.6297204e+21 1.6285984e-314 463.44443 329.52124
1.0281511e+10 -7.673036e+21 1.6286032e-314 464.61801 329.60703
1.0859186e+10 -7.7159058e+21 1.6286079e-314 465.83798 329.78992
1.1430414e+10 -7.7579649e+21 1.6286125e-314 467.00952 329.96924
1.20476e+10 -7.7992855e+21 1.628617e-314 468.19272 330.0545
1.260101e+10 -7.8383902e+21 1.6286213e-314 469.42563 330.1799
1.3204236e+10 -7.8841378e+21 1.6286263e-314 470.73254 330.40958
1.3580905e+10 -7.9129158e+21 1.6286295e-314 471.96591 330.55194
1.4086203e+10 -7.9461208e+21 1.6286331e-314 473.21115 330.6131
1.46525e+10 -7.9889185e+21 1.6286378e-314 474.53812 330.81525
1.5230601e+10 -8.0280233e+21 1.6286421e-314 475.90842 330.91721
1.5815141e+10 -8.0693438e+21 1.6286467e-314 477.25561 331.05548
1.6241633e+10 -8.1018103e+21 1.6286502e-314 478.59152 331.20654
1.6581151e+10 -8.1298497e+21 1.6286533e-314 479.87366 331.39487
1.722067e+10 -8.1711702e+21 1.6286578e-314 481.20673 331.49011
1.8080961e+10 -8.2021595e+21 1.6286612e-314 482.57904 331.61679
1.8937811e+10 -8.2353645e+21 1.6286649e-314 483.94827 331.79248
2.0099158e+10 -8.2729966e+21 1.628669e-314 485.38736 331.84692
2.0771328e+10 -8.3017746e+21 1.6286722e-314 486.79446 332.0527
2.167928e+10 -8.3357137e+21 1.6286759e-314 488.21954 332.21179
2.2560608e+10 -8.3659689e+21 1.6286792e-314 489.67593 332.30978
2.3541142e+10 -8.4006466e+21 1.628683e-314 491.12805 332.427
2.485155e+10 -8.4471328e+21 1.6286881e-314 492.61246 332.59784
2.5025925e+10 -8.4604139e+21 1.6286896e-314 494.01672 332.79425
2.6192859e+10 -8.5017344e+21 1.6286941e-314 495.49203 332.93509
2.6812633e+10 -8.5223969e+21 1.6286964e-314 496.93405 332.99765
2.7881214e+10 -8.5615062e+21 1.6287007e-314 498.43808 333.16592
2.8360528e+10 -8.5814256e+21 1.6287028e-314 499.91266 333.30765
2.9070922e+10 -8.6102036e+21 1.628706e-314 501.43408 333.48773
3.0040724e+10 -8.6426701e+21 1.6287096e-314 502.9743 333.56393
3.05106e+10 -8.662594e+21 1.6287117e-314 504.53732 333.71182
3.1522919e+10 -8.6994875e+21 1.6287158e-314 506.12494 333.86606
3.1802511e+10 -8.7112914e+21 1.6287171e-314 507.63153 333.96719
3.2283562e+10 -8.7356424e+21 1.6287198e-314 509.19769 334.20496
3.3840059e+10 -8.7865556e+21 1.6287253e-314 510.7706 334.29596
3.3867534e+10 -8.7939325e+21 1.6287262e-314 512.32092 334.47278
3.5011732e+10 -8.8241876e+21 1.6287295e-314 513.87793 334.61035
3.6727137e+10 -8.8566541e+21 1.628733e-314 515.49847 334.77267
3.6199703e+10 -8.8522225e+21 1.6287325e-314 517.07794 334.88
3.9237985e+10 -8.9068287e+21 1.6287385e-314 518.78992 335.08316
3.8389293e+10 -8.897236e+21 1.6287375e-314 520.38269 335.19101
4.2735805e+10 -8.9688072e+21 1.6287453e-314 522.1817 335.32284
4.3209106e+10 -8.9813498e+21 1.6287467e-314 523.77283 335.47296
4.2698842e+10 -8.9791385e+21 1.6287465e-314 525.39355 335.6167
4.5713072e+10 -9.0300517e+21 1.6287521e-314 527.00995 335.75269
4.5256942e+10 -9.0293131e+21 1.628752e-314 528.68207 335.91824
4.7894897e+10 -9.0743221e+21 1.6287569e-314 530.40381 336.05115
4.949522e+10 -9.1031001e+21 1.6287601e-314 532.10968 336.1716
4.8245383e+10 -9.089819e+21 1.6287586e-314 533.82867 336.32352
5.3167399e+10 -9.1695101e+21 1.6287674e-314 535.56921 336.45593
4.9639531e+10 -9.118597e+21 1.6287618e-314 537.34607 336.54562
5.2397744e+10 -9.1687716e+21 1.6287673e-314 539.00836 336.74795
5.4162989e+10 -9.1990222e+21 1.6287706e-314 540.67828 336.85513
5.0599863e+10 -9.151802e+21 1.6287654e-314 542.36432 337.0448
5.3202625e+10 -9.1886955e+21 1.6287695e-314 544.70087 337
5.2898538e+10 -9.1820527e+21 1.6287687e-314 545.70465 336.9773
6.3617934e+10 -9.4063635e+21 1.6287933e-314 562.86145 338.59842
6.3608464e+10 -9.4093178e+21 1.6287937e-314 564.71722 338.6922
6.4654713e+10 -9.4321916e+21 1.6287962e-314 566.55493 338.88019
6.9587059e+10 -9.5104068e+21 1.6288012e-314 568.54053 339.12271
6.5981883e+10 -9.4653978e+21 1.6287987e-314 570.54895 339.22714
6.9272683e+10 -9.5148293e+21 1.6288014e-314 572.49194 339.32309
6.7195642e+10 -9.4949144e+21 1.6288003e-314 574.44971 339.53653
6.7327926e+10 -9.5030299e+21 1.6288007e-314 576.50568 339.6983
6.8652475e+10 -9.5266378e+21 1.628802e-314 578.48578 339.80966
6.7358827e+10 -9.511884e+21 1.6288012e-314 580.4021 339.94949
7.0537135e+10 -9.5509842e+21 1.6288034e-314 582.45654 340.08691
7.2663974e+10 -9.5723853e+21 1.6288046e-314 584.45966 340.21872
7.2347894e+10 -9.5746011e+21 1.6288047e-314 586.54651 340.36649
7.2432042e+10 -9.5827166e+21 1.6288051e-314 588.57874 340.55444
7.4191291e+10 -9.5989476e+21 1.628806e-314 590.68884 340.64929
7.2588411e+10 -9.5900935e+21 1.6288055e-314 592.81403 340.76187
7.3261859e+10 -9.6026405e+21 1.6288062e-314 594.94421 340.96326
7.1279264e+10 -9.5908321e+21 1.6288056e-314 597.09601 341.0676
7.44902e+10 -9.623303e+21 1.6288073e-314 599.3706 341.2728
7.6565529e+10 -9.6446951e+21 1.6288085e-314 601.49335 341.43832
7.7699433e+10 -9.6542878e+21 1.628809e-314 603.72949 341.48666
7.7922779e+10 -9.6609351e+21 1.6288094e-314 605.84534 341.63101
7.7573997e+10 -9.6675734e+21 1.6288098e-314 608.06268 341.8689
7.6694373e+10 -9.6624033e+21 1.6288095e-314 610.37323 341.9361
7.6960645e+10 -9.6734731e+21 1.6288101e-314 612.67639 342.1774
7.6142887e+10 -9.6705278e+21 1.6288099e-314 615.06177 342.28952
7.5148182e+10 -9.668312e+21 1.6288098e-314 617.3772 342.45084
7.2797995e+10 -9.6579807e+21 1.6288092e-314 619.75806 342.64597
7.3833923e+10 -9.6690506e+21 1.6288099e-314 622.24701 342.75494
7.270867e+10 -9.6624033e+21 1.6288095e-314 624.63489 342.82428
7.0032048e+10 -9.6506038e+21 1.6288088e-314 627.08105 343.06055
7.0767362e+10 -9.6601965e+21 1.6288094e-314 629.49255 343.18967
7.0279447e+10 -9.6579807e+21 1.6288092e-314 631.99548 343.25043
6.7940393e+10 -9.6424884e+21 1.6288084e-314 634.58643 343.48468
6.8480672e+10 -9.6624033e+21 1.6288095e-314 637.24853 343.78088
6.7181027e+10 -9.6410112e+21 1.6288083e-314 639.97009 343.78928
6.7705872e+10 -9.6550264e+21 1.6288091e-314 642.81482 343.96561
6.4110141e+10 -9.6063244e+21 1.6288064e-314 645.58362 344.14551
6.2146453e+10 -9.5841938e+21 1.6288052e-314 648.28174 344.35147
6.1366526e+10 -9.5760783e+21 1.6288048e-314 651.26593 344.47485
6.1753909e+10 -9.5827166e+21 1.6288051e-314 654.33429 344.54159
6.0727419e+10 -9.5760783e+21 1.6288048e-314 657.38946 344.78235
5.9023188e+10 -9.5554158e+21 1.6288036e-314 660.58545 344.94742
5.6863679e+10 -9.5222152e+21 1.6288018e-314 663.96466 344.99109
5.7355002e+10 -9.536969e+21 1.6288026e-314 667.7677 345.20676
4.5546431e+10 -9.3628317e+21 1.6287886e-314 671.11792 345.38165
4.2115621e+10 -9.3111799e+21 1.6287829e-314 675.1803 345.44778
3.3613722e+10 -9.1791028e+21 1.6287684e-314 680.5047 345.72949
2.8771989e+09 -6.9662276e+21 1.6285256e-314 450.43195 325.71625
3.2551573e+09 -7.0194286e+21 1.6285315e-314 451.26413 325.87351
3.6985042e+09 -7.0788266e+21 1.628538e-314 452.168 325.99115
4.053484e+09 -7.131289e+21 1.6285438e-314 453.11151 326.19955
4.4828724e+09 -7.1768925e+21 1.6285488e-314 454.07312 326.30753
5.3506714e+09 -7.2359932e+21 1.6285552e-314 455.06949 326.44635
5.9897621e+09 -7.2817408e+21 1.6285603e-314 456.01099 326.60217
6.863787e+09 -7.3437238e+21 1.6285671e-314 457.09882 326.79999
7.4401721e+09 -7.384603e+21 1.6285715e-314 458.12982 326.93384
8.0459787e+09 -7.4270314e+21 1.6285762e-314 459.15774 327.06281
8.7851439e+09 -7.4761702e+21 1.6285816e-314 460.22141 327.15872
9.4147892e+09 -7.5199272e+21 1.6285864e-314 461.35812 327.28546
1.0006202e+10 -7.5633869e+21 1.6285912e-314 462.57242 327.46085
1.064916e+10 -7.6074366e+21 1.628596e-314 463.72244 327.57703
1.1154033e+10 -7.6462486e+21 1.6286002e-314 464.87289 327.76819
1.1860126e+10 -7.6967205e+21 1.6286058e-314 466.08893 327.95071
1.2317321e+10 -7.7277097e+21 1.6286092e-314 467.26608 328.02057
1.3176531e+10 -7.7867429e+21 1.6286157e-314 468.52335 328.17026
1.364812e+10 -7.8199435e+21 1.6286193e-314 469.68955 328.29489
1.4057212e+10 -7.8494601e+21 1.6286225e-314 470.91376 328.40704
1.4495091e+10 -7.8834037e+21 1.6286263e-314 472.1514 328.5795
1.521235e+10 -7.9328397e+21 1.6286317e-314 473.49304 328.71265
1.5707769e+10 -7.968256e+21 1.6286356e-314 474.79797 328.84387
1.626204e+10 -8.0081039e+21 1.6286399e-314 476.1456 328.99542
1.6825969e+10 -8.0479472e+21 1.6286443e-314 477.48468 329.12485
1.7154099e+10 -8.0737708e+21 1.6286471e-314 478.79926 329.28357
1.8029843e+10 -8.1062373e+21 1.6286507e-314 480.12039 329.41125
1.9284415e+10 -8.1519849e+21 1.6286557e-314 481.48529 329.58578
2.0517491e+10 -8.1955212e+21 1.6286605e-314 482.83374 329.73672
2.1218005e+10 -8.2235606e+21 1.6286636e-314 484.19101 329.89276
2.1397099e+10 -8.2346259e+21 1.6286648e-314 485.50757 330.04596
2.2690747e+10 -8.276685e+21 1.6286694e-314 486.98453 330.10864
2.3600419e+10 -8.3106287e+21 1.6286731e-314 488.4075 330.27756
2.453973e+10 -8.3423565e+21 1.6286766e-314 489.86307 330.35773
2.5619911e+10 -8.3814658e+21 1.6286809e-314 491.32825 330.51318
2.6361221e+10 -8.4124551e+21 1.6286843e-314 492.75973 330.71146
2.6898092e+10 -8.4353288e+21 1.6286868e-314 494.22024 330.88876
2.8084802e+10 -8.4781265e+21 1.6286915e-314 495.63629 331.04907
2.8427096e+10 -8.4921462e+21 1.628693e-314 497.10419 331.14691
2.9500412e+10 -8.5319896e+21 1.6286974e-314 498.62549 331.32135
3.0430712e+10 -8.5622403e+21 1.6287007e-314 500.13107 331.38171
3.1070229e+10 -8.5858526e+21 1.6287033e-314 501.6542 331.50391
3.1924064e+10 -8.6190577e+21 1.628707e-314 503.18131 331.68179
3.228656e+10 -8.638243e+21 1.6287091e-314 504.72946 331.88129
3.3429885e+10 -8.6780864e+21 1.6287134e-314 506.32788 332.01221
3.4235191e+10 -8.7053872e+21 1.6287164e-314 507.87457 332.09116
3.4966184e+10 -8.7253111e+21 1.6287186e-314 509.40741 332.28101
3.6886061e+10 -8.7592547e+21 1.6287224e-314 510.92847 332.39243
3.7581824e+10 -8.7769629e+21 1.6287243e-314 512.51465 332.57678
3.9604757e+10 -8.8116406e+21 1.6287281e-314 514.08905 332.6828
4.0589173e+10 -8.8308259e+21 1.6287302e-314 515.68707 332.79514
4.0881234e+10 -8.8426344e+21 1.6287315e-314 517.32806 332.98505
4.3833598e+10 -8.8913318e+21 1.6287368e-314 518.97955 333.09784
4.3344831e+10 -8.8905932e+21 1.6287368e-314 520.57501 333.26907
4.6261117e+10 -8.9385566e+21 1.628742e-314 522.33594 333.36368
4.7324537e+10 -8.9599532e+21 1.6287444e-314 523.98712 333.51413
4.7298781e+10 -8.966596e+21 1.6287451e-314 525.57379 333.68927
4.9455702e+10 -9.0057007e+21 1.6287494e-314 527.27435 333.85687
4.9819919e+10 -9.0123435e+21 1.6287501e-314 528.84497 333.89618
5.1351495e+10 -9.0440714e+21 1.6287536e-314 530.54987 334.10498
5.2872782e+10 -9.069895e+21 1.6287564e-314 532.24683 334.18613
5.2524032e+10 -9.0728494e+21 1.6287568e-314 534.00836 334.39954
5.506578e+10 -9.1163812e+21 1.6287615e-314 535.66986 334.52948
5.3847728e+10 -9.1001502e+21 1.6287597e-314 537.51923 334.61853
5.5239287e+10 -9.1281896e+21 1.6287628e-314 539.16339 334.78711
5.4965281e+10 -9.1414707e+21 1.6287643e-314 542.40942 335.25281
5.5667073e+10 -9.1488476e+21 1.6287651e-314 545.99902 335.2218
7.9310898e+10 -9.4801516e+21 1.6287995e-314 561.25207 336.56882
7.1643513e+10 -9.4240716e+21 1.6287953e-314 563.1001 336.66568
6.844289e+10 -9.4004637e+21 1.6287927e-314 564.8786 336.75687
6.9169595e+10 -9.4115291e+21 1.6287939e-314 566.75458 336.8569
7.6711543e+10 -9.479413e+21 1.6287995e-314 568.71832 337.11771
7.0437454e+10 -9.4351415e+21 1.6287965e-314 570.67395 337.22986
7.7402227e+10 -9.4949144e+21 1.6288003e-314 572.7312 337.41775
7.1348011e+10 -9.4513736e+21 1.6287979e-314 574.5741 337.51294
7.4950656e+10 -9.4867899e+21 1.6287999e-314 576.66431 337.71612
7.6656624e+10 -9.5059752e+21 1.6288009e-314 578.67505 337.88477
7.5998577e+10 -9.5030299e+21 1.6288007e-314 580.61639 337.96411
7.8027572e+10 -9.5251606e+21 1.628802e-314 582.58966 338.13153
8.0159589e+10 -9.5450845e+21 1.6288031e-314 584.62531 338.25668
7.8819509e+10 -9.5384462e+21 1.6288027e-314 586.67664 338.35846
8.1320952e+10 -9.5620541e+21 1.628804e-314 588.72601 338.48352
8.1882727e+10 -9.5716467e+21 1.6288045e-314 590.8324 338.63849
8.1588929e+10 -9.578294e+21 1.6288049e-314 592.99695 338.87988
8.3581813e+10 -9.598209e+21 1.628806e-314 595.18366 339.00787
8.3884196e+10 -9.6048563e+21 1.6288063e-314 597.34253 339.15256
8.3829212e+10 -9.6092788e+21 1.6288066e-314 599.5769 339.2804
8.3253674e+10 -9.6092788e+21 1.6288066e-314 601.72613 339.41089
8.2858558e+10 -9.6129718e+21 1.6288068e-314 603.82892 339.60584
8.3920241e+10 -9.6292027e+21 1.6288077e-314 605.99719 339.82407
8.386696e+10 -9.626987e+21 1.6288075e-314 608.21558 339.80106
8.4758643e+10 -9.6446951e+21 1.6288085e-314 610.56799 340.08444
8.21026e+10 -9.6284641e+21 1.6288076e-314 612.81006 340.21573
8.4035322e+10 -9.6498653e+21 1.6288088e-314 615.23737 340.40518
8.574129e+10 -9.6653576e+21 1.6288097e-314 617.61127 340.48062
8.6067725e+10 -9.6705278e+21 1.6288099e-314 620.12506 340.5798
8.0779756e+10 -9.6351025e+21 1.628808e-314 622.40778 340.73138
8.3731235e+10 -9.6660962e+21 1.6288097e-314 624.8714 340.95346
7.9066907e+10 -9.6343639e+21 1.628808e-314 627.26904 341.08283
7.7934772e+10 -9.6336343e+21 1.6288079e-314 629.67004 341.29129
7.9707718e+10 -9.6506038e+21 1.6288088e-314 632.29401 341.40594
7.485268e+10 -9.6173943e+21 1.628807e-314 634.84467 341.52979
7.450914e+10 -9.6218258e+21 1.6288073e-314 637.48871 341.72461
7.2966357e+10 -9.6137104e+21 1.6288068e-314 640.12622 341.85483
6.9401526e+10 -9.5893549e+21 1.6288055e-314 642.94348 341.96289
7.5715133e+10 -9.6387954e+21 1.6288082e-314 645.97516 342.01608
6.7146654e+10 -9.5679628e+21 1.6288043e-314 648.78088 342.22021
6.8539965e+10 -9.5996861e+21 1.628806e-314 651.73547 342.4906
6.6073813e+10 -9.5642698e+21 1.6288041e-314 654.61298 342.59064
6.1320978e+10 -9.4985983e+21 1.6288005e-314 657.59247 342.79013
6.1942915e+10 -9.5104068e+21 1.6288012e-314 661.09174 342.88904
5.8665853e+10 -9.4653978e+21 1.6287987e-314 664.20258 343.03897
5.7621307e+10 -9.4565437e+21 1.6287982e-314 667.82196 343.25391
5.2723311e+10 -9.3893939e+21 1.6287915e-314 671.70599 343.47409
3.7576668e+09 -7.0019412e+21 1.6285296e-314 451.59662 324.07742
4.2065987e+09 -7.062375e+21 1.6285362e-314 452.51889 324.20227
4.7893187e+09 -7.1108517e+21 1.6285415e-314 453.41315 324.37299
5.5510313e+09 -7.1639807e+21 1.6285473e-314 454.3772 324.52182
6.3868324e+09 -7.2191723e+21 1.6285534e-314 455.37991 324.61548
6.9432453e+09 -7.2601956e+21 1.6285579e-314 456.28906 324.78009
7.4543483e+09 -7.2973863e+21 1.628562e-314 457.27664 324.92105
8.2789796e+09 -7.3567122e+21 1.6285685e-314 458.37146 325.12549
8.9653187e+09 -7.4043783e+21 1.6285737e-314 459.39731 325.25952
9.692244e+09 -7.4549222e+21 1.6285793e-314 460.4801 325.40125
1.0432694e+10 -7.5049482e+21 1.6285847e-314 461.60825 325.51578
1.1102923e+10 -7.551655e+21 1.6285899e-314 462.81259 325.65335
1.1484957e+10 -7.5827209e+21 1.6285933e-314 463.98315 325.83899
1.2075731e+10 -7.6233028e+21 1.6285977e-314 465.12216 325.94882
1.2823267e+10 -7.6738467e+21 1.6286033e-314 466.31995 326.07019
1.3361859e+10 -7.71369e+21 1.6286076e-314 467.50543 326.23496
1.3919988e+10 -7.7542765e+21 1.6286121e-314 468.70694 326.39316
1.4524295e+10 -7.795597e+21 1.6286166e-314 469.89325 326.49005
1.5114635e+10 -7.8398674e+21 1.6286215e-314 471.129 326.69669
1.5581284e+10 -7.8752837e+21 1.6286254e-314 472.41684 326.85535
1.5984798e+10 -7.9040617e+21 1.6286285e-314 473.65387 326.96258
1.6560106e+10 -7.943905e+21 1.6286329e-314 474.99948 327.09097
1.7068419e+10 -7.9830143e+21 1.6286372e-314 476.3251 327.28024
1.8108011e+10 -8.0206464e+21 1.6286413e-314 477.70465 327.34558
1.8877682e+10 -8.0516357e+21 1.6286447e-314 479.00977 327.54105
1.9923931e+10 -8.0900063e+21 1.6286489e-314 480.33084 327.69919
2.1056934e+10 -8.1283725e+21 1.6286531e-314 481.66388 327.78299
2.1524238e+10 -8.1475578e+21 1.6286552e-314 482.93915 327.91385
2.2771487e+10 -8.1918327e+21 1.6286601e-314 484.38391 328.06622
2.3945728e+10 -8.2346259e+21 1.6286648e-314 485.79233 328.23672
2.4755343e+10 -8.2626653e+21 1.6286679e-314 487.16806 328.33041
2.5678762e+10 -8.2988202e+21 1.6286718e-314 488.60864 328.52615
2.6145182e+10 -8.3180056e+21 1.6286739e-314 490.01202 328.65143
2.7206472e+10 -8.3578534e+21 1.6286783e-314 491.51361 328.8447
2.8156514e+10 -8.3895813e+21 1.6286818e-314 492.96094 328.91595
2.8848444e+10 -8.4176207e+21 1.6286849e-314 494.41943 329.08844
2.977314e+10 -8.4537756e+21 1.6286888e-314 495.85059 329.29703
3.0320759e+10 -8.4729609e+21 1.6286909e-314 497.26404 329.35562
3.106379e+10 -8.5002617e+21 1.6286939e-314 498.79215 329.47873
3.2533516e+10 -8.5511749e+21 1.6286995e-314 500.34595 329.6365
3.2740971e+10 -8.564456e+21 1.628701e-314 501.81546 329.81625
3.3803539e+10 -8.6013495e+21 1.628705e-314 503.3493 329.92862
3.4185368e+10 -8.6197963e+21 1.6287071e-314 504.90811 330.11267
3.6496909e+10 -8.6611168e+21 1.6287116e-314 506.52747 330.19302
3.7325841e+10 -8.6795635e+21 1.6287136e-314 508.03336 330.35727
3.822778e+10 -8.6980103e+21 1.6287156e-314 509.55737 330.48114
4.0943919e+10 -8.7422807e+21 1.6287205e-314 511.13648 330.5495
4.1230836e+10 -8.7540891e+21 1.6287218e-314 512.68207 330.74664
4.2448036e+10 -8.7791742e+21 1.6287245e-314 514.22736 330.91464
4.3913487e+10 -8.8079522e+21 1.6287277e-314 515.85486 331.08868
4.5216572e+10 -8.8293488e+21 1.62873e-314 517.47339 331.13153
4.743277e+10 -8.8699352e+21 1.6287345e-314 519.13971 331.30933
4.7739413e+10 -8.8824777e+21 1.6287359e-314 520.76782 331.51682
4.9340588e+10 -8.9105171e+21 1.6287389e-314 522.45569 331.60992
5.0258846e+10 -8.9304411e+21 1.6287411e-314 524.11505 331.77499
5.1025945e+10 -8.9474106e+21 1.628743e-314 525.76642 331.91666
5.3224973e+10 -8.9887312e+21 1.6287475e-314 527.46753 332.10965
5.3768692e+10 -8.9990624e+21 1.6287487e-314 529.02795 332.18521
5.5413678e+10 -9.0300517e+21 1.6287521e-314 530.7583 332.34402
5.5996949e+10 -9.0455486e+21 1.6287538e-314 532.41339 332.50766
5.5919616e+10 -9.0499756e+21 1.6287542e-314 534.1629 332.66858
5.922073e+10 -9.1031001e+21 1.6287601e-314 535.89056 332.73462
5.760068e+10 -9.0831761e+21 1.6287579e-314 537.66443 332.88339
6.0070273e+10 -9.1281896e+21 1.6287628e-314 539.38892 333.06918
6.1688619e+10 -9.1577017e+21 1.6287661e-314 541.02753 333.20081
6.3848981e+10 -9.1960724e+21 1.6287703e-314 543.17194 333.34998
6.8796826e+10 -9.2779748e+21 1.6287793e-314 544.97382 333.5145
6.4306848e+10 -9.2123034e+21 1.6287721e-314 546.33624 333.60123
6.9666096e+10 -9.3229838e+21 1.6287842e-314 550.46704 334.49664
6.011238e+10 -9.1628673e+21 1.6287666e-314 553.99396 334.06662
6.7486819e+10 -9.2949444e+21 1.6287811e-314 559.33948 334.56049
8.3399689e+10 -9.431453e+21 1.6287961e-314 561.36902 334.71549
6.9221172e+10 -9.328888e+21 1.6287848e-314 563.17194 334.88519
7.1712195e+10 -9.3539776e+21 1.6287876e-314 565.03491 335.04703
7.6859327e+10 -9.3975094e+21 1.6287924e-314 566.93366 335.16162
8.4897776e+10 -9.4653978e+21 1.6287987e-314 568.92511 335.3262
7.5326899e+10 -9.3960367e+21 1.6287922e-314 570.82398 335.45783
8.4059374e+10 -9.4712975e+21 1.628799e-314 572.82636 335.677
8.107008e+10 -9.4513736e+21 1.6287979e-314 574.77722 335.7767
8.1396515e+10 -9.4594891e+21 1.6287984e-314 576.77875 335.92868
8.4006159e+10 -9.4867899e+21 1.6287999e-314 578.84979 336.11569
8.3066373e+10 -9.4845831e+21 1.6287997e-314 580.75513 336.26666
8.4832502e+10 -9.5000755e+21 1.6288006e-314 582.79559 336.33194
8.8220386e+10 -9.5318079e+21 1.6288023e-314 584.80774 336.50607
8.8295949e+10 -9.5354918e+21 1.6288025e-314 586.88483 336.6044
8.8752931e+10 -9.5473003e+21 1.6288032e-314 588.94501 336.81149
9.1276657e+10 -9.569431e+21 1.6288044e-314 591.08807 336.91797
8.9445319e+10 -9.5627927e+21 1.628804e-314 593.22687 337.10953
9.0649609e+10 -9.5731239e+21 1.6288046e-314 595.39471 337.16205
9.100868e+10 -9.5827166e+21 1.6288051e-314 597.55591 337.35907
9.0807681e+10 -9.5871481e+21 1.6288054e-314 599.76514 337.51679
9.238474e+10 -9.6048563e+21 1.6288063e-314 601.93133 337.68637
9.2936225e+10 -9.6129718e+21 1.6288068e-314 604.09082 337.80109
9.0713178e+10 -9.6004247e+21 1.6288061e-314 606.13763 337.93408
9.2910469e+10 -9.6225644e+21 1.6288073e-314 608.47406 338.09323
9.2044608e+10 -9.6188715e+21 1.6288071e-314 610.74817 338.19363
9.0632438e+10 -9.6159171e+21 1.6288069e-314 613.01977 338.40167
9.0561987e+10 -9.6203487e+21 1.6288072e-314 615.44141 338.54184
9.1975861e+10 -9.6343639e+21 1.628808e-314 617.81171 338.65906
9.054652e+10 -9.6292027e+21 1.6288077e-314 620.23792 338.8237
8.7213622e+10 -9.610756e+21 1.6288067e-314 622.64795 339.01343
8.8575984e+10 -9.6196101e+21 1.6288071e-314 625.05054 339.0174
8.8038261e+10 -9.626987e+21 1.6288075e-314 627.46472 339.3096
8.4875428e+10 -9.6048563e+21 1.6288063e-314 629.8775 339.39368
8.3736412e+10 -9.5989476e+21 1.628806e-314 632.4071 339.48413
8.3076727e+10 -9.6033791e+21 1.6288063e-314 635.1344 339.75699
8.2404983e+10 -9.5989476e+21 1.628806e-314 637.60809 339.79629
8.3066372e+10 -9.6144489e+21 1.6288069e-314 640.54755 340.07471
7.9472378e+10 -9.5878777e+21 1.6288054e-314 643.17926 340.13986
7.8274904e+10 -9.5864095e+21 1.6288053e-314 646.0824 340.34598
7.2895905e+10 -9.5517228e+21 1.6288034e-314 649.01129 340.54645
7.2121172e+10 -9.5487775e+21 1.6288033e-314 651.78742 340.63745
6.9678186e+10 -9.5354918e+21 1.6288025e-314 654.96033 340.82007
6.6808242e+10 -9.5030299e+21 1.6288007e-314 658.00537 340.94354
6.5052467e+10 -9.4882671e+21 1.6287999e-314 661.20862 341.26785
6.4321446e+10 -9.4749905e+21 1.6287992e-314 664.75024 341.26096
5.9877024e+10 -9.4152175e+21 1.6287943e-314 668.32593 341.50073
5.9044651e+10 -9.4041522e+21 1.6287931e-314 672.28253 341.60278
4.6586684e+10 -9.2278002e+21 1.6287738e-314 676.22961 341.97629
3.9618536e+10 -9.1156426e+21 1.6287614e-314 681.80969 341.91299
5.7019976e+09 -7.0946928e+21 1.6285397e-314 453.71384 322.73291
6.6711604e+09 -7.1594771e+21 1.6285468e-314 454.70453 322.85523
