# .PCD v0.7 - Point Cloud Data file format
VERSION 0.7
FIELDS x y z p_x p_y
SIZE 8 8 8 8 8
TYPE F F F F F
COUNT 1 1 1 1 1
WIDTH 793
HEIGHT 1
VIEWPOINT 0 0 0 1 0 0 0
POINTS 793
DATA ascii
26326.152 -8.3261255e+21 1.6286748e-314 534.72754 453.47397
27246.934 -8.2700467e+21 1.6286687e-314 537.23334 453.17682
21581.012 -8.2242991e+21 1.6286637e-314 539.52856 453.05191
19837.106 -8.1748586e+21 1.6286582e-314 541.87488 452.83258
21219.918 -8.1209956e+21 1.6286523e-314 544.23169 452.61612
18472.965 -8.0722981e+21 1.628647e-314 546.53735 452.52545
17323.137 -8.021385e+21 1.6286414e-314 548.90808 452.1984
16102.037 -7.972683e+21 1.6286361e-314 551.1831 452.05158
14679.576 -7.9269355e+21 1.628631e-314 553.40405 451.73733
12899.459 -7.8819265e+21 1.6286261e-314 555.60761 451.52649
13250.568 -7.8317519e+21 1.6286206e-314 557.8252 451.3407
11178.482 -7.7882156e+21 1.6286158e-314 560.01099 451.12677
9370.9981 -7.7483722e+21 1.6286115e-314 561.9596 450.93341
9257.9512 -7.7048359e+21 1.6286067e-314 563.96228 450.74548
8743.4903 -7.6601963e+21 1.6286018e-314 566.04175 450.43121
8119.2569 -7.6139308e+21 1.6285967e-314 568.19879 450.25617
7767.4951 -7.5686246e+21 1.6285917e-314 570.31885 450.04306
7123.0303 -7.5242056e+21 1.6285869e-314 572.44556 449.83435
6532.7139 -7.4742516e+21 1.6285814e-314 574.80048 449.69904
5818.5342 -7.4271035e+21 1.6285762e-314 577.05579 449.5333
5211.2608 -7.3844544e+21 1.6285715e-314 579.10883 449.26169
5225.2686 -7.3387068e+21 1.6285665e-314 581.20343 448.98212
4477.0147 -7.297679e+21 1.628562e-314 583.1955 448.77887
4463.9873 -7.2543679e+21 1.6285573e-314 585.19879 448.4321
3753.8628 -7.213786e+21 1.6285528e-314 587.2005 448.33185
3115.8687 -7.1724654e+21 1.6285483e-314 589.29437 448.07736
2934.7437 -7.1259027e+21 1.6285432e-314 591.46497 447.91614
2498.2339 -7.0866493e+21 1.6285389e-314 593.40076 447.67764
2218.8862 -7.0493145e+21 1.6285348e-314 595.2096 447.37781
2026.6199 -7.0111645e+21 1.6285306e-314 597.00824 447.25748
1552.5691 -6.9817965e+21 1.6285274e-314 598.65363 446.98929
888.87342 -6.9528024e+21 1.6285242e-314 600.43939 446.95093
1873.8796 -6.8962777e+21 1.628518e-314 602.37653 446.52368
1369.1912 -6.7879616e+21 1.6285061e-314 607.6712 445.71088
732.02723 -6.7568237e+21 1.6285027e-314 609.63818 445.56226
962.56043 -6.719705e+21 1.6284986e-314 611.07074 445.34247
562.47351 -6.5322877e+21 1.628478e-314 620.1405 444.14828
253.54758 -6.5042483e+21 1.628475e-314 621.79254 443.88461
134.77902 -6.4714126e+21 1.6284714e-314 623.55695 443.73633
121.92259 -6.4357756e+21 1.6284675e-314 625.24188 443.45013
240.62473 -6.3922393e+21 1.6284627e-314 626.95844 443.22415
59.613457 -6.3689962e+21 1.6284601e-314 628.61511 442.93845
64.053818 -6.3315893e+21 1.628456e-314 630.29718 442.66351
115.13347 -6.2896023e+21 1.6284514e-314 631.99939 442.40002
34.859551 -6.2639993e+21 1.6284486e-314 633.65259 442.22235
63.171868 -6.2215709e+21 1.628444e-314 635.35309 441.97382
21.058575 -6.1972965e+21 1.6284413e-314 636.94165 441.67752
19.312649 -6.162245e+21 1.6284374e-314 638.57159 441.51526
22.570248 -6.1243202e+21 1.6284333e-314 640.24725 441.34641
11.211844 -6.0952494e+21 1.6284301e-314 641.86444 441.06778
13.163206 -6.0600538e+21 1.6284262e-314 643.4184 440.81265
18.089611 -6.0276594e+21 1.6284227e-314 644.83142 440.07669
3.9389606 -5.9529852e+21 1.6284145e-314 648.76965 440.18417
2.6476817 -5.922068e+21 1.6284111e-314 650.36352 439.9389
3.1901622 -5.886431e+21 1.6284072e-314 651.93103 439.66305
1.5200012 -5.8603101e+21 1.6284043e-314 653.35828 439.39578
0.85340059 -5.8296136e+21 1.628401e-314 654.87311 439.19424
0.59572018 -5.7997322e+21 1.6283977e-314 656.32019 438.87705
0.2343801 -5.770067e+21 1.6283944e-314 657.85443 438.64029
0.20294008 -5.7374564e+21 1.6283908e-314 659.3844 438.37854
0.068650052 -5.7088271e+21 1.6283877e-314 660.8949 438.15759
0.031607531 -5.680639e+21 1.6283846e-314 662.32971 437.92026
0.025802504 -5.6494291e+21 1.6283812e-314 663.80383 437.70703
0.012712507 -5.6206511e+21 1.628378e-314 665.25079 437.50897
0.0088443812 -5.5899545e+21 1.6283747e-314 666.73401 437.15585
0.0028314698 -5.5614738e+21 1.6283715e-314 668.1499 436.96933
0.00055241434 -5.5335064e+21 1.6283685e-314 669.57703 436.71915
6.7770525e-05 -5.5083448e+21 1.6283657e-314 670.91913 436.50195
1.5154545e-05 -5.4801613e+21 1.6283626e-314 672.31799 436.22253
3.2465828e-06 -5.4514553e+21 1.6283595e-314 673.70435 435.95831
2.724077e-08 -5.4257037e+21 1.6283566e-314 675.06451 435.71387
6.0755035e-10 -5.3962637e+21 1.6283534e-314 676.49725 435.47772
-5.6177333e-14 -5.3712529e+21 1.6283507e-314 677.80627 435.28949
-5.7866816e-11 -5.3432856e+21 1.6283476e-314 679.14697 435.00638
-6.7520191e-08 -5.3165748e+21 1.6283447e-314 680.5047 434.71585
-2.3357566e-06 -5.2911204e+21 1.6283419e-314 681.80774 434.49457
-2.9116705e-05 -5.2658868e+21 1.6283391e-314 683.07538 434.20621
-0.00010100006 -5.2404279e+21 1.6283363e-314 684.34821 433.918
-0.00046265259 -5.2143836e+21 1.6283335e-314 685.66785 433.68701
-0.0016827665 -5.1879655e+21 1.6283306e-314 686.98364 433.45679
-0.0090487581 -5.1641324e+21 1.6283279e-314 688.22852 433.17694
-0.013149379 -5.1378629e+21 1.6283251e-314 689.48877 432.9382
-0.030773755 -5.1143271e+21 1.6283225e-314 690.72015 432.63971
-0.090040073 -5.0915254e+21 1.62832e-314 691.927 432.42459
-0.14865014 -5.0673996e+21 1.6283173e-314 693.12054 432.11014
-0.30834025 -5.0431973e+21 1.6283147e-314 694.34314 431.90811
-0.70704019 -5.0206162e+21 1.6283122e-314 695.50928 431.6452
-1.918721 -4.9986297e+21 1.6283098e-314 696.68066 431.41003
-3.1147208 -4.9775979e+21 1.6283075e-314 697.7807 431.11185
-4.9545622 -4.9590025e+21 1.6283054e-314 698.78137 430.90985
-6.2617636 -4.9338454e+21 1.6283027e-314 700.00366 430.60367
-8.3136044 -4.9097151e+21 1.6283e-314 701.20801 430.33756
-14.571203 -4.8900119e+21 1.6282979e-314 702.27747 430.10382
-22.150417 -4.8685432e+21 1.6282955e-314 703.38165 429.83316
-36.043541 -4.8489165e+21 1.6282934e-314 704.43774 429.56201
-49.559075 -4.8286233e+21 1.6282911e-314 705.45306 429.29962
-74.600998 -4.809438e+21 1.628289e-314 706.46344 429.02057
-123.67876 -4.7906219e+21 1.628287e-314 707.48419 428.77731
-184.1102 -4.7710673e+21 1.6282848e-314 708.48621 428.47668
-342.15961 -4.754467e+21 1.628283e-314 709.43536 428.1651
-421.93939 -4.7360203e+21 1.628281e-314 710.34076 427.90659
-643.06189 -4.7210779e+21 1.6282792e-314 711.25915 427.71258
-789.40173 -4.7117419e+21 1.6282772e-314 712.22906 427.42569
-987.37195 -4.7039575e+21 1.6282754e-314 713.10516 427.06296
-1382.3191 -4.696137e+21 1.6282737e-314 713.99091 426.82684
-1616.241 -4.6876139e+21 1.6282719e-314 714.86328 426.43182
-2131.7651 -4.6815633e+21 1.6282705e-314 715.60638 426.18628
-2845.1245 -4.6762153e+21 1.6282694e-314 716.23627 425.96335
-3567.9849 -4.6713086e+21 1.6282683e-314 716.83112 425.71887
-4683.5322 -4.6640398e+21 1.6282667e-314 717.6543 425.46042
-6068.2236 -4.656145e+21 1.628265e-314 718.508 425.11087
-7678.5283 -4.6498355e+21 1.6282636e-314 719.24121 424.80643
-10036.51 -4.6447802e+21 1.6282625e-314 719.85052 424.43396
-20658.91 -4.6374393e+21 1.6282609e-314 720.93762 423.91519
-27694.863 -4.6336383e+21 1.62826e-314 721.45587 423.65622
-33747.758 -4.6294702e+21 1.6282591e-314 721.97382 423.33804
50935.899 -9.9029495e+21 1.6288227e-314 464.49933 455.35959
30868.121 -9.7177435e+21 1.6288125e-314 473.11291 455.20783
55902.242 -9.6055948e+21 1.6288064e-314 477.34912 455.02603
43991.711 -9.5318078e+21 1.6288023e-314 480.90268 454.89945
64575.93 -9.4373572e+21 1.6287967e-314 484.53558 454.79138
78295.922 -9.3554502e+21 1.6287878e-314 488.00385 454.53461
57741.836 -9.2934717e+21 1.628781e-314 491.06186 454.42224
55235.742 -9.2196847e+21 1.6287729e-314 494.40579 454.22067
74168.422 -9.1355665e+21 1.6287636e-314 497.78116 454.0372
59424.149 -9.0735835e+21 1.6287568e-314 500.7724 453.96411
70891.672 -8.9990624e+21 1.6287487e-314 503.91339 453.62567
65111.992 -8.9223211e+21 1.6287402e-314 507.39276 453.4733
69220.485 -8.8448456e+21 1.6287317e-314 510.76791 453.35535
64539.867 -8.7799127e+21 1.6287246e-314 513.73126 453.17163
69811.61 -8.7142412e+21 1.6287174e-314 516.57739 453.05957
63054.18 -8.6603782e+21 1.6287115e-314 519.10297 452.83188
61154.274 -8.6020881e+21 1.6287051e-314 521.78546 452.58102
63174.117 -8.5401051e+21 1.6286983e-314 524.50738 452.48471
61850.274 -8.4825536e+21 1.628692e-314 527.14001 452.25894
55957.93 -8.4309018e+21 1.6286863e-314 529.60437 451.99554
61247.992 -8.3740844e+21 1.6286801e-314 532.07324 451.74005
61109.711 -8.3202213e+21 1.6286742e-314 534.50201 451.52679
52822.055 -8.2678309e+21 1.6286684e-314 537.03955 451.35348
48252.211 -8.2191335e+21 1.6286631e-314 539.34753 451.11194
42884.149 -8.1711702e+21 1.6286578e-314 541.62903 450.97403
45050.117 -8.1165685e+21 1.6286518e-314 544.06708 450.74692
36352.18 -8.0700824e+21 1.6286467e-314 546.33972 450.599
37314.242 -8.0162193e+21 1.6286408e-314 548.75647 450.36133
32590.074 -7.9689946e+21 1.6286357e-314 551.02063 450.12582
30753.106 -7.9210312e+21 1.6286304e-314 553.26068 449.88782
26822.918 -7.8789766e+21 1.6286258e-314 555.35919 449.70785
24681.856 -7.8324905e+21 1.6286207e-314 557.54266 449.60642
24365.965 -7.787477e+21 1.6286157e-314 559.58478 449.33871
22723.965 -7.7439452e+21 1.628611e-314 561.66339 449.04678
18860.949 -7.7033633e+21 1.6286065e-314 563.67004 448.80441
17305.121 -7.658647e+21 1.6286016e-314 565.78687 448.57529
16513.121 -7.6128995e+21 1.6285966e-314 567.89355 448.41028
15151.436 -7.5669312e+21 1.6285915e-314 570.09582 448.17712
14430.053 -7.5219943e+21 1.6285866e-314 572.19586 447.98969
11617.084 -7.4825157e+21 1.6285823e-314 574.24188 447.68686
13032.99 -7.4307919e+21 1.6285766e-314 576.47992 447.49225
8883.084 -7.3927905e+21 1.6285724e-314 578.52991 447.37341
10700.068 -7.3435031e+21 1.628567e-314 580.64477 447.08078
7887.753 -7.3056504e+21 1.6285629e-314 582.62396 446.86783
7189.4678 -7.263884e+21 1.6285583e-314 584.64386 446.62967
8035.7803 -7.2163665e+21 1.6285531e-314 586.67596 446.43045
7168.003 -7.1715782e+21 1.6285482e-314 588.84106 446.30313
5626.7608 -7.1334327e+21 1.628544e-314 590.83966 446.00632
6066.0147 -7.0859873e+21 1.6285388e-314 592.91864 445.91248
5283.5147 -7.0495352e+21 1.6285348e-314 594.72552 445.59409
4328.7373 -7.0154474e+21 1.628531e-314 596.43384 445.39996
3057.5015 -6.9843816e+21 1.6285276e-314 598.21625 445.15179
3955.5093 -6.9384134e+21 1.6285226e-314 600.08411 444.68893
2910.6187 -6.9030691e+21 1.6285187e-314 602.02936 444.39416
2232.8941 -6.870972e+21 1.6285152e-314 603.67297 444.39236
2305.1069 -6.8282463e+21 1.6285105e-314 605.59253 444.26013
1997.6199 -6.7900243e+21 1.6285063e-314 607.47223 443.89935
1998.5623 -6.7154266e+21 1.6284981e-314 610.8913 443.47311
1702.3191 -6.632047e+21 1.628489e-314 614.88684 442.98035
325.65277 -6.5899879e+21 1.6284844e-314 618.01813 442.61249
1358.3777 -6.5237309e+21 1.6284771e-314 620.06403 442.28839
633.43641 -6.466247e+21 1.6284708e-314 623.34003 441.85684
689.28553 -6.4264036e+21 1.6284664e-314 625.11151 441.56473
672.71717 -6.390028e+21 1.6284624e-314 626.79529 441.37488
272.06684 -6.3643485e+21 1.6284596e-314 628.42999 441.12259
286.84296 -6.3281216e+21 1.6284556e-314 630.07404 440.91168
401.62323 -6.2881251e+21 1.6284513e-314 631.78235 440.67291
131.7479 -6.2606802e+21 1.6284482e-314 633.48566 440.36557
285.91132 -6.2172925e+21 1.6284435e-314 635.16968 440.13998
87.383103 -6.1923515e+21 1.6284407e-314 636.80688 439.92337
93.140549 -6.1575973e+21 1.6284369e-314 638.3811 439.6409
102.52293 -6.1203345e+21 1.6284328e-314 640.05505 439.37695
38.355217 -6.0950288e+21 1.6284301e-314 641.59973 439.20883
74.414109 -6.052821e+21 1.6284254e-314 643.26996 438.96432
63.769615 -6.0182154e+21 1.6284216e-314 644.91095 438.68448
26.876812 -5.9853076e+21 1.628418e-314 646.78894 438.34494
8.5740872 -5.9625058e+21 1.6284155e-314 648.28357 437.99036
11.171843 -5.9188975e+21 1.6284107e-314 650.1604 438.02292
13.764807 -5.8822967e+21 1.6284067e-314 651.74957 437.84283
7.9780836 -5.8545545e+21 1.6284037e-314 653.22113 437.56204
6.8422423 -5.822606e+21 1.6284002e-314 654.76617 437.32062
4.6128035 -5.7937559e+21 1.628397e-314 656.23486 437.10278
3.0192809 -5.7642394e+21 1.6283938e-314 657.75781 436.88
2.9672809 -5.7313316e+21 1.6283902e-314 659.27887 436.58341
1.7912805 -5.7020356e+21 1.628387e-314 660.77832 436.34641
0.9312805 -5.6733342e+21 1.6283838e-314 662.21912 436.06461
0.49250025 -5.6438942e+21 1.6283806e-314 663.6795 435.87109
0.21527013 -5.6151882e+21 1.6283774e-314 665.15454 435.65753
0.19388005 -5.5846403e+21 1.6283741e-314 666.57855 435.40579
0.05479502 -5.5590373e+21 1.6283713e-314 667.98059 435.18634
0.037947528 -5.529228e+21 1.628368e-314 669.4176 434.91248
0.017112505 -5.5025172e+21 1.6283651e-314 670.79077 434.57077
0.0084093791 -5.4749191e+21 1.628362e-314 672.18176 434.36374
0.002115251 -5.4476183e+21 1.628359e-314 673.55481 434.19107
0.00064492214 -5.4200968e+21 1.628356e-314 674.92963 433.91632
0.0001794103 -5.3923546e+21 1.628353e-314 676.31653 433.63599
5.3360847e-05 -5.3650538e+21 1.62835e-314 677.66596 433.46072
8.517003e-07 -5.342252e+21 1.6283475e-314 678.92334 433.13672
8.0279586e-07 -5.3108169e+21 1.628344e-314 680.36505 432.87787
4.5402073e-09 -5.2861732e+21 1.6283413e-314 681.64996 432.60034
5.6559263e-12 -5.259021e+21 1.6283384e-314 682.98395 432.40408
-6.8354446e-12 -5.2346002e+21 1.6283357e-314 684.24976 432.13202
-3.3323775e-09 -5.2087e+21 1.6283328e-314 685.52387 431.85733
-3.1441664e-06 -5.1856777e+21 1.6283303e-314 686.78949 431.63776
-1.9654803e-05 -5.1594082e+21 1.6283274e-314 688.06726 431.39639
-0.00011849419 -5.1347645e+21 1.6283247e-314 689.3288 431.12036
-0.00058126578 -5.11167e+21 1.6283222e-314 690.51965 430.83325
-0.0020408756 -5.0868777e+21 1.6283195e-314 691.76086 430.54538
-0.009366883 -5.0632653e+21 1.6283169e-314 692.97199 430.3363
-0.020217504 -5.0404636e+21 1.6283144e-314 694.14484 430.03503
-0.048875027 -5.0175178e+21 1.6283119e-314 695.33301 429.80032
-0.089310035 -4.9930947e+21 1.6283092e-314 696.54358 429.57739
-0.18384013 -4.9709595e+21 1.6283068e-314 697.67517 429.31656
-0.55968034 -4.9539855e+21 1.6283049e-314 698.63946 428.98718
-0.88196027 -4.9304497e+21 1.6283023e-314 699.78766 428.72293
-2.4306407 -4.9092737e+21 1.6283e-314 700.93384 428.51669
-3.4201617 -4.8873592e+21 1.6282976e-314 702.04474 428.22784
-5.403842 -4.8661788e+21 1.6282953e-314 703.15265 427.92984
-7.2777624 -4.8436743e+21 1.6282928e-314 704.28156 427.6662
-10.328009 -4.8224984e+21 1.6282905e-314 705.34235 427.47553
-18.14465 -4.8049389e+21 1.6282885e-314 706.33203 427.14798
-28.046734 -4.7859742e+21 1.6282865e-314 707.33057 426.81662
-41.1213 -4.7665682e+21 1.6282843e-314 708.33124 426.54779
-62.562584 -4.7483421e+21 1.6282823e-314 709.29926 426.32275
-109.26598 -4.7331425e+21 1.6282807e-314 710.15387 426.04724
-194.76486 -4.7203753e+21 1.628279e-314 710.99841 425.79315
-294.27728 -4.7110416e+21 1.628277e-314 711.97894 425.51263
-405.21747 -4.7012283e+21 1.6282748e-314 712.96179 425.23697
-612.96668 -4.6936645e+21 1.6282732e-314 713.82373 424.91272
-807.12732 -4.6860647e+21 1.6282715e-314 714.67474 424.61584
-1443.0622 -4.6770259e+21 1.6282695e-314 715.84418 424.18762
-1873.7561 -4.6725989e+21 1.6282686e-314 716.42023 423.9711
-2623.3657 -4.6669176e+21 1.6282673e-314 717.12488 423.61304
-3132.0063 -4.6586152e+21 1.6282655e-314 717.98285 423.24036
-3811.6157 -4.6503151e+21 1.6282637e-314 718.86847 422.98392
-4977.4619 -4.6436745e+21 1.6282622e-314 719.61804 422.61569
-6598.2471 -4.6385089e+21 1.6282611e-314 720.24719 422.32272
-8540.9785 -4.6345975e+21 1.6282602e-314 720.7796 422.0611
-12210.994 -4.6312041e+21 1.6282595e-314 721.26819 421.8013
-15510.572 -4.6279209e+21 1.6282588e-314 721.73199 421.53909
-18158.066 -4.6232349e+21 1.6282577e-314 722.24542 421.25684
75568.297 -9.9221348e+21 1.6288237e-314 463.66 453.59119
113315.73 -9.7996549e+21 1.628817e-314 468.51526 453.4866
79288.11 -9.7206978e+21 1.6288127e-314 472.39511 453.36609
85628.047 -9.6210872e+21 1.6288072e-314 476.69913 453.13525
85692.297 -9.5391847e+21 1.6288027e-314 480.26358 453.1022
105603.42 -9.450635e+21 1.6287979e-314 483.94852 452.80926
134579.59 -9.3613545e+21 1.6287884e-314 487.51477 452.7381
111496.42 -9.2964216e+21 1.6287813e-314 490.67618 452.47226
137388.47 -9.2093535e+21 1.6287717e-314 494.23496 452.24039
130695.86 -9.1407321e+21 1.6287642e-314 497.33945 452.16125
148239.84 -9.0499756e+21 1.6287542e-314 501.15186 451.93256
137068.59 -8.9828269e+21 1.6287469e-314 504.25806 451.84824
140051.84 -8.9009245e+21 1.6287379e-314 507.82971 451.82449
157488.34 -8.8256603e+21 1.6287296e-314 511.00873 451.50223
138351.84 -8.7710587e+21 1.6287236e-314 513.68176 451.40033
136287.47 -8.7105528e+21 1.628717e-314 516.40326 451.19784
128607.92 -8.6559512e+21 1.628711e-314 518.935 451.00821
122412.11 -8.6006109e+21 1.6287049e-314 521.51422 450.72168
122575.98 -8.5423208e+21 1.6286986e-314 524.13293 450.63355
132399.84 -8.4795992e+21 1.6286917e-314 526.84784 450.37097
117236.11 -8.4279474e+21 1.628686e-314 529.33575 450.15036
116179.67 -8.3740844e+21 1.6286801e-314 531.78314 449.92654
107843.48 -8.3216985e+21 1.6286743e-314 534.2334 449.74176
112964.42 -8.2626653e+21 1.6286679e-314 536.87592 449.46256
95108.485 -8.2161792e+21 1.6286628e-314 539.16278 449.32968
98395.797 -8.1615775e+21 1.6286568e-314 541.58209 449.12518
91063.61 -8.1114029e+21 1.6286513e-314 543.94165 448.91876
83696.047 -8.0619669e+21 1.6286459e-314 546.24805 448.74182
72499.922 -8.0147421e+21 1.6286407e-314 548.53149 448.46716
69435.422 -7.9630904e+21 1.628635e-314 550.89026 448.22363
57522.274 -7.9195586e+21 1.6286302e-314 553.08789 448.05301
58087.867 -7.8730724e+21 1.6286251e-314 555.21484 447.77801
43842.305 -7.8347017e+21 1.6286209e-314 557.26654 447.55716
59357.93 -7.7823114e+21 1.6286152e-314 559.28857 447.42578
38560.086 -7.7468951e+21 1.6286113e-314 561.34943 447.15799
44464.242 -7.6967205e+21 1.6286058e-314 563.51166 446.95761
36772.274 -7.6555486e+21 1.6286013e-314 565.53436 446.79013
31087.012 -7.6126022e+21 1.6285966e-314 567.64288 446.58719
33734.024 -7.5606577e+21 1.6285909e-314 569.91486 446.37469
29051.137 -7.5186706e+21 1.6285863e-314 571.99481 446.18698
25619.996 -7.4769808e+21 1.6285817e-314 574.0531 445.87491
25122.902 -7.4304226e+21 1.6285766e-314 576.1908 445.69122
18669.902 -7.3925699e+21 1.6285724e-314 578.18414 445.45544
22602.074 -7.3418773e+21 1.6285669e-314 580.32446 445.293
17303.152 -7.302034e+21 1.6285625e-314 582.36823 445.00558
15477.967 -7.2612314e+21 1.628558e-314 584.34009 444.80203
15725.529 -7.2167358e+21 1.6285531e-314 586.3493 444.5907
10155.959 -7.184418e+21 1.6285496e-314 588.25348 444.45981
10712.522 -7.1419175e+21 1.6285449e-314 590.13934 444.32602
8160.792 -7.099417e+21 1.6285403e-314 592.28381 444.08932
9160.959 -7.0583172e+21 1.6285357e-314 594.09021 443.83234
9458.9825 -7.0195052e+21 1.6285315e-314 595.8606 443.51031
8413.0294 -6.9717625e+21 1.6285263e-314 598.14246 443.16037
7912.7373 -6.9363462e+21 1.6285224e-314 599.80579 443.06503
6018.9912 -6.9001147e+21 1.6285184e-314 601.75568 442.82129
4471.0342 -6.8684634e+21 1.6285149e-314 603.44665 442.57105
4695.9834 -6.8245579e+21 1.6285101e-314 605.40784 442.43457
3687.6304 -6.7871465e+21 1.628506e-314 607.34528 442.13605
3987.9898 -6.7506223e+21 1.628502e-314 608.93585 441.88763
6004.4951 -6.700817e+21 1.6284965e-314 610.92542 441.4931
4483.9756 -6.5924964e+21 1.6284846e-314 616.1322 440.76355
524.21668 -6.5941942e+21 1.6284848e-314 617.85236 440.75659
2209.0152 -6.5217358e+21 1.6284769e-314 619.96008 440.46036
868.37293 -6.4706019e+21 1.6284713e-314 623.11762 440.04465
1808.1189 -6.4174009e+21 1.6284654e-314 624.94043 439.75021
1329.7468 -6.3872223e+21 1.6284621e-314 626.5965 439.52264
920.78113 -6.356233e+21 1.6284587e-314 628.31262 439.2619
826.21473 -6.3220687e+21 1.628455e-314 629.98157 439.07297
979.9989 -6.2821488e+21 1.6284506e-314 631.64417 438.8172
561.0907 -6.2552939e+21 1.6284477e-314 633.3446 438.55637
787.28211 -6.2134554e+21 1.6284431e-314 635.01422 438.34497
317.56317 -6.1900637e+21 1.6284405e-314 636.60608 438.09439
344.56586 -6.1540574e+21 1.6284365e-314 638.22613 437.89185
437.84223 -6.116646e+21 1.6284324e-314 639.84546 437.62195
145.82797 -6.0917817e+21 1.6284297e-314 641.41943 437.42462
225.0958 -6.0523031e+21 1.6284254e-314 643.05981 437.20902
126.46916 -6.0215345e+21 1.628422e-314 644.69934 436.83841
140.26767 -5.9814705e+21 1.6284176e-314 646.50708 436.56332
116.0551 -5.9453111e+21 1.6284136e-314 648.23657 436.39374
46.92611 -5.9149118e+21 1.6284103e-314 649.9798 436.27646
50.758415 -5.8803782e+21 1.6284065e-314 651.53516 436.00635
29.992336 -5.8507175e+21 1.6284033e-314 653.08252 435.8223
23.896328 -5.8197282e+21 1.6283999e-314 654.60651 435.58646
17.283215 -5.789401e+21 1.6283965e-314 656.1095 435.31979
12.432646 -5.7597403e+21 1.6283933e-314 657.61212 435.07761
11.536963 -5.7269766e+21 1.6283897e-314 659.14386 434.83969
6.813922 -5.7001171e+21 1.6283867e-314 660.57172 434.59406
5.3267241 -5.6700871e+21 1.6283835e-314 662.05096 434.2702
3.987762 -5.6391699e+21 1.6283801e-314 663.54913 434.1167
2.7527213 -5.6119456e+21 1.6283771e-314 664.96283 433.83072
2.145042 -5.5820597e+21 1.6283738e-314 666.40356 433.66263
0.93776024 -5.554241e+21 1.6283707e-314 667.84827 433.35333
0.57652033 -5.5262016e+21 1.6283677e-314 669.22772 433.091
0.26544017 -5.4985315e+21 1.6283646e-314 670.62695 432.90048
0.12604007 -5.4714513e+21 1.6283617e-314 672.00543 432.61243
0.095445022 -5.4430471e+21 1.6283585e-314 673.36914 432.35608
0.025165018 -5.4197275e+21 1.628356e-314 674.67499 432.12943
0.024322506 -5.3886662e+21 1.6283526e-314 676.10657 431.84451
0.016643759 -5.3595189e+21 1.6283494e-314 677.50696 431.51587
0.0041256277 -5.3347986e+21 1.6283467e-314 678.82422 431.30997
0.0018572824 -5.3061692e+21 1.6283435e-314 680.20532 431.0722
0.00060415676 -5.278945e+21 1.6283405e-314 681.55102 430.84283
6.8217793e-05 -5.2560667e+21 1.628338e-314 682.78766 430.58246
1.1131107e-05 -5.229581e+21 1.6283351e-314 684.10968 430.3678
2.698518e-07 -5.2056714e+21 1.6283325e-314 685.3631 430.10486
8.731188e-10 -5.1810277e+21 1.6283298e-314 686.63129 429.82278
4.8849906e-15 -5.155794e+21 1.628327e-314 687.88556 429.60327
-1.7280141e-10 -5.1310039e+21 1.6283243e-314 689.15637 429.34012
-2.9656416e-08 -5.1059864e+21 1.6283216e-314 690.40033 429.06604
-1.282441e-06 -5.0815634e+21 1.6283189e-314 691.63928 428.84967
-2.4244157e-05 -5.0580997e+21 1.6283163e-314 692.83453 428.57284
-0.00016295907 -5.0364058e+21 1.6283139e-314 693.97675 428.26575
-0.00063681265 -5.0120594e+21 1.6283113e-314 695.19995 428.01352
-0.0059356904 -4.9919148e+21 1.6283091e-314 696.30542 427.73908
-0.016735014 -4.9704416e+21 1.6283067e-314 697.43256 427.50043
-0.028065007 -4.949635e+21 1.6283044e-314 698.46472 427.22772
-0.058105014 -4.926464e+21 1.6283019e-314 699.64227 426.91766
-0.10292004 -4.9025589e+21 1.6282993e-314 700.81506 426.75082
-0.31330007 -4.8837428e+21 1.6282972e-314 701.85278 426.50885
-0.73424041 -4.8624183e+21 1.6282948e-314 702.95886 426.241
-1.361841 -4.8384366e+21 1.6282922e-314 704.14642 425.98966
-2.8611217 -4.8199178e+21 1.6282902e-314 705.15204 425.77991
-3.866962 -4.7990346e+21 1.6282879e-314 706.2146 425.47577
-6.474082 -4.7815472e+21 1.628286e-314 707.17004 425.02173
-11.492163 -4.7642083e+21 1.6282841e-314 708.13464 424.79691
-16.209286 -4.7446537e+21 1.6282819e-314 709.14331 424.60086
-26.861446 -4.7278282e+21 1.6282801e-314 710.05395 424.31045
-48.192009 -4.7182361e+21 1.6282786e-314 710.85547 424.05539
-76.27269 -4.7094181e+21 1.6282766e-314 711.79651 423.85352
-117.7498 -4.7001947e+21 1.6282746e-314 712.77454 423.5126
-145.62314 -4.6903814e+21 1.6282725e-314 713.72772 423.24432
-264.8476 -4.6836305e+21 1.628271e-314 714.53125 422.90967
-481.37225 -4.6790548e+21 1.62827e-314 715.12921 422.60739
-695.43957 -4.6759203e+21 1.6282693e-314 715.59424 422.31915
-917.40149 -4.6725246e+21 1.6282685e-314 716.08783 422.01596
-1269.6165 -4.6673972e+21 1.6282674e-314 716.74359 421.71829
-1617.1829 -4.6603874e+21 1.6282659e-314 717.51709 421.42129
-1892.9465 -4.6524926e+21 1.6282642e-314 718.34277 421.13721
-2597.52 -4.6450031e+21 1.6282625e-314 719.19092 420.86032
-3354.5024 -4.6381779e+21 1.628261e-314 719.95813 420.60788
-6051.0205 -4.6309834e+21 1.6282594e-314 720.95544 420.05905
-8934.5254 -4.622314e+21 1.6282575e-314 721.99194 419.47211
103883.8 -1.0077824e+22 1.6288323e-314 457.09885 451.83649
114376.11 -9.8306397e+21 1.6288187e-314 467.72461 451.49985
155591.72 -9.7199592e+21 1.6288126e-314 472.03699 451.24881
159455.72 -9.623303e+21 1.6288073e-314 476.20639 451.24295
164896.59 -9.533276e+21 1.6288024e-314 480.01843 451.29764
173328.34 -9.4521121e+21 1.628798e-314 483.54181 450.92352
193219.84 -9.3672587e+21 1.6287891e-314 487.04825 450.77267
179251.59 -9.2978987e+21 1.6287814e-314 490.2601 450.60599
186799.97 -9.217469e+21 1.6287726e-314 493.72064 450.49805
218448.59 -9.1333552e+21 1.6287634e-314 497.08362 450.26166
196428.47 -9.0507097e+21 1.6287543e-314 500.99423 450.14572
216551.97 -8.9651188e+21 1.6287449e-314 504.53619 450.02979
207827.84 -8.8979746e+21 1.6287376e-314 507.60196 449.97305
211260.59 -8.8278761e+21 1.6287299e-314 510.69562 449.75592
200204.72 -8.7740085e+21 1.628724e-314 513.27222 449.45764
213896.47 -8.71203e+21 1.6287172e-314 515.90405 449.17325
205872.22 -8.6530013e+21 1.6287107e-314 518.62085 449.08612
179060.22 -8.6065151e+21 1.6287056e-314 521.03021 448.86038
195492.72 -8.5393665e+21 1.6286982e-314 523.8573 448.66116
189708.47 -8.4832876e+21 1.6286921e-314 526.43689 448.49225
187447.47 -8.4257361e+21 1.6286858e-314 529.06183 448.21994
184103.84 -8.3696573e+21 1.6286796e-314 531.62097 448.08368
177839.84 -8.317267e+21 1.6286739e-314 534.07349 447.87085
173112.09 -8.2626653e+21 1.6286679e-314 536.60773 447.59589
167920.34 -8.2117521e+21 1.6286623e-314 538.93616 447.44934
168959.72 -8.1578891e+21 1.6286564e-314 541.35803 447.20779
146532.09 -8.1128801e+21 1.6286514e-314 543.67432 446.98312
147504.59 -8.0612283e+21 1.6286458e-314 545.99731 446.81589
147608.09 -8.0081038e+21 1.6286399e-314 548.37952 446.67114
135696.34 -7.9601405e+21 1.6286347e-314 550.71137 446.35245
133440.59 -7.9084887e+21 1.628629e-314 553.05316 446.13831
122184.05 -7.8634797e+21 1.6286241e-314 555.24304 445.9043
122043.8 -7.8184708e+21 1.6286191e-314 557.30365 445.6604
123152.67 -7.7741959e+21 1.6286143e-314 559.28296 445.45465
84423.547 -7.7395182e+21 1.6286105e-314 561.27539 445.22592
81728.672 -7.6967205e+21 1.6286058e-314 563.28058 445.01004
79759.985 -7.6489057e+21 1.6286005e-314 565.43103 444.95868
64109.961 -7.6078059e+21 1.628596e-314 567.49841 444.64828
63988.055 -7.5608063e+21 1.6285909e-314 569.63849 444.44968
56611.992 -7.5181572e+21 1.6285862e-314 571.72943 444.25906
52749.961 -7.4748416e+21 1.6285814e-314 573.79376 443.98889
50990.305 -7.429612e+21 1.6285765e-314 575.88953 443.7807
45023.899 -7.3879221e+21 1.6285719e-314 577.91809 443.5322
36426.242 -7.3462323e+21 1.6285673e-314 579.9859 443.34384
34679.711 -7.301444e+21 1.6285624e-314 582.05499 443.194
32262.074 -7.2596821e+21 1.6285578e-314 584.03992 442.85098
26882.887 -7.2216042e+21 1.6285537e-314 585.98651 442.68179
24609.106 -7.1799909e+21 1.6285491e-314 587.9873 442.39194
18280.949 -7.1452367e+21 1.6285453e-314 589.81311 442.24878
20538.012 -7.0936614e+21 1.6285396e-314 592.06445 442.10046
18514.918 -7.0580965e+21 1.6285357e-314 593.77789 441.85956
17632.152 -7.0212751e+21 1.6285317e-314 595.51215 441.56058
15287.428 -6.9729425e+21 1.6285264e-314 597.84168 441.38321
13894.951 -6.9430611e+21 1.6285231e-314 599.30102 441.30405
11165.045 -6.8982728e+21 1.6285182e-314 601.55731 441.05905
10402.045 -6.8615279e+21 1.6285142e-314 603.29529 440.86722
10772.482 -6.8202074e+21 1.6285096e-314 605.15967 440.64401
12780.506 -6.7715055e+21 1.6285043e-314 607.26831 440.19788
8247.0528 -6.7036948e+21 1.6284968e-314 610.67346 440.07608
1374.6795 -6.4699399e+21 1.6284712e-314 623.01453 438.21429
4268.7725 -6.4091368e+21 1.6284645e-314 624.81915 437.89764
2063.6069 -6.386853e+21 1.6284621e-314 626.43097 437.78043
1694.8845 -6.3564537e+21 1.6284588e-314 628.03851 437.50131
1624.4334 -6.3198575e+21 1.6284547e-314 629.75818 437.25443
1831.5681 -6.2819281e+21 1.6284506e-314 631.38293 437.02258
1085.5017 -6.2527853e+21 1.6284474e-314 633.1377 436.75836
1568.1336 -6.2096904e+21 1.6284427e-314 634.85016 436.50766
912.63025 -6.1845288e+21 1.6284399e-314 636.43012 436.26446
935.0658 -6.1480812e+21 1.6284359e-314 638.08234 436.00577
922.74744 -6.1138403e+21 1.6284321e-314 639.66022 435.84326
597.00281 -6.0871294e+21 1.6284292e-314 641.24884 435.54199
714.40418 -6.0486867e+21 1.628425e-314 642.88208 435.33453
301.18939 -6.0245609e+21 1.6284223e-314 644.43323 435.11163
428.09369 -5.9844203e+21 1.6284179e-314 646.14441 434.79507
455.25018 -5.9448697e+21 1.6284136e-314 647.92224 434.62515
215.57773 -5.9123312e+21 1.62841e-314 649.7041 434.43381
216.40707 -5.8766897e+21 1.6284061e-314 651.33569 434.21094
110.56133 -5.8497582e+21 1.6284032e-314 652.84283 433.86835
102.13384 -5.8158146e+21 1.6283994e-314 654.43115 433.64749
88.023056 -5.784384e+21 1.628396e-314 655.93543 433.39401
49.839379 -5.7574524e+21 1.628393e-314 657.38013 433.21835
47.558434 -5.7243195e+21 1.6283894e-314 658.92908 432.88275
30.097927 -5.695546e+21 1.6283862e-314 660.40082 432.72513
23.701138 -5.6666914e+21 1.6283831e-314 661.83496 432.42068
18.672009 -5.6350401e+21 1.6283796e-314 663.36072 432.25128
12.376005 -5.6064828e+21 1.6283765e-314 664.83185 431.99988
9.2364865 -5.5775606e+21 1.6283733e-314 666.25677 431.79663
6.8091231 -5.5490033e+21 1.6283702e-314 667.68738 431.48996
5.3900824 -5.519784e+21 1.628367e-314 669.11926 431.211
3.402082 -5.494771e+21 1.6283642e-314 670.43341 430.94534
1.9709604 -5.4687222e+21 1.6283614e-314 671.80371 430.74274
1.7053611 -5.4386922e+21 1.6283581e-314 673.20752 430.53455
0.98280037 -5.4098421e+21 1.6283549e-314 674.62762 430.23199
0.36022014 -5.3841626e+21 1.6283521e-314 675.98669 430.03714
0.24100015 -5.3544253e+21 1.6283488e-314 677.41803 429.72107
0.11102502 -5.3302229e+21 1.6283462e-314 678.66559 429.52933
0.061310016 -5.3023322e+21 1.6283431e-314 680.04443 429.25146
0.024807509 -5.2780578e+21 1.6283404e-314 681.32001 429.04095
0.013437508 -5.2529682e+21 1.6283377e-314 682.57416 428.75827
0.0038805022 -5.2283245e+21 1.628335e-314 683.85681 428.44098
0.0014820162 -5.2004337e+21 1.6283319e-314 685.21509 428.24051
0.00034856651 -5.1749749e+21 1.6283291e-314 686.50043 428.0275
8.1777384e-05 -5.1506284e+21 1.6283265e-314 687.73999 427.75201
1.5914568e-05 -5.1254668e+21 1.6283237e-314 688.99988 427.46411
4.7055068e-07 -5.1015572e+21 1.6283211e-314 690.24207 427.19669
4.6129243e-09 -5.0783141e+21 1.6283185e-314 691.43243 426.9343
2.7105008e-19 -5.0555168e+21 1.628316e-314 692.6264 426.69235
-1.3045598e-11 -5.0305782e+21 1.6283133e-314 693.84784 426.47504
-4.7125258e-07 -5.0099922e+21 1.628311e-314 694.9928 426.2695
-8.9482474e-06 -4.9870419e+21 1.6283085e-314 696.16632 425.94708
-9.6588905e-05 -4.9666046e+21 1.6283063e-314 697.24036 425.69293
-0.00021588881 -4.9450593e+21 1.6283039e-314 698.29456 425.40268
-0.0012917507 -4.9211497e+21 1.6283013e-314 699.52466 425.16904
-0.0044918163 -4.8981318e+21 1.6282988e-314 700.67999 424.83508
-0.016701263 -4.8796085e+21 1.6282967e-314 701.69269 424.57767
-0.037827514 -4.8599818e+21 1.6282946e-314 702.7124 424.31943
-0.10357504 -4.8382159e+21 1.6282922e-314 703.86407 424.07666
-0.23029015 -4.8173328e+21 1.6282899e-314 704.94202 423.83667
-0.46198028 -4.7963055e+21 1.6282876e-314 706.00702 423.58704
-1.0903204 -4.7775615e+21 1.6282855e-314 706.99811 423.28836
-2.0308013 -4.7583041e+21 1.6282834e-314 707.97784 422.9809
-3.8335223 -4.7411859e+21 1.6282815e-314 708.95203 422.70551
-6.5678434 -4.7243605e+21 1.6282797e-314 709.8725 422.47461
-8.6544094 -4.7143991e+21 1.6282777e-314 710.78308 422.18338
-13.033285 -4.7057657e+21 1.6282758e-314 711.68304 421.9278
-25.019527 -4.6980195e+21 1.6282741e-314 712.58514 421.64017
-43.093773 -4.6899378e+21 1.6282724e-314 713.48608 421.3038
-80.468552 -4.6840718e+21 1.6282711e-314 714.21515 421.01688
-132.69003 -4.679978e+21 1.6282702e-314 714.75293 420.78067
-195.07718 -4.675587e+21 1.6282692e-314 715.25738 420.50723
-345.34405 -4.671491e+21 1.6282683e-314 715.80573 420.19467
-571.53528 -4.666474e+21 1.6282672e-314 716.44965 419.83035
-771.03137 -4.660867e+21 1.628266e-314 717.12238 419.49475
-1007.7491 -4.6552961e+21 1.6282648e-314 717.81708 419.24219
-1371.5051 -4.6487298e+21 1.6282633e-314 718.56744 418.93131
-1740.759 -4.6422356e+21 1.6282619e-314 719.30115 418.68246
-3044.8853 -4.6342665e+21 1.6282602e-314 720.35297 417.98337
229535.97 -1.006897e+22 1.6288318e-314 456.44968 449.76257
221039.97 -9.8240014e+21 1.6288184e-314 467.19049 449.59357
208311.47 -9.7295519e+21 1.6288132e-314 471.46207 449.47967
225991.84 -9.6247712e+21 1.6288074e-314 475.78079 449.41855
234236.22 -9.5391847e+21 1.6288027e-314 479.43912 449.22263
258184.47 -9.4491668e+21 1.6287978e-314 483.12354 449.07135
260828.09 -9.3687314e+21 1.6287892e-314 486.638 448.8602
249752.59 -9.2971602e+21 1.6287814e-314 489.93164 448.67889
250220.47 -9.2211574e+21 1.628773e-314 493.30298 448.49634
311639.69 -9.1340893e+21 1.6287635e-314 496.71939 448.34842
257911.72 -9.0566139e+21 1.628755e-314 500.49515 448.18555
277503.19 -8.9783999e+21 1.6287464e-314 503.80646 448.11328
314918.94 -8.8994473e+21 1.6287377e-314 507.06357 447.98013
313144.19 -8.8337758e+21 1.6287305e-314 510.05331 447.71478
276847.94 -8.7777015e+21 1.6287244e-314 512.74829 447.55347
286159.19 -8.716457e+21 1.6287177e-314 515.45386 447.30219
288704.69 -8.6522627e+21 1.6287106e-314 518.30731 447.16116
258880.34 -8.5998723e+21 1.6287049e-314 520.83051 447.03268
267169.44 -8.5378938e+21 1.6286981e-314 523.59277 446.7254
265368.44 -8.4766493e+21 1.6286913e-314 526.30566 446.60901
269961.44 -8.4183593e+21 1.628685e-314 528.92212 446.327
248912.34 -8.3696573e+21 1.6286796e-314 531.30243 446.2124
248575.47 -8.3128399e+21 1.6286734e-314 533.89233 445.92941
249984.59 -8.256027e+21 1.6286671e-314 536.44983 445.73749
233004.22 -8.2080637e+21 1.6286619e-314 538.77911 445.60291
230844.09 -8.1556778e+21 1.6286561e-314 541.18475 445.39484
225644.47 -8.104026e+21 1.6286505e-314 543.57019 445.11487
215280.59 -8.0560627e+21 1.6286452e-314 545.84784 444.9996
216312.09 -8.0058881e+21 1.6286397e-314 548.14386 444.63199
202232.34 -7.9608791e+21 1.6286348e-314 550.31232 444.52701
203287.47 -7.9070115e+21 1.6286289e-314 552.73627 444.31003
194215.97 -7.8575755e+21 1.6286234e-314 555.10919 444.07349
182423.47 -7.811828e+21 1.6286184e-314 557.30969 443.88217
177908.09 -7.766819e+21 1.6286135e-314 559.42304 443.58057
166647.59 -7.7247599e+21 1.6286089e-314 561.44452 443.31647
156568.22 -7.6856506e+21 1.6286046e-314 563.3288 443.15598
157476.59 -7.6422674e+21 1.6285998e-314 565.3056 442.90945
131539.97 -7.6030861e+21 1.6285955e-314 567.34601 442.78571
133955.72 -7.5563027e+21 1.6285904e-314 569.44849 442.58426
118267.61 -7.5143922e+21 1.6285858e-314 571.5249 442.34534
114676.23 -7.4692346e+21 1.6285808e-314 573.61798 442.13538
99483.672 -7.4279907e+21 1.6285763e-314 575.651 441.93424
81992.11 -7.3874042e+21 1.6285719e-314 577.68835 441.68121
88692.547 -7.3401074e+21 1.6285667e-314 579.78137 441.42694
75747.86 -7.2980483e+21 1.628562e-314 581.82929 441.22833
72123.735 -7.2558451e+21 1.6285574e-314 583.79047 441.03156
61755.899 -7.2149659e+21 1.6285529e-314 585.80206 440.77884
47651.899 -7.1810223e+21 1.6285492e-314 587.63037 440.5845
52993.742 -7.1332076e+21 1.628544e-314 589.71313 440.33304
32878.117 -7.1003763e+21 1.6285404e-314 591.6203 440.04367
36652.336 -7.056768e+21 1.6285356e-314 593.50311 440.06061
45565.899 -7.0103539e+21 1.6285305e-314 595.49475 439.57742
36799.805 -6.968002e+21 1.6285258e-314 597.5846 439.43701
34471.961 -6.934869e+21 1.6285222e-314 599.14063 439.30093
24375.137 -6.8965029e+21 1.628518e-314 601.25104 439.05689
26105.949 -6.8576908e+21 1.6285137e-314 603.00848 438.53708
32127.074 -6.8083269e+21 1.6285083e-314 605.01324 438.49008
15459.459 -6.7842687e+21 1.6285057e-314 606.72552 438.63107
14314.545 -6.7138053e+21 1.628498e-314 610.02679 438.30588
4176.7764 -6.6131589e+21 1.6284869e-314 615.7464 437.12143
3670.6323 -6.4655129e+21 1.6284707e-314 622.64008 436.23068
11875.951 -6.401242e+21 1.6284637e-314 624.61121 436.00809
5454.4834 -6.3801381e+21 1.6284614e-314 626.22815 435.82599
4102.7217 -6.3479689e+21 1.6284578e-314 627.89569 435.60446
4195.5342 -6.3118861e+21 1.6284539e-314 629.53955 435.38486
3929.2534 -6.2755826e+21 1.6284499e-314 631.26892 435.12122
2564.1382 -6.2469532e+21 1.6284467e-314 632.96167 434.8924
3289.0073 -6.206002e+21 1.6284422e-314 634.64331 434.65863
1895.1795 -6.179809e+21 1.6284394e-314 636.26459 434.48831
1917.6248 -6.1443162e+21 1.6284355e-314 637.88965 434.1998
1951.9295 -6.1085305e+21 1.6284316e-314 639.51428 433.96256
1503.6218 -6.078424e+21 1.6284283e-314 641.14203 433.69842
1410.8064 -6.0456648e+21 1.6284247e-314 642.69598 433.48193
937.77967 -6.017774e+21 1.6284216e-314 644.28162 433.19189
940.65711 -5.9825739e+21 1.6284177e-314 645.8916 432.97626
980.31629 -5.9450904e+21 1.6284136e-314 647.56812 432.74414
669.9115 -5.9141011e+21 1.6284102e-314 649.31317 432.54797
677.75525 -5.8772077e+21 1.6284062e-314 651.00128 432.25678
564.53162 -5.8428227e+21 1.6284024e-314 652.69025 432.07004
466.53461 -5.8110948e+21 1.6283989e-314 654.2514 431.82364
356.18842 -5.7808396e+21 1.6283956e-314 655.75293 431.5954
230.03146 -5.7518455e+21 1.6283924e-314 657.24048 431.35458
199.0145 -5.7208517e+21 1.628389e-314 658.72797 431.10965
139.59177 -5.6906731e+21 1.6283857e-314 660.23358 430.88086
120.03844 -5.6593145e+21 1.6283823e-314 661.73175 430.61136
90.867234 -5.6294331e+21 1.628379e-314 663.21747 430.38889
49.184014 -5.6040463e+21 1.6283762e-314 664.60889 430.16303
47.226891 -5.5723185e+21 1.6283727e-314 666.08508 429.87555
29.795208 -5.5436891e+21 1.6283696e-314 667.55353 429.64587
22.124813 -5.5169062e+21 1.6283666e-314 668.90411 429.42127
14.540167 -5.4900467e+21 1.6283637e-314 670.28473 429.09033
10.235205 -5.4621559e+21 1.6283606e-314 671.69202 428.94043
7.8681631 -5.4329366e+21 1.6283574e-314 673.11285 428.63522
5.7568045 -5.406595e+21 1.6283545e-314 674.45209 428.3999
4.519042 -5.3775243e+21 1.6283514e-314 675.86188 428.133
3.2328811 -5.3500748e+21 1.6283483e-314 677.24585 427.88391
2.2275214 -5.3238774e+21 1.6283455e-314 678.57037 427.60053
1.0879209 -5.2987158e+21 1.6283427e-314 679.85974 427.38861
0.42414016 -5.2740721e+21 1.62834e-314 681.15924 427.14236
0.17059013 -5.2505363e+21 1.6283374e-314 682.39777 426.87912
0.090270028 -5.2259646e+21 1.6283347e-314 683.6369 426.59851
0.040687524 -5.1995465e+21 1.6283318e-314 684.97479 426.42682
0.028171267 -5.171435e+21 1.6283287e-314 686.32043 426.12885
0.013236878 -5.1480433e+21 1.6283262e-314 687.52106 425.89706
0.0037517506 -5.1236969e+21 1.6283235e-314 688.78302 425.62796
0.000619172 -5.0994945e+21 1.6283209e-314 690.0404 425.39301
0.00030767982 -5.073815e+21 1.628318e-314 691.27588 425.10806
7.2241281e-05 -5.0503512e+21 1.6283155e-314 692.46649 424.87503
1.1667731e-05 -5.0266668e+21 1.6283129e-314 693.66162 424.61163
2.791673e-07 -5.0043064e+21 1.6283104e-314 694.83807 424.31229
1.2414911e-10 -4.9821712e+21 1.628308e-314 696.00946 424.07342
-1.0231753e-12 -4.9618803e+21 1.6283058e-314 697.08691 423.83502
-4.9331233e-09 -4.9410016e+21 1.6283035e-314 698.14996 423.57831
-6.7752908e-08 -4.915912e+21 1.6283007e-314 699.34808 423.27267
-8.7841818e-06 -4.8953261e+21 1.6282985e-314 700.47241 422.97967
-9.748344e-05 -4.8743708e+21 1.6282962e-314 701.57153 422.70373
-0.00037252758 -4.8540776e+21 1.6282939e-314 702.60284 422.42798
-0.001952173 -4.8335682e+21 1.6282917e-314 703.67297 422.19574
-0.011880627 -4.813275e+21 1.6282895e-314 704.76324 421.96335
-0.024848756 -4.7922477e+21 1.6282872e-314 705.83801 421.65268
-0.050805025 -4.7721752e+21 1.6282849e-314 706.86292 421.40219
-0.10847507 -4.7527692e+21 1.6282828e-314 707.86737 421.13467
-0.37250012 -4.7360203e+21 1.628281e-314 708.81592 420.91312
-0.84108055 -4.7207086e+21 1.6282791e-314 709.71844 420.58466
-1.9224012 -4.7117802e+21 1.6282772e-314 710.66394 420.32773
-3.4001613 -4.7036264e+21 1.6282754e-314 711.56079 420.08963
-5.3931227 -4.6955087e+21 1.6282736e-314 712.43695 419.83517
-9.693449 -4.6884989e+21 1.6282721e-314 713.25971 419.46637
-15.886724 -4.6832251e+21 1.6282709e-314 713.90796 419.13269
-22.163845 -4.6783545e+21 1.6282698e-314 714.43756 418.88907
-46.589454 -4.6757357e+21 1.6282693e-314 714.90472 418.61102
-94.914566 -4.6713807e+21 1.6282683e-314 715.51801 418.3212
-135.60831 -4.6649608e+21 1.6282669e-314 716.22076 418.03943
-222.68936 -4.6593538e+21 1.6282657e-314 716.87512 417.65704
-408.62726 -4.6543008e+21 1.6282646e-314 717.51453 417.32062
-639.81604 -4.6491351e+21 1.6282634e-314 718.16937 417.08316
-810.72131 -4.6437849e+21 1.6282622e-314 718.79156 416.79858
-1020.191 -4.6398014e+21 1.6282614e-314 719.3233 416.45712
-1386.4348 -4.6362594e+21 1.6282606e-314 719.80048 416.10059
-1662.7512 -4.632053e+21 1.6282597e-314 720.29425 415.75665
229820.47 -1.0122833e+22 1.6288347e-314 454.73785 447.60242
252275.72 -9.9627213e+21 1.628826e-314 461.31647 447.70233
290848.94 -9.8321169e+21 1.6288188e-314 466.66171 447.64581
329711.69 -9.6343638e+21 1.628808e-314 475.06909 447.29334
369775.19 -9.536969e+21 1.6288026e-314 479.0817 447.16937
364167.94 -9.4543279e+21 1.6287981e-314 482.73001 447.10498
380431.44 -9.3716857e+21 1.6287895e-314 486.25775 446.97876
374496.44 -9.2986373e+21 1.6287815e-314 489.51169 446.80032
432561.44 -9.2130419e+21 1.6287721e-314 492.98199 446.49573
405361.44 -9.1458978e+21 1.6287648e-314 496.12619 446.35638
436792.44 -8.9791385e+21 1.6287465e-314 503.31906 446.11069
426872.94 -8.9105171e+21 1.6287389e-314 506.41003 445.98465
461583.44 -8.8367301e+21 1.6287308e-314 509.49954 445.74857
439447.94 -8.7762243e+21 1.6287242e-314 512.31634 445.62454
418856.44 -8.7149798e+21 1.6287175e-314 515.19287 445.44867
415031.69 -8.654474e+21 1.6287109e-314 517.92841 445.19748
391168.94 -8.5976611e+21 1.6287046e-314 520.59845 445.02484
411144.19 -8.5334668e+21 1.6286976e-314 523.38 444.84274
411760.19 -8.4759108e+21 1.6286913e-314 525.96173 444.6019
384879.94 -8.4220477e+21 1.6286854e-314 528.54413 444.46252
386809.44 -8.363019e+21 1.6286789e-314 531.19751 444.21301
368760.69 -8.3091515e+21 1.628673e-314 533.69928 444.09515
341135.94 -8.2582383e+21 1.6286674e-314 536.159 443.94351
358088.94 -8.2043752e+21 1.6286615e-314 538.51923 443.65814
340032.44 -8.1527234e+21 1.6286558e-314 540.94134 443.49774
340913.19 -8.0966446e+21 1.6286497e-314 543.47766 443.22263
301832.69 -8.0501585e+21 1.6286446e-314 545.78015 443.04636
300328.19 -8.0021996e+21 1.6286393e-314 548.00384 442.76117
286630.94 -7.9564521e+21 1.6286343e-314 550.12616 442.61539
261467.72 -7.9107045e+21 1.6286293e-314 552.34509 442.45196
272000.69 -7.8560983e+21 1.6286233e-314 554.73859 442.30832
261372.09 -7.8059237e+21 1.6286178e-314 557.08105 442.06921
248255.72 -7.7594376e+21 1.6286127e-314 559.34753 441.80893
237271.84 -7.7151672e+21 1.6286078e-314 561.47363 441.59073
228052.22 -7.6732567e+21 1.6286032e-314 563.48572 441.33578
224979.97 -7.6314183e+21 1.6285986e-314 565.44983 440.99393
208244.72 -7.5923856e+21 1.6285943e-314 567.38611 440.88834
208636.59 -7.5495158e+21 1.6285896e-314 569.31873 440.77283
166984.47 -7.51727e+21 1.6285861e-314 571.24127 440.45874
184415.72 -7.4665775e+21 1.6285805e-314 573.3714 440.23813
176172.72 -7.4222351e+21 1.6285757e-314 575.48187 439.99316
167639.84 -7.3784781e+21 1.6285709e-314 577.55701 439.81024
164771.97 -7.3337619e+21 1.628566e-314 579.62622 439.59775
149428.72 -7.2947292e+21 1.6285617e-314 581.57507 439.30508
127816.23 -7.257615e+21 1.6285576e-314 583.48016 439.14508
121659.8 -7.2139346e+21 1.6285528e-314 585.52747 438.9704
107936.55 -7.1745281e+21 1.6285485e-314 587.47778 438.67139
117111.55 -7.1285598e+21 1.6285435e-314 589.47955 438.49332
89324.297 -7.0917429e+21 1.6285394e-314 591.43579 438.26767
80175.485 -7.0513051e+21 1.628535e-314 593.37103 438.07138
80479.547 -7.0111645e+21 1.6285306e-314 595.20966 437.82034
69684.485 -6.9665969e+21 1.6285257e-314 597.35992 437.54129
59755.742 -6.934869e+21 1.6285222e-314 598.95142 437.42065
47619.805 -6.8967235e+21 1.628518e-314 600.93426 437.16715
58907.711 -6.8477289e+21 1.6285126e-314 602.97418 436.83108
44740.149 -6.8161451e+21 1.6285092e-314 604.65955 436.82651
15556.943 -6.8140825e+21 1.628509e-314 605.64734 436.80096
5976.7217 -6.4660263e+21 1.6284708e-314 622.46112 434.47296
19128.012 -6.4022013e+21 1.6284638e-314 624.38525 434.23492
9075.4278 -6.3805074e+21 1.6284614e-314 626.00922 433.94486
7225.5108 -6.3485589e+21 1.6284579e-314 627.67139 433.76215
7788.792 -6.3081256e+21 1.6284535e-314 629.45593 433.43121
8038.9756 -6.2711555e+21 1.6284494e-314 631.1134 433.25736
4811.2451 -6.2450347e+21 1.6284465e-314 632.75305 433.08472
6004.4951 -6.204822e+21 1.6284421e-314 634.43536 432.85376
3847.7437 -6.1758954e+21 1.6284389e-314 636.0946 432.61066
3607.8804 -6.1432083e+21 1.6284354e-314 637.66791 432.33841
4186.7686 -6.1042521e+21 1.6284311e-314 639.31409 432.05609
2791.0152 -6.0764334e+21 1.628428e-314 640.96033 431.81928
3176.8589 -6.0396885e+21 1.628424e-314 642.54089 431.60693
2157.7339 -6.0114239e+21 1.6284209e-314 644.11645 431.34268
2001.1218 -5.9791827e+21 1.6284174e-314 645.65216 431.11038
1991.8035 -5.9434691e+21 1.6284134e-314 647.29224 430.90402
1288.991 -5.9153576e+21 1.6284104e-314 648.94733 430.70432
1536.6355 -5.8749919e+21 1.6284059e-314 650.67285 430.4216
1228.2478 -5.8405348e+21 1.6284022e-314 652.41504 430.18082
974.62293 -5.8097663e+21 1.6283988e-314 653.98926 429.89386
866.81629 -5.778187e+21 1.6283953e-314 655.54047 429.7374
776.19226 -5.7478598e+21 1.628392e-314 657.03094 429.4754
689.43885 -5.7161319e+21 1.6283885e-314 658.57513 429.24277
600.06433 -5.686174e+21 1.6283852e-314 660.04077 429.01324
452.31122 -5.6569546e+21 1.628382e-314 661.53107 428.77457
288.31757 -5.6298745e+21 1.628379e-314 662.94556 428.49826
203.12582 -5.6030871e+21 1.6283761e-314 664.31397 428.24851
210.51401 -5.5697379e+21 1.6283724e-314 665.82739 428.0314
103.43687 -5.5439098e+21 1.6283696e-314 667.27191 427.78751
90.345017 -5.5136591e+21 1.6283663e-314 668.71222 427.52762
65.53093 -5.4847325e+21 1.6283631e-314 670.13983 427.25192
47.594261 -5.4569903e+21 1.6283601e-314 671.54571 427.01459
41.262108 -5.4276989e+21 1.6283569e-314 672.93781 426.79483
25.236492 -5.4012087e+21 1.628354e-314 674.32599 426.57813
20.685452 -5.3733179e+21 1.6283509e-314 675.6814 426.2565
13.063368 -5.3477104e+21 1.6283481e-314 677.02014 425.99426
11.049925 -5.3189369e+21 1.6283449e-314 678.39679 425.75403
6.6342421 -5.293996e+21 1.6283422e-314 679.71454 425.52445
4.0444823 -5.2699423e+21 1.6283396e-314 680.97229 425.29605
3.482162 -5.2418263e+21 1.6283365e-314 682.32398 425.0545
2.1536021 -5.2192498e+21 1.628334e-314 683.52423 424.76267
0.8496002 -5.1957094e+21 1.6283314e-314 684.77429 424.5271
0.4837603 -5.1672287e+21 1.6283283e-314 686.16339 424.29114
0.24823007 -5.142585e+21 1.6283256e-314 687.4021 424.05316
0.11085503 -5.1197832e+21 1.6283231e-314 688.59503 423.73557
0.059005015 -5.093883e+21 1.6283202e-314 689.88135 423.49591
0.038962536 -5.069388e+21 1.6283176e-314 691.07483 423.22421
0.013950629 -5.0460728e+21 1.628315e-314 692.3064 423.04907
0.0051613143 -5.023199e+21 1.6283125e-314 693.48321 422.78207
0.0013346726 -4.9995101e+21 1.6283099e-314 694.67761 422.49658
0.00011372565 -4.9787755e+21 1.6283076e-314 695.81714 422.3352
4.4331064e-05 -4.9564917e+21 1.6283052e-314 696.92401 421.94913
1.3383185e-06 -4.936203e+21 1.6283029e-314 698.00806 421.69357
1.5704356e-07 -4.912442e+21 1.6283003e-314 699.17737 421.42422
1.9984012e-13 -4.8916354e+21 1.6282981e-314 700.31421 421.19946
-3.7836157e-13 -4.8688359e+21 1.6282956e-314 701.44153 420.95608
-6.658938e-08 -4.8492813e+21 1.6282934e-314 702.50061 420.64594
-7.4505658e-07 -4.8284026e+21 1.6282911e-314 703.53723 420.35855
-1.0639413e-05 -4.8069294e+21 1.6282888e-314 704.61792 420.13406
-0.00015240823 -4.7871541e+21 1.6282866e-314 705.69012 419.78098
