# .PCD v0.7 - Point Cloud Data file format
VERSION 0.7
FIELDS x y z p_x p_y
SIZE 8 8 8 8 8
TYPE F F F F F
COUNT 1 1 1 1 1
WIDTH 798
HEIGHT 1
VIEWPOINT 0 0 0 1 0 0 0
POINTS 798
DATA ascii
-0.48486012 -6.4442626e+21 1.6284684e-314 628.44159 461.97531
-3.7817607 -6.4025728e+21 1.6284638e-314 630.83374 462.19922
-7.8627234 -6.3481918e+21 1.6284578e-314 633.54395 462.5361
-15.688322 -6.2955808e+21 1.6284521e-314 636.16815 462.72772
-30.386578 -6.2396506e+21 1.6284459e-314 638.91199 463.04742
-92.907578 -6.1923538e+21 1.6284407e-314 641.44379 463.26691
-247.95151 -6.1404093e+21 1.6284351e-314 644.1676 463.46167
-678.68689 -6.0914867e+21 1.6284297e-314 646.8017 463.73093
-1098.1795 -6.0446312e+21 1.6284245e-314 649.28491 463.98096
-1328.4363 -5.9905475e+21 1.6284186e-314 651.82526 464.17233
-2369.6187 -5.9456826e+21 1.6284137e-314 654.27301 464.43619
-3705.3667 -5.8864333e+21 1.6284072e-314 657.26172 464.66577
-8230.0137 -5.8285845e+21 1.6284008e-314 660.43799 465.14813
-16236.061 -5.7683759e+21 1.6283942e-314 663.63794 465.26086
-25969.965 -5.6991601e+21 1.6283866e-314 667.03528 465.57001
-51293.742 -5.64205e+21 1.6283804e-314 670.08136 465.75519
-130580.55 -5.5836112e+21 1.628374e-314 673.38745 466.10992
-146516.34 -5.5175705e+21 1.6283667e-314 676.45502 466.48825
-224416.34 -5.4635588e+21 1.6283608e-314 679.44049 466.73086
-342590.94 -5.3940547e+21 1.6283532e-314 683.12415 466.94641
-625213.88 -5.3218891e+21 1.6283453e-314 687.1637 467.4379
-918395.88 -5.2250076e+21 1.6283346e-314 692.02338 467.73154
-1029072.9 -5.0842206e+21 1.6283192e-314 698.54456 468.20422
392225.19 -1.0590649e+22 1.6288604e-314 435.88513 439.68539
405463.44 -1.056261e+22 1.6288589e-314 436.88754 439.94363
432280.94 -1.0535309e+22 1.6288574e-314 437.83844 440.06754
453192.19 -1.0510215e+22 1.628856e-314 438.74347 440.1759
479896.69 -1.0482184e+22 1.6288545e-314 439.72833 440.28046
486735.94 -1.0453406e+22 1.6288529e-314 440.84744 440.44357
479865.19 -1.0421674e+22 1.6288511e-314 442.1984 440.62826
472745.44 -1.0388474e+22 1.6288493e-314 443.61697 440.77631
488209.19 -1.0356003e+22 1.6288475e-314 444.84521 440.91162
504016.69 -1.0326486e+22 1.6288459e-314 445.95978 441.06079
518400.44 -1.0296978e+22 1.6288443e-314 447.09534 441.17331
522080.94 -1.02682e+22 1.6288427e-314 448.23587 441.3598
536923.88 -1.0239422e+22 1.6288411e-314 449.37994 441.51398
553124.38 -1.0209167e+22 1.6288395e-314 450.54523 441.67038
569114.88 -1.0180389e+22 1.6288379e-314 451.71582 441.80078
604242.38 -1.0148666e+22 1.6288362e-314 452.91937 441.88187
610900.88 -1.0119149e+22 1.6288345e-314 454.121 442.02966
616248.38 -1.0088156e+22 1.6288328e-314 455.36984 442.22736
628778.88 -1.0057171e+22 1.6288311e-314 456.62393 442.36054
626000.38 -1.0027654e+22 1.6288295e-314 457.86194 442.51886
653839.88 -9.9959218e+21 1.6288278e-314 459.12061 442.63004
655255.38 -9.9627213e+21 1.628826e-314 460.46033 442.85388
636748.38 -9.9346819e+21 1.6288244e-314 461.69495 442.97879
627310.88 -9.9044267e+21 1.6288228e-314 462.9935 443.16431
635280.38 -9.8727033e+21 1.628821e-314 464.30969 443.22797
662962.38 -9.8387552e+21 1.6288192e-314 465.65259 443.37561
660707.88 -9.8055547e+21 1.6288173e-314 467.01367 443.57541
633392.88 -9.7752995e+21 1.6288157e-314 468.358 443.74332
608279.38 -9.7457829e+21 1.6288141e-314 469.69226 443.89713
622330.38 -9.7111052e+21 1.6288122e-314 471.10806 444.04153
594070.88 -9.68085e+21 1.6288105e-314 472.45236 444.25324
597111.88 -9.6469109e+21 1.6288086e-314 473.88242 444.34564
574305.38 -9.6159171e+21 1.6288069e-314 475.24683 444.49088
511112.94 -9.5886163e+21 1.6288054e-314 476.59491 444.75998
549244.38 -9.5502546e+21 1.6288033e-314 478.09613 444.81833
518056.94 -9.5199994e+21 1.6288017e-314 479.46283 445.02771
502472.69 -9.4882671e+21 1.6287999e-314 480.91043 445.12824
488576.19 -9.4550665e+21 1.6287981e-314 482.39615 445.32745
492039.19 -9.4181719e+21 1.6287946e-314 483.91351 445.52383
461664.69 -9.3886553e+21 1.6287914e-314 485.34891 445.65888
467992.69 -9.3510232e+21 1.6287873e-314 486.92563 445.85162
453608.94 -9.3185568e+21 1.6287837e-314 488.37 446.01822
428553.19 -9.2883061e+21 1.6287804e-314 489.81665 446.18552
426031.44 -9.250674e+21 1.6287763e-314 491.42114 446.38028
419448.94 -9.2167304e+21 1.6287725e-314 492.90872 446.46356
391407.44 -9.1864797e+21 1.6287692e-314 494.37933 446.62045
380785.44 -9.151802e+21 1.6287654e-314 495.90347 446.81491
332375.19 -9.1222854e+21 1.6287622e-314 497.45291 446.95706
338566.94 -9.0853919e+21 1.6287581e-314 498.9773 447.1492
334000.44 -9.0558753e+21 1.6287549e-314 500.25699 447.35367
310913.44 -9.0256246e+21 1.6287516e-314 501.67978 447.46005
338008.69 -8.9857813e+21 1.6287472e-314 503.24854 447.59769
286720.19 -8.9570033e+21 1.628744e-314 504.7641 447.80304
280142.94 -8.9223211e+21 1.6287402e-314 506.27704 447.98166
283799.94 -8.8869047e+21 1.6287364e-314 507.79037 448.09174
258900.09 -8.8529611e+21 1.6287326e-314 509.40537 448.28787
260948.72 -8.815329e+21 1.6287285e-314 510.97308 448.48486
223815.97 -8.7872941e+21 1.6287254e-314 512.59778 448.68729
225367.97 -8.7474463e+21 1.6287211e-314 514.27472 448.88483
207139.72 -8.7135072e+21 1.6287173e-314 515.95422 449.06747
183567.72 -8.6803021e+21 1.6287137e-314 517.65857 449.13773
199988.47 -8.6367658e+21 1.6287089e-314 519.36316 449.30426
159523.84 -8.6087264e+21 1.6287058e-314 521.0119 449.54648
157576.22 -8.5688831e+21 1.6287015e-314 522.74377 449.73624
154848.59 -8.531251e+21 1.6286973e-314 524.39142 449.91653
124307.42 -8.4995231e+21 1.6286939e-314 526.1203 450.11822
124683.61 -8.4633682e+21 1.6286899e-314 527.67645 450.29413
96143.985 -8.4360674e+21 1.6286869e-314 529.20996 450.24747
86076.36 -8.3467835e+21 1.6286771e-314 533.2171 450.54538
63889.774 -8.3084129e+21 1.6286729e-314 535.08276 450.90805
59042.055 -8.2752123e+21 1.6286692e-314 536.60523 451.18133
52515.992 -8.2331532e+21 1.6286646e-314 538.59924 451.29953
41302.117 -8.1977324e+21 1.6286607e-314 540.35315 451.54294
38564.024 -8.1608389e+21 1.6286567e-314 542.05408 451.57822
23051.965 -8.1291111e+21 1.6286532e-314 543.94238 451.82532
24523.918 -8.091479e+21 1.6286491e-314 545.5581 451.92834
19944.918 -8.0486858e+21 1.6286444e-314 547.62091 452.08142
15845.467 -8.0110537e+21 1.6286403e-314 549.52838 451.91696
11441.936 -7.9800644e+21 1.6286369e-314 551.14319 452.51132
8404.9981 -7.9372667e+21 1.6286322e-314 553.2627 452.85654
9232.5528 -7.8915192e+21 1.6286272e-314 555.18176 453.1344
5911.5147 -7.8583141e+21 1.6286235e-314 557.08331 453.30377
5207.003 -7.8184708e+21 1.6286191e-314 558.96069 453.43732
5284.253 -7.7749345e+21 1.6286144e-314 560.86383 453.63565
2660.3941 -7.7454179e+21 1.6286111e-314 562.81067 453.785
2787.0015 -7.6989362e+21 1.628606e-314 564.81073 454.00678
1558.8152 -7.663664e+21 1.6286022e-314 566.89685 454.23581
1620.1326 -7.6126788e+21 1.6285966e-314 569.09448 454.45758
1614.7459 -7.5671519e+21 1.6285916e-314 571.10107 454.65067
779.37683 -7.5391845e+21 1.6285885e-314 573.00458 454.88934
785.06043 -7.493437e+21 1.6285835e-314 575.01965 455.04385
593.87928 -7.4549222e+21 1.6285793e-314 576.95697 455.22247
354.13007 -7.4161822e+21 1.628575e-314 578.96069 455.4137
200.71945 -7.375231e+21 1.6285705e-314 581.02319 455.63763
123.25127 -7.3324333e+21 1.6285658e-314 583.10199 455.89203
79.070786 -7.2879422e+21 1.6285609e-314 585.28369 456.10745
45.804833 -7.2456624e+21 1.6285563e-314 587.40106 456.30801
26.529293 -7.2030133e+21 1.6285516e-314 589.53235 456.48346
14.913923 -7.1599184e+21 1.6285469e-314 591.68665 456.6727
7.5908842 -7.1190437e+21 1.6285424e-314 593.78796 456.89108
3.849361 -7.0770567e+21 1.6285378e-314 595.94012 457.13309
1.861841 -7.0360334e+21 1.6285333e-314 598.05164 457.37143
0.73084057 -6.9909478e+21 1.6285284e-314 600.26202 457.57895
0.2906403 -6.9468981e+21 1.6285235e-314 602.41296 457.75772
0.092665062 -6.9049111e+21 1.6285189e-314 604.53894 457.87045
0.02192251 -6.8618927e+21 1.6285142e-314 606.75867 458.07428
0.007535941 -6.8131953e+21 1.6285089e-314 609.14661 458.19876
0.00041616027 -6.7603635e+21 1.6285031e-314 611.77478 458.65888
1.1818545e-06 -6.7186737e+21 1.6284985e-314 614.0755 458.85501
4.9681225e-11 -6.6727775e+21 1.6284935e-314 616.41095 459.0506
-4.3292081e-09 -6.6261495e+21 1.6284883e-314 618.80359 459.24899
-2.232179e-05 -6.5809153e+21 1.6284834e-314 621.1615 459.52304
-0.00025939866 -6.5308128e+21 1.6284779e-314 623.63831 459.67337
-0.0068607545 -6.4812282e+21 1.6284724e-314 626.1781 459.91217
-0.040747516 -6.434742e+21 1.6284673e-314 628.58215 460.17908
-0.32032007 -6.389071e+21 1.6284623e-314 631.01996 460.51239
-2.1555209 -6.3411842e+21 1.6284571e-314 633.56354 460.63733
-3.6511207 -6.2845154e+21 1.6284509e-314 636.29932 460.85565
-11.276487 -6.2366242e+21 1.6284456e-314 638.86993 461.07205
-23.383053 -6.1825404e+21 1.6284397e-314 641.56403 461.35721
-68.968979 -6.13074e+21 1.628434e-314 644.29608 461.72299
-182.73288 -6.0829298e+21 1.6284287e-314 646.79511 461.90048
-359.37299 -6.0299495e+21 1.6284229e-314 649.41833 462.13327
-546.05848 -5.978005e+21 1.6284172e-314 651.94006 462.30463
-1098.5066 -5.9310009e+21 1.6284121e-314 654.56592 462.51999
-2448.8765 -5.8786105e+21 1.6284063e-314 657.47235 462.88928
-3248.7437 -5.8127184e+21 1.6283991e-314 660.62891 463.09964
-6413.0264 -5.7496319e+21 1.6283922e-314 663.94605 463.40033
-15528.436 -5.6928911e+21 1.628386e-314 667.14764 463.65906
-31112.902 -5.6334166e+21 1.6283794e-314 670.29651 463.98227
-60645.742 -5.5673803e+21 1.6283722e-314 673.71393 464.31604
-134191.59 -5.5110808e+21 1.628366e-314 676.81097 464.56372
-157656.09 -5.4443735e+21 1.6283587e-314 679.96802 464.88226
-231015.84 -5.3744236e+21 1.628351e-314 683.63794 465.09793
-370527.69 -5.2999745e+21 1.6283429e-314 687.56177 465.66318
-622015.88 -5.2191034e+21 1.628334e-314 691.89465 465.99445
-904501.88 -5.0898276e+21 1.6283198e-314 698.1803 466.5144
348352.94 -1.0774378e+22 1.6288705e-314 429.25952 436.98917
382497.19 -1.0750761e+22 1.6288692e-314 430.00647 437.0618
412591.19 -1.072346e+22 1.6288677e-314 430.88364 437.22919
461142.94 -1.0662959e+22 1.6288644e-314 433.04861 437.49777
463591.44 -1.0636397e+22 1.6288629e-314 434.09302 437.68256
499727.94 -1.0604664e+22 1.6288612e-314 435.17316 437.76981
505791.19 -1.0578841e+22 1.6288598e-314 436.16244 437.93167
568747.88 -1.0547108e+22 1.628858e-314 437.20493 438.00311
612368.88 -1.05235e+22 1.6288567e-314 438.04114 438.11221
644926.88 -1.0499154e+22 1.6288554e-314 438.92792 438.26947
687394.38 -1.0471115e+22 1.6288538e-314 439.92129 438.38153
718327.38 -1.0442337e+22 1.6288523e-314 441.01767 438.50531
726715.88 -1.0411343e+22 1.6288506e-314 442.25949 438.64658
714290.38 -1.0376665e+22 1.6288487e-314 443.72977 438.84323
724723.88 -1.0344194e+22 1.6288469e-314 445.01761 439.03931
760532.38 -1.0312471e+22 1.6288451e-314 446.19846 439.19376
749994.38 -1.0287386e+22 1.6288438e-314 447.26987 439.34918
784230.38 -1.0257131e+22 1.6288421e-314 448.4126 439.44891
804834.88 -1.0227614e+22 1.6288405e-314 449.54813 439.59836
817941.88 -1.0198097e+22 1.6288389e-314 450.71521 439.77737
854537.38 -1.0167113e+22 1.6288372e-314 451.90854 439.89639
867959.38 -1.0138335e+22 1.6288356e-314 453.05453 439.98895
869217.38 -1.0108818e+22 1.628834e-314 454.27744 440.14899
871366.88 -1.0078563e+22 1.6288323e-314 455.5274 440.32642
878759.38 -1.0047578e+22 1.6288306e-314 456.7677 440.48352
916350.88 -1.0012891e+22 1.6288287e-314 458.08881 440.66943
915669.38 -9.9833838e+21 1.6288271e-314 459.31848 440.82916
907752.38 -9.9531286e+21 1.6288254e-314 460.61697 440.95727
917189.88 -9.9228734e+21 1.6288238e-314 461.87982 441.00052
921541.38 -9.8911501e+21 1.628822e-314 463.15659 441.19601
924372.38 -9.8594177e+21 1.6288203e-314 464.5025 441.32477
896427.88 -9.8313783e+21 1.6288188e-314 465.73691 441.51688
914673.38 -9.795962e+21 1.6288168e-314 467.14374 441.72507
880804.38 -9.767184e+21 1.6288152e-314 468.46231 441.90289
890660.88 -9.7332449e+21 1.6288134e-314 469.85663 442.02783
887147.88 -9.7007739e+21 1.6288116e-314 471.25009 442.1098
892548.38 -9.6668348e+21 1.6288097e-314 472.63815 442.2991
859517.88 -9.6373182e+21 1.6288081e-314 473.98578 442.43863
823604.38 -9.607063e+21 1.6288065e-314 475.34692 442.64557
825858.88 -9.5723853e+21 1.6288046e-314 476.80441 442.83313
799172.38 -9.5406619e+21 1.6288028e-314 478.21375 442.9769
765722.88 -9.5104067e+21 1.6288012e-314 479.60013 443.13858
799487.38 -9.4720361e+21 1.628799e-314 481.13849 443.26358
762472.38 -9.4410457e+21 1.6287971e-314 482.56186 443.43771
737830.88 -9.4063634e+21 1.6287933e-314 484.07825 443.6272
677275.38 -9.3768514e+21 1.6287901e-314 485.51666 443.78683
654573.88 -9.3436463e+21 1.6287865e-314 486.99396 443.88592
652109.88 -9.30823e+21 1.6287826e-314 488.50729 444.07599
583008.88 -9.279452e+21 1.6287794e-314 489.92554 444.29025
572103.38 -9.2425585e+21 1.6287754e-314 491.50738 444.44357
554854.38 -9.2078763e+21 1.6287716e-314 493.03274 444.6279
516934.94 -9.1761484e+21 1.6287681e-314 494.53146 444.8071
516767.19 -9.1392549e+21 1.628764e-314 496.11313 444.91415
481472.19 -9.1090043e+21 1.6287607e-314 497.62421 445.03738
473303.69 -9.0735835e+21 1.6287568e-314 499.15637 445.24954
480536.44 -9.0389057e+21 1.628753e-314 500.58121 445.47824
473799.19 -9.0093891e+21 1.6287498e-314 501.89206 445.50348
469319.19 -8.9747114e+21 1.628746e-314 503.40186 445.67688
419752.94 -8.9444562e+21 1.6287427e-314 504.98685 445.82971
413639.94 -8.9083014e+21 1.6287387e-314 506.54575 446.12842
411393.19 -8.872885e+21 1.6287348e-314 508.09219 446.21582
367329.44 -8.8418958e+21 1.6287314e-314 509.65686 446.41132
387024.44 -8.8013138e+21 1.628727e-314 511.30158 446.61789
329968.69 -8.7725358e+21 1.6287238e-314 512.84827 446.79825
336527.44 -8.7319539e+21 1.6287194e-314 514.57367 446.95413
318216.69 -8.6957945e+21 1.6287154e-314 516.21429 447.13409
258428.22 -8.6662824e+21 1.6287122e-314 517.86932 447.28439
261604.09 -8.6271732e+21 1.6287079e-314 519.50738 447.46817
231824.47 -8.5961839e+21 1.6287045e-314 521.15814 447.63416
230056.34 -8.5563405e+21 1.6287001e-314 522.89526 447.86417
214263.47 -8.5238741e+21 1.6286965e-314 524.46545 448.04611
186564.09 -8.490669e+21 1.6286929e-314 526.22809 448.2251
205536.72 -8.4471327e+21 1.6286881e-314 527.91382 448.26926
175280.09 -8.412455e+21 1.6286843e-314 529.74994 448.3938
161931.72 -8.3763001e+21 1.6286803e-314 531.48236 448.59714
165867.72 -8.3327638e+21 1.6286756e-314 533.30017 448.85394
110139.86 -8.3069402e+21 1.6286727e-314 535.01349 449.07208
122343.98 -8.2678309e+21 1.6286684e-314 536.60016 449.18552
83027.61 -8.2309374e+21 1.6286644e-314 538.61084 449.42737
83924.11 -8.1881397e+21 1.6286597e-314 540.4389 449.64868
67735.422 -8.153462e+21 1.6286559e-314 542.14551 449.80374
46491.93 -8.1195184e+21 1.6286522e-314 544.02515 450.07834
56958.024 -8.075248e+21 1.6286473e-314 545.75793 450.15182
30219.965 -8.04647e+21 1.6286442e-314 547.62116 450.36783
32645.137 -7.9992453e+21 1.628639e-314 549.57458 450.49268
34091.836 -7.9557135e+21 1.6286342e-314 551.43866 450.72742
17535.152 -7.9269355e+21 1.628631e-314 553.36444 450.9494
18876.012 -7.8819265e+21 1.6286261e-314 555.2691 451.08682
10639.936 -7.8531485e+21 1.6286229e-314 557.11438 451.3432
12009.967 -7.8044511e+21 1.6286176e-314 559.13971 451.53686
11301.522 -7.7631305e+21 1.6286131e-314 560.98852 451.72604
7972.5381 -7.7240213e+21 1.6286088e-314 562.98755 451.91232
5176.0381 -7.6863892e+21 1.6286047e-314 565.10022 452.15305
3040.3804 -7.6506036e+21 1.6286007e-314 567.18097 452.33975
2948.8765 -7.6052974e+21 1.6285958e-314 569.18158 452.64069
2988.2378 -7.5594778e+21 1.6285907e-314 571.19653 452.76117
1508.2507 -7.5287812e+21 1.6285874e-314 573.17865 452.98361
1800.9304 -7.4817772e+21 1.6285822e-314 575.07886 453.09055
1419.3054 -7.4461402e+21 1.6285783e-314 576.89813 453.19702
1015.4091 -7.4091746e+21 1.6285742e-314 578.77387 453.43619
783.47303 -7.3680748e+21 1.6285697e-314 580.8681 453.68066
642.22254 -7.3237999e+21 1.6285649e-314 582.99774 453.87824
443.27948 -7.278863e+21 1.6285599e-314 585.22986 454.06366
198.68686 -7.2372497e+21 1.6285554e-314 587.43671 454.28519
123.30498 -7.1904663e+21 1.6285502e-314 589.69141 454.55179
57.660179 -7.1515822e+21 1.628546e-314 591.75977 454.72864
39.063072 -7.1063526e+21 1.628541e-314 593.9317 454.99973
23.500164 -7.0647348e+21 1.6285365e-314 596.00085 455.21436
9.7606488 -7.0259948e+21 1.6285322e-314 598.08704 455.47357
6.9200011 -6.9818731e+21 1.6285274e-314 600.2038 455.59692
4.5171233 -6.9426197e+21 1.6285231e-314 602.14069 455.67627
3.0000014 -6.9022584e+21 1.6285186e-314 604.12347 455.84027
1.8159206 -6.8542951e+21 1.6285134e-314 606.40887 456.20685
0.78320015 -6.8001348e+21 1.6285074e-314 609.01538 456.33774
0.013614377 -6.7561572e+21 1.6285026e-314 611.81226 456.67593
0.003122346 -6.7059105e+21 1.6284971e-314 614.25409 456.92841
0.00014579305 -6.659645e+21 1.628492e-314 616.64117 457.07721
9.6765212e-07 -6.6141902e+21 1.628487e-314 618.99005 457.36664
3.5882473e-12 -6.5699918e+21 1.6284822e-314 621.26917 457.58337
-7.3123008e-10 -6.5165003e+21 1.6284763e-314 623.88648 457.82065
-6.3515645e-06 -6.4693522e+21 1.6284711e-314 626.30792 458.1001
-0.00043821492 -6.4230101e+21 1.6284661e-314 628.7279 458.26166
-0.01780751 -6.3767492e+21 1.628461e-314 631.23016 458.57648
-0.084135041 -6.3256153e+21 1.6284554e-314 633.82745 458.72101
-0.24728009 -6.2693158e+21 1.6284492e-314 636.56873 458.92596
-2.1968017 -6.222681e+21 1.6284441e-314 639.08301 459.19379
-7.0737639 -6.1737584e+21 1.6284387e-314 641.7096 459.50488
-17.808651 -6.1229939e+21 1.6284331e-314 644.32831 459.81867
-42.952996 -6.0757691e+21 1.628428e-314 646.77393 459.94247
-84.07811 -6.027513e+21 1.6284227e-314 649.18744 460.15295
-139.37668 -5.9704749e+21 1.6284164e-314 651.94659 460.36255
-551.6908 -5.920449e+21 1.6284109e-314 654.70978 460.68182
-933.22254 -5.8600917e+21 1.6284043e-314 657.79993 460.88699
-1703.8757 -5.8038643e+21 1.6283981e-314 660.73315 461.27035
-3972.6304 -5.7439484e+21 1.6283916e-314 664.04864 461.62231
-6130.4873 -5.674665e+21 1.628384e-314 667.43585 461.84506
-16479.043 -5.6242697e+21 1.6283784e-314 670.43366 462.07916
-28897.121 -5.5521761e+21 1.6283705e-314 674.03394 462.37201
-73347.922 -5.4936654e+21 1.6283641e-314 677.31476 462.53152
-120643.98 -5.426296e+21 1.6283567e-314 680.65582 463.0531
-180943.72 -5.3556075e+21 1.628349e-314 684.2652 463.23688
-259016.72 -5.2855135e+21 1.6283413e-314 687.95282 463.64261
-583899.88 -5.2079615e+21 1.6283328e-314 692.47003 463.8591
-884631.38 -5.1101929e+21 1.628322e-314 697.35315 464.39322
597793.38 -1.067919e+22 1.6288653e-314 432.2981 435.49564
630508.88 -1.0650412e+22 1.6288637e-314 433.40002 435.55896
658453.88 -1.0622373e+22 1.6288621e-314 434.4343 435.70972
690697.38 -1.0595072e+22 1.6288606e-314 435.44379 435.8233
758015.88 -1.0565555e+22 1.628859e-314 436.44305 435.95654
821926.88 -1.0537525e+22 1.6288575e-314 437.37869 436.07095
867329.88 -1.0512431e+22 1.6288561e-314 438.24896 436.2236
922484.88 -1.048513e+22 1.6288546e-314 439.16696 436.33762
954990.88 -1.0459306e+22 1.6288532e-314 440.11221 436.52417
1019740.4 -1.0428312e+22 1.6288515e-314 441.18189 436.57718
1021365.9 -1.0399534e+22 1.6288499e-314 442.36307 436.74069
1013763.9 -1.0365595e+22 1.6288481e-314 443.81281 436.85022
992058.38 -1.0333872e+22 1.6288463e-314 445.15802 437.06332
1015650.9 -1.0303617e+22 1.6288447e-314 446.32837 437.23462
1047947.4 -1.0273362e+22 1.628843e-314 447.46249 437.38745
1096496.8 -1.0243845e+22 1.6288414e-314 448.59503 437.53125
1114112.8 -1.0215806e+22 1.6288398e-314 449.70383 437.71011
1137810.8 -1.0187037e+22 1.6288383e-314 450.86758 437.80963
1139278.8 -1.0158259e+22 1.6288367e-314 452.03784 438.02862
1205443.8 -1.0126526e+22 1.6288349e-314 453.24478 438.16107
1262486.8 -1.0095532e+22 1.6288332e-314 454.47626 438.23047
1249273.8 -1.0066763e+22 1.6288317e-314 455.66843 438.43372
1301178.8 -1.0033554e+22 1.6288298e-314 456.97739 438.56583
1337039.8 -1.0003299e+22 1.6288282e-314 458.20508 438.64664
1323408.8 -9.9730525e+21 1.6288265e-314 459.4483 438.8342
1295935.8 -9.9435359e+21 1.6288249e-314 460.72967 438.95447
1326134.8 -9.9103354e+21 1.6288231e-314 462.05017 439.16431
1342072.8 -9.878603e+21 1.6288213e-314 463.3504 439.31604
1376675.8 -9.8461321e+21 1.6288196e-314 464.66544 439.44693
1309042.8 -9.8181017e+21 1.628818e-314 465.93671 439.58884
1241199.8 -9.7893237e+21 1.6288165e-314 467.25629 439.79129
1339241.8 -9.7524302e+21 1.6288144e-314 468.65329 439.92041
1247176.8 -9.7236522e+21 1.6288128e-314 469.995 440.047
1252629.8 -9.6904426e+21 1.628811e-314 471.39404 440.18613
1218445.8 -9.6594579e+21 1.6288093e-314 472.72675 440.38776
1228512.8 -9.6262483e+21 1.6288075e-314 474.10867 440.54294
1176817.8 -9.5937864e+21 1.6288057e-314 475.5289 440.74484
1156055.8 -9.5613154e+21 1.6288039e-314 476.965 440.87198
1105619.8 -9.5288535e+21 1.6288022e-314 478.38742 441.05597
1070596.8 -9.4971211e+21 1.6288004e-314 479.76309 441.22388
1039243.9 -9.4639206e+21 1.6287986e-314 481.22553 441.39255
976906.38 -9.4344029e+21 1.6287964e-314 482.67169 441.55209
1035993.4 -9.3938209e+21 1.628792e-314 484.25217 441.59323
947860.88 -9.3665201e+21 1.628789e-314 485.62811 441.84561
950377.38 -9.3311038e+21 1.6287851e-314 487.14587 441.98987
876504.88 -9.3015872e+21 1.6287818e-314 488.60467 442.19446
895274.38 -9.2654323e+21 1.6287779e-314 490.08087 442.30939
871838.88 -9.230016e+21 1.628774e-314 491.64111 442.52786
849084.88 -9.1960724e+21 1.6287703e-314 493.16852 442.66354
782395.38 -9.1650831e+21 1.6287669e-314 494.67267 442.86584
771542.38 -9.1281896e+21 1.6287628e-314 496.27393 443.07364
731329.88 -9.0964617e+21 1.6287593e-314 497.74054 443.14581
680735.88 -9.0632567e+21 1.6287557e-314 499.30908 443.33746
667681.38 -9.0263632e+21 1.6287517e-314 500.92087 443.55487
653210.88 -8.9946354e+21 1.6287482e-314 502.31332 443.69342
672766.88 -8.9614303e+21 1.6287445e-314 503.70938 443.733
599523.88 -8.9326523e+21 1.6287414e-314 505.15494 443.87759
586101.88 -8.8957588e+21 1.6287373e-314 506.75214 444.12686
575301.38 -8.8603425e+21 1.6287334e-314 508.31027 444.24835
505696.94 -8.8300873e+21 1.6287301e-314 509.84625 444.44055
512606.94 -8.7924553e+21 1.628726e-314 511.41284 444.6803
480504.94 -8.7592547e+21 1.6287224e-314 513.01727 444.81381
454416.44 -8.7238339e+21 1.6287185e-314 514.67511 445.04559
443151.94 -8.6869404e+21 1.6287144e-314 516.32526 445.21378
389535.69 -8.6559512e+21 1.628711e-314 517.95886 445.39197
412520.44 -8.613892e+21 1.6287064e-314 519.66052 445.56424
336328.44 -8.5865912e+21 1.6287034e-314 521.2605 445.68024
347561.19 -8.5452707e+21 1.6286989e-314 522.97113 445.95081
320193.44 -8.510593e+21 1.6286951e-314 524.63379 446.11365
260828.09 -8.4773879e+21 1.6286914e-314 526.38489 446.28015
271969.44 -8.4382787e+21 1.6286871e-314 528.03912 446.41953
231167.84 -8.4072894e+21 1.6286837e-314 529.74908 446.57562
225839.72 -8.3674461e+21 1.6286794e-314 531.55591 446.73132
239831.72 -8.3224326e+21 1.6286744e-314 533.3446 446.89456
181464.09 -8.2973475e+21 1.6286717e-314 535.08679 447.09814
214931.97 -8.2456957e+21 1.628666e-314 536.95978 447.28568
166672.59 -8.2154451e+21 1.6286627e-314 538.79077 447.44403
159007.47 -8.177813e+21 1.6286586e-314 540.50458 447.67358
155295.47 -8.1379651e+21 1.6286542e-314 542.27332 447.86362
113896.36 -8.1077145e+21 1.6286509e-314 544.03394 448.00717
116495.55 -8.0649168e+21 1.6286462e-314 545.87445 448.22232
94167.422 -8.0250734e+21 1.6286418e-314 547.83893 448.37588
65459.992 -7.9903912e+21 1.628638e-314 549.64105 448.62665
58728.149 -7.9505478e+21 1.6286336e-314 551.52551 448.82181
41167.774 -7.9158701e+21 1.6286298e-314 553.41223 449.04416
41003.93 -7.8708566e+21 1.6286249e-314 555.39563 449.16052
28599.918 -7.8332246e+21 1.6286208e-314 557.37402 449.4426
21769.106 -7.7941198e+21 1.6286165e-314 559.33374 449.74832
15927.545 -7.7542765e+21 1.6286121e-314 561.35852 449.91202
11607.084 -7.7159058e+21 1.6286079e-314 563.40198 450.02457
12474.459 -7.6683883e+21 1.6286027e-314 565.41467 450.18143
5556.4717 -7.6428574e+21 1.6285999e-314 567.29193 450.41672
6255.9873 -7.5925342e+21 1.6285944e-314 569.396 450.58691
6595.792 -7.5476693e+21 1.6285894e-314 571.31342 450.79379
4873.9991 -7.5085646e+21 1.6285851e-314 573.27722 451.16101
3956.6148 -7.4720404e+21 1.6285811e-314 575.07141 451.21637
3699.3862 -7.4363268e+21 1.6285772e-314 576.72723 451.37665
2652.1206 -7.4011312e+21 1.6285734e-314 578.61054 451.5332
2011.5671 -7.3592928e+21 1.6285688e-314 580.66534 451.73166
1531.741 -7.3196701e+21 1.6285644e-314 582.70831 451.94076
1080.116 -7.2750259e+21 1.6285595e-314 584.95904 452.15832
809.18543 -7.2291342e+21 1.6285545e-314 587.2854 452.35696
492.74896 -7.1859672e+21 1.6285498e-314 589.57886 452.5773
246.76364 -7.1424309e+21 1.628545e-314 591.80621 452.83826
126.46916 -7.1014797e+21 1.6285405e-314 593.90515 453.06982
112.17925 -7.0546242e+21 1.6285353e-314 596.05475 453.22113
55.441948 -7.0177307e+21 1.6285313e-314 597.99921 453.40436
51.078423 -6.9770047e+21 1.6285268e-314 599.85925 453.51013
37.22625 -6.9358283e+21 1.6285223e-314 601.7981 453.81967
26.851849 -6.8917065e+21 1.6285175e-314 603.9223 453.89404
9.260809 -6.8495708e+21 1.6285128e-314 606.24103 454.13559
3.0403209 -6.792168e+21 1.6285066e-314 609.26788 454.48929
0.19467005 -6.7457539e+21 1.6285015e-314 611.98828 454.73868
0.099900052 -6.6936607e+21 1.6284957e-314 614.44629 454.93311
0.017188754 -6.6504217e+21 1.628491e-314 616.72937 455.18149
0.0024795639 -6.602017e+21 1.6284857e-314 619.16107 455.44153
4.5150424e-05 -6.5603992e+21 1.6284811e-314 621.42639 455.64954
4.7334305e-07 -6.5108911e+21 1.6284757e-314 623.87946 455.86096
-8.2991167e-12 -6.4648485e+21 1.6284706e-314 626.36591 456.11664
-1.4773181e-07 -6.413494e+21 1.628465e-314 628.85712 456.34049
-5.109622e-05 -6.3631708e+21 1.6284595e-314 631.41498 456.58179
-0.0045108786 -6.3166126e+21 1.6284544e-314 633.93555 456.85367
-0.020068761 -6.2624523e+21 1.6284484e-314 636.5946 457.01279
-0.23178014 -6.2136783e+21 1.6284431e-314 639.25665 457.23621
-1.5004804 -6.166305e+21 1.6284379e-314 641.72534 457.48517
-3.7683215 -6.1108206e+21 1.6284318e-314 644.51111 457.70966
-8.568327 -6.0643345e+21 1.6284267e-314 646.89996 457.93662
-14.048964 -6.0128313e+21 1.6284211e-314 649.38361 458.17941
-29.29089 -5.9577117e+21 1.628415e-314 652.12079 458.5224
-121.19554 -5.909897e+21 1.6284098e-314 654.79694 458.70694
-460.96405 -5.8531562e+21 1.6284035e-314 657.82025 459.05136
-1023.5907 -5.7956002e+21 1.6283972e-314 660.96442 459.19049
-1836.4421 -5.7317752e+21 1.6283902e-314 664.20563 459.62344
-3201.6402 -5.6678015e+21 1.6283832e-314 667.45856 459.87228
-5752.753 -5.6019859e+21 1.628376e-314 670.82294 460.13226
-12200.022 -5.5346886e+21 1.6283686e-314 674.36865 460.40491
-30302.871 -5.4717508e+21 1.6283617e-314 677.84033 460.70654
-63860.274 -5.4015037e+21 1.628354e-314 681.51007 460.97641
-141264.22 -5.3308918e+21 1.6283462e-314 685.2301 461.44199
-246415.47 -5.274885e+21 1.6283401e-314 688.47351 461.72476
813800.38 -1.0702807e+22 1.6288666e-314 431.27625 433.29877
840905.88 -1.0670336e+22 1.6288648e-314 432.47046 433.56671
905445.88 -1.063492e+22 1.6288628e-314 433.69376 433.71393
930663.88 -1.0607619e+22 1.6288613e-314 434.7149 433.82599
947074.38 -1.0583272e+22 1.62886e-314 435.6362 434.00522
1011718.9 -1.0555971e+22 1.6288585e-314 436.55557 434.10626
1077726.8 -1.05294e+22 1.628857e-314 437.48007 434.17658
1172203.8 -1.0500631e+22 1.6288555e-314 438.48209 434.383
1304114.8 -1.0471853e+22 1.6288539e-314 439.44672 434.54221
1432669.8 -1.0443814e+22 1.6288524e-314 440.3909 434.59998
1501875.8 -1.0417252e+22 1.6288509e-314 441.39911 434.68997
1490026.8 -1.0387735e+22 1.6288493e-314 442.62869 434.85172
1421135.8 -1.0356741e+22 1.6288476e-314 444.00848 435.02982
1429733.8 -1.0323541e+22 1.6288458e-314 445.3421 435.24536
1546859.8 -1.0290331e+22 1.6288439e-314 446.52341 435.39404
1586076.8 -1.0261553e+22 1.6288424e-314 447.63376 435.49982
1609459.8 -1.0234252e+22 1.6288409e-314 448.74435 435.62967
1657379.8 -1.0204006e+22 1.6288392e-314 449.88577 435.84503
1729731.8 -1.0173751e+22 1.6288375e-314 451.05945 435.8894
1726900.8 -1.0145712e+22 1.628836e-314 452.20926 436.03018
1768948.8 -1.0114718e+22 1.6288343e-314 453.42139 436.23016
1809842.8 -1.0082994e+22 1.6288326e-314 454.66553 436.38675
1791597.8 -1.0054955e+22 1.628831e-314 455.86108 436.51334
1785935.8 -1.0025438e+22 1.6288294e-314 457.09049 436.62558
1761293.8 -9.9966604e+21 1.6288278e-314 458.29532 436.84723
1787508.8 -9.964937e+21 1.6288261e-314 459.57574 436.98724
1831757.8 -9.9317275e+21 1.6288243e-314 460.90265 437.1467
1847067.8 -9.9000041e+21 1.6288225e-314 462.21283 437.2605
1851366.8 -9.869749e+21 1.6288209e-314 463.49164 437.35757
1819489.8 -9.8402324e+21 1.6288192e-314 464.75592 437.56274
1806801.8 -9.808509e+21 1.6288175e-314 466.09863 437.74408
1788451.8 -9.7767767e+21 1.6288158e-314 467.42679 437.90414
1778699.8 -9.7457829e+21 1.6288141e-314 468.75635 438.05862
1820013.8 -9.7103666e+21 1.6288121e-314 470.1777 438.18869
1795267.8 -9.6786432e+21 1.6288104e-314 471.54138 438.36868
1800510.8 -9.6469109e+21 1.6288086e-314 472.89108 438.42331
1759720.8 -9.6144489e+21 1.6288069e-314 474.30566 438.63934
1723125.8 -9.5834551e+21 1.6288052e-314 475.66598 438.79904
1647523.8 -9.5532e+21 1.6288035e-314 477.06323 438.91663
1654968.8 -9.5177836e+21 1.6288016e-314 478.54581 439.07736
1584293.8 -9.4875285e+21 1.6287999e-314 479.89496 439.28803
1559757.8 -9.4528507e+21 1.628798e-314 481.42551 439.43195
1511942.8 -9.4218603e+21 1.628795e-314 482.81918 439.55283
1479960.8 -9.3857054e+21 1.6287911e-314 484.36972 439.81534
1502190.8 -9.3488119e+21 1.628787e-314 485.90723 439.9083
1347106.8 -9.3222497e+21 1.6287841e-314 487.24661 440.09521
1325715.8 -9.2875675e+21 1.6287803e-314 488.78 440.21429
1249169.8 -9.255101e+21 1.6287767e-314 490.24612 440.45056
1230923.8 -9.2204233e+21 1.6287729e-314 491.76215 440.57657
1175559.8 -9.1850025e+21 1.6287691e-314 493.32379 440.78159
1073218.8 -9.1540132e+21 1.6287657e-314 494.81787 440.90476
1046321.9 -9.1171198e+21 1.6287616e-314 496.40869 441.14386
1018586.9 -9.0831761e+21 1.6287579e-314 497.95328 441.24579
971977.88 -9.0507097e+21 1.6287543e-314 499.46967 441.40607
920440.38 -9.0167706e+21 1.6287506e-314 501.04977 441.62412
871681.38 -8.9835655e+21 1.628747e-314 502.60437 441.81137
856267.38 -8.9496219e+21 1.6287432e-314 504.08777 441.98459
843369.88 -8.9156828e+21 1.6287395e-314 505.57642 442.17935
840696.38 -8.8817391e+21 1.6287358e-314 507.05814 442.23025
819409.88 -8.8485341e+21 1.6287321e-314 508.54193 442.40387
761790.88 -8.8197606e+21 1.628729e-314 509.94379 442.51398
745799.88 -8.7843398e+21 1.6287251e-314 511.50079 442.72492
706321.38 -8.7504006e+21 1.6287214e-314 513.07172 442.89261
697670.38 -8.7090801e+21 1.6287168e-314 514.86456 443.20264
660183.88 -8.6736593e+21 1.628713e-314 516.50555 443.30292
563085.88 -8.64267e+21 1.6287096e-314 518.11865 443.41199
522487.19 -8.6087264e+21 1.6287058e-314 519.70593 443.57916
501127.69 -8.5733101e+21 1.628702e-314 521.35761 443.72201
482560.19 -8.5378938e+21 1.6286981e-314 522.98279 443.95956
467104.19 -8.4987845e+21 1.6286938e-314 524.74896 444.08041
402823.69 -8.4670567e+21 1.6286903e-314 526.47815 444.3641
383744.94 -8.432379e+21 1.6286865e-314 528.08649 444.44257
354096.44 -8.3962196e+21 1.6286825e-314 529.80273 444.6568
331808.94 -8.3563762e+21 1.6286782e-314 531.65173 444.87585
325215.94 -8.3157943e+21 1.6286737e-314 533.45313 444.98697
259580.34 -8.284805e+21 1.6286703e-314 535.15649 445.23633
260767.84 -8.24348e+21 1.6286658e-314 536.93091 445.43005
208231.59 -8.2161792e+21 1.6286628e-314 538.71991 445.5155
221084.47 -8.1689589e+21 1.6286576e-314 540.60254 445.77115
216852.22 -8.1291111e+21 1.6286532e-314 542.37164 445.9902
166004.09 -8.104026e+21 1.6286505e-314 544.02057 446.14841
165308.09 -8.0604897e+21 1.6286457e-314 545.92517 446.25931
155827.72 -8.017692e+21 1.628641e-314 547.93146 446.31796
134780.09 -7.9785873e+21 1.6286367e-314 549.82922 446.60019
116920.17 -7.9416938e+21 1.6286327e-314 551.55817 447.20407
74404.36 -7.9077501e+21 1.6286289e-314 553.49799 447.26502
81916.11 -7.861264e+21 1.6286238e-314 555.49176 447.28238
55212.149 -7.8243705e+21 1.6286198e-314 557.48285 447.46622
42684.274 -7.7823114e+21 1.6286152e-314 559.59534 447.67743
45997.774 -7.7328754e+21 1.6286098e-314 561.67859 447.95193
20143.152 -7.7070517e+21 1.6286069e-314 563.6084 448.03891
27915.074 -7.6551793e+21 1.6286012e-314 565.57623 448.1908
13543.022 -7.6265499e+21 1.6285981e-314 567.51172 448.44351
12684.498 -7.5829415e+21 1.6285933e-314 569.49341 448.65765
12405.967 -7.5380767e+21 1.6285884e-314 571.48669 448.86441
13435.545 -7.492185e+21 1.6285833e-314 573.43353 449.00104
8429.084 -7.4577234e+21 1.6285796e-314 575.31519 449.35889
6158.2569 -7.4244463e+21 1.6285759e-314 577.12537 449.50961
4909.4678 -7.3876249e+21 1.6285719e-314 578.94714 449.65521
4242.4756 -7.3440931e+21 1.6285671e-314 580.97498 449.83731
3049.6382 -7.3074924e+21 1.6285631e-314 582.92242 450.11185
2568.8902 -7.2648433e+21 1.6285584e-314 584.96564 450.22803
1756.1199 -7.2247792e+21 1.628554e-314 587.08618 450.36484
1563.198 -7.1757125e+21 1.6285486e-314 589.36987 450.60101
942.91004 -7.1361619e+21 1.6285443e-314 591.55896 450.72275
775.56775 -7.0934363e+21 1.6285396e-314 593.63898 450.98846
598.81531 -7.0516744e+21 1.628535e-314 595.70709 451.14758
336.84491 -7.013011e+21 1.6285308e-314 597.71826 451.43442
153.9227 -6.9751582e+21 1.6285266e-314 599.70227 451.83023
124.93059 -6.9319192e+21 1.6285219e-314 601.71906 451.87293
63.133476 -6.8862437e+21 1.6285169e-314 604.04718 452.02911
29.089932 -6.8340785e+21 1.6285111e-314 606.70367 452.31232
5.4462424 -6.7864124e+21 1.6285059e-314 609.53387 452.65707
3.6235213 -6.7315855e+21 1.6284999e-314 612.14996 452.76819
1.4978407 -6.6853966e+21 1.6284948e-314 614.51514 452.98038
0.20773015 -6.6417162e+21 1.62849e-314 616.8609 453.25253
0.11445503 -6.5893258e+21 1.6284843e-314 619.31744 453.44974
0.024525013 -6.5430603e+21 1.6284792e-314 621.68866 453.74615
0.006843566 -6.4929578e+21 1.6284737e-314 624.17078 453.90561
5.7742196e-05 -6.4497953e+21 1.628469e-314 626.57208 454.1543
2.6007086e-07 -6.4023499e+21 1.6284638e-314 628.98901 454.42071
1.4293606e-21 -6.3509187e+21 1.6284581e-314 631.59387 454.63153
-2.2351841e-07 -6.300895e+21 1.6284527e-314 634.14728 454.79376
-0.00025606266 -6.2533775e+21 1.6284474e-314 636.71661 455.06107
-0.012090629 -6.2029057e+21 1.6284419e-314 639.35876 455.45984
-0.069290027 -6.1523618e+21 1.6284364e-314 641.97217 455.60162
-0.31714028 -6.0993815e+21 1.6284305e-314 644.63928 455.74545
-1.9577606 -6.0509768e+21 1.6284252e-314 647.15326 456.01761
-3.0505614 -5.9999915e+21 1.6284196e-314 649.57391 456.27719
-8.3075238 -5.9506996e+21 1.6284142e-314 652.17505 456.51242
-29.882885 -5.8967645e+21 1.6284083e-314 655.06787 456.68552
-155.57639 -5.8465134e+21 1.6284028e-314 657.9148 456.96008
-541.74744 -5.7874847e+21 1.6283963e-314 661.02618 457.34955
-908.15515 -5.720264e+21 1.628389e-314 664.40027 457.57925
-1676.3709 -5.6554076e+21 1.6283818e-314 667.72992 457.93686
-2678.2534 -5.5899568e+21 1.6283747e-314 671.00214 458.09955
-7069.2881 -5.5274604e+21 1.6283678e-314 674.48499 458.4484
-15794.022 -5.4603117e+21 1.6283604e-314 678.07349 458.69327
-54835.961 -5.3999545e+21 1.6283538e-314 681.59228 459.1134
-116436.55 -5.3176106e+21 1.6283448e-314 685.79999 459.36978
-168684.47 -5.2506826e+21 1.6283374e-314 689.15649 459.76797
-344305.44 -5.063486e+21 1.6283169e-314 698.49939 460.17023
1249903.8 -1.0626804e+22 1.6288624e-314 433.82574 431.81522
1329909.8 -1.0596549e+22 1.6288607e-314 434.90668 431.99237
1406140.8 -1.0570725e+22 1.6288593e-314 435.83469 432.11728
1517709.8 -1.0543424e+22 1.6288578e-314 436.76306 432.26361
1625922.8 -1.0516124e+22 1.6288563e-314 437.68674 432.38
1732248.8 -1.0488084e+22 1.6288548e-314 438.66266 432.48331
1782684.8 -1.0462261e+22 1.6288534e-314 439.63251 432.62341
1889639.8 -1.043496e+22 1.6288519e-314 440.56485 432.77795
1950456.8 -1.0406182e+22 1.6288503e-314 441.64767 432.9516
1908933.8 -1.0376665e+22 1.6288487e-314 442.90851 433.11264
1923298.8 -1.0344194e+22 1.6288469e-314 444.25421 433.19302
1972581.8 -1.0310994e+22 1.6288451e-314 445.53558 433.33929
2026163.8 -1.0281477e+22 1.6288434e-314 446.66077 433.4975
2081738.8 -1.0252699e+22 1.6288419e-314 447.75287 433.61612
2111203.5 -1.022466e+22 1.6288403e-314 448.88055 433.74106
2271007.5 -1.0192936e+22 1.6288386e-314 450.05795 433.92148
2313999.5 -1.0164158e+22 1.628837e-314 451.22235 434.02365
2398305.5 -1.0134642e+22 1.6288354e-314 452.37341 434.19351
2479463.5 -1.0103657e+22 1.6288337e-314 453.58328 434.37781
2589983.5 -1.0071925e+22 1.628832e-314 454.81653 434.45584
2526859.5 -1.0044624e+22 1.6288305e-314 456.00159 434.57437
2521197.5 -1.0015107e+22 1.6288288e-314 457.22934 434.77301
2558527.5 -9.9833838e+21 1.6288271e-314 458.5199 434.90634
2634023.5 -9.9516514e+21 1.6288254e-314 459.77484 435.07837
2628151.5 -9.9199191e+21 1.6288236e-314 461.08517 435.29462
2649123.5 -9.8889343e+21 1.6288219e-314 462.35901 435.40448
2680161.5 -9.8572019e+21 1.6288202e-314 463.67578 435.57257
2677015.5 -9.8262172e+21 1.6288185e-314 464.97339 435.70142
2556639.5 -9.7989164e+21 1.628817e-314 466.20825 435.83994
2586209.5 -9.7642296e+21 1.6288151e-314 467.61728 436.04215
2668207.5 -9.7317677e+21 1.6288133e-314 468.95135 436.10706
2593759.5 -9.6992967e+21 1.6288115e-314 470.32968 436.33197
2516163.5 -9.6690506e+21 1.6288099e-314 471.67059 436.49072
2466671.5 -9.6380568e+21 1.6288082e-314 473.01282 436.65332
2437311.5 -9.6048562e+21 1.6288063e-314 474.42191 436.80255
2345037.5 -9.5723853e+21 1.6288046e-314 475.85712 436.92602
2360555.5 -9.5377076e+21 1.6288027e-314 477.31802 437.11478
2336647.5 -9.5052366e+21 1.6288009e-314 478.70212 437.2197
2167617.5 -9.4742519e+21 1.6287992e-314 480.12943 437.43851
2133225.5 -9.4410457e+21 1.6287971e-314 481.56583 437.54379
2092643.8 -9.4078406e+21 1.6287935e-314 483.01587 437.70303
1993028.8 -9.3768514e+21 1.6287901e-314 484.46094 437.90149
1985059.8 -9.3406965e+21 1.6287861e-314 486.01645 438.03998
1906416.8 -9.3104413e+21 1.6287828e-314 487.42096 438.1709
1786564.8 -9.279452e+21 1.6287794e-314 488.89728 438.41486
1807430.8 -9.2425585e+21 1.6287754e-314 490.41928 438.54077
1698379.8 -9.2115692e+21 1.628772e-314 491.90918 438.74655
1726585.8 -9.1739372e+21 1.6287678e-314 493.47696 438.87265
1645006.8 -9.1407321e+21 1.6287642e-314 495.00711 439.04159
1520855.8 -9.1082657e+21 1.6287606e-314 496.5271 439.29517
1478912.8 -9.0750606e+21 1.628757e-314 498.03934 439.40097
1447349.8 -9.0381672e+21 1.6287529e-314 499.66791 439.53104
1309357.8 -9.0071779e+21 1.6287495e-314 501.15585 439.81097
1237005.8 -8.9732343e+21 1.6287458e-314 502.7363 439.87705
1255460.8 -8.9356022e+21 1.6287417e-314 504.31082 440.09155
1034158.4 -8.9083014e+21 1.6287387e-314 505.80768 440.26703
1079614.8 -8.8706693e+21 1.6287346e-314 507.34738 440.34842
1141899.8 -8.8374687e+21 1.6287309e-314 508.68451 440.43777
1094189.8 -8.8086907e+21 1.6287278e-314 509.98315 440.68689
1015598.9 -8.7754857e+21 1.6287241e-314 511.54865 440.93692
914515.88 -8.7430192e+21 1.6287206e-314 513.21167 441.13882
905026.38 -8.7024373e+21 1.6287161e-314 514.99219 441.267
935120.38 -8.6603782e+21 1.6287115e-314 516.72015 441.40866
847511.88 -8.6323388e+21 1.6287084e-314 518.20801 441.48645
789840.38 -8.5991337e+21 1.6287048e-314 519.76715 441.77008
664587.88 -8.5710943e+21 1.6287017e-314 521.32336 441.94095
691588.88 -8.5283011e+21 1.628697e-314 523.10352 442.06171
734789.88 -8.4832876e+21 1.6286921e-314 524.97302 442.15006
617926.38 -8.4515598e+21 1.6286886e-314 526.63648 442.39746
539545.38 -8.4198319e+21 1.6286851e-314 528.21106 442.59848
514177.19 -8.3807272e+21 1.6286808e-314 530.00696 442.79446
477600.44 -8.3453064e+21 1.6286769e-314 531.72473 442.99295
454848.94 -8.3084129e+21 1.6286729e-314 533.47259 443.16537
402695.44 -8.2729966e+21 1.628669e-314 535.25977 443.41196
405673.19 -8.2309375e+21 1.6286644e-314 537.06732 443.57639
285624.44 -8.2065865e+21 1.6286617e-314 538.80188 443.70053
285784.44 -8.1645319e+21 1.6286571e-314 540.62164 443.87753
313639.69 -8.120257e+21 1.6286522e-314 542.41022 444.0173
249976.72 -8.0885291e+21 1.6286488e-314 544.17023 444.30096
240328.47 -8.0494244e+21 1.6286445e-314 545.99029 444.40179
222500.09 -8.0103151e+21 1.6286402e-314 547.87897 444.59073
189184.22 -7.9785873e+21 1.6286367e-314 549.62518 444.70267
176024.59 -7.9321011e+21 1.6286316e-314 551.75494 445.14804
188544.59 -7.8848763e+21 1.6286264e-314 553.67456 445.41498
172135.59 -7.8479829e+21 1.6286224e-314 555.49219 445.51724
130411.42 -7.8125666e+21 1.6286185e-314 557.46509 445.64813
92047.985 -7.7734573e+21 1.6286142e-314 559.58795 445.73379
74691.422 -7.7291869e+21 1.6286093e-314 561.73315 445.91989
45352.242 -7.6937706e+21 1.6286055e-314 563.7608 446.14304
50621.992 -7.6471358e+21 1.6286003e-314 565.70227 446.38574
30158.043 -7.6131201e+21 1.6285966e-314 567.66943 446.5145
26112.168 -7.572241e+21 1.6285921e-314 569.62305 446.73221
21575.121 -7.5299612e+21 1.6285875e-314 571.65118 446.99069
11782.561 -7.4996339e+21 1.6285842e-314 573.55335 447.1626
17729.137 -7.4451809e+21 1.6285782e-314 575.53711 447.35092
9053.4747 -7.4160336e+21 1.628575e-314 577.4563 447.48364
8864.0762 -7.369624e+21 1.6285699e-314 579.51215 447.70944
7024.9717 -7.3311047e+21 1.6285657e-314 581.427 447.99353
5128.2764 -7.2937699e+21 1.6285616e-314 583.37091 448.17389
4021.6187 -7.2530393e+21 1.6285571e-314 585.33862 448.42908
3114.7632 -7.2136373e+21 1.6285528e-314 587.35913 448.61844
2593.2612 -7.1730554e+21 1.6285483e-314 589.33258 448.6756
2477.9995 -7.1290778e+21 1.6285435e-314 591.29645 448.95453
1771.2546 -7.0897478e+21 1.6285392e-314 593.33441 449.15796
1285.0593 -7.0479859e+21 1.6285346e-314 595.49255 449.26187
927.31433 -7.0039362e+21 1.6285298e-314 597.71295 449.48782
604.62098 -6.9618005e+21 1.6285252e-314 599.9516 449.77731
447.08881 -6.9164223e+21 1.6285202e-314 602.151 449.97049
180.08078 -6.8714854e+21 1.6285153e-314 604.54395 450.20886
39.078423 -6.8233779e+21 1.62851e-314 607.30817 450.62442
31.238415 -6.7671505e+21 1.6285038e-314 609.91498 450.6575
13.077124 -6.7236187e+21 1.628499e-314 612.23444 450.86844
6.0761633 -6.6767632e+21 1.6284939e-314 614.64917 451.05649
3.2959209 -6.6282865e+21 1.6284886e-314 617.05054 451.31503
1.8391206 -6.5786253e+21 1.6284831e-314 619.47394 451.51706
0.31542009 -6.536422e+21 1.6284785e-314 621.7124 451.78152
0.042587511 -6.4919985e+21 1.6284736e-314 624.10761 451.96774
0.0097887572 -6.4422698e+21 1.6284682e-314 626.61609 452.2363
0.00018996102 -6.396225e+21 1.6284631e-314 629.07819 452.51459
5.2184092e-05 -6.3385249e+21 1.6284568e-314 631.78503 452.71274
4.176381e-09 -6.2913721e+21 1.6284516e-314 634.30536 452.86514
-2.4265066e-09 -6.2417898e+21 1.6284462e-314 636.87146 453.216
-9.5784243e-05 -6.1953802e+21 1.6284411e-314 639.42181 453.42239
-0.00091791421 -6.1387114e+21 1.6284349e-314 642.17889 453.62961
-0.019710016 -6.0873569e+21 1.6284292e-314 644.85602 453.81491
-0.15622005 -6.0438206e+21 1.6284245e-314 647.19721 454.0191
-0.42792028 -5.9934973e+21 1.6284189e-314 649.63385 454.29886
-2.4514423 -5.9419942e+21 1.6284133e-314 652.29578 454.53973
-7.2979231 -5.8859154e+21 1.6284071e-314 655.21948 454.79813
-15.761602 -5.8251888e+21 1.6284005e-314 658.23248 455.06808
-58.629143 -5.7674166e+21 1.6283941e-314 661.28583 455.40479
-281.09833 -5.7055822e+21 1.6283873e-314 664.64185 455.50708
-716.00183 -5.6407979e+21 1.6283802e-314 667.95453 455.89917
-1766.6257 -5.5866377e+21 1.6283743e-314 671.0368 456.10107
-3363.3901 -5.5160978e+21 1.6283666e-314 674.64111 456.43402
-6462.999 -5.4474764e+21 1.628359e-314 678.16949 456.66882
-26336.965 -5.3855655e+21 1.6283522e-314 681.89496 457.02866
-55064.024 -5.2999025e+21 1.6283428e-314 686.23395 457.37766
-102520.61 -5.2321638e+21 1.6283354e-314 689.66187 457.86395
-158276.09 -5.151662e+21 1.6283266e-314 693.65692 458.18158
1722706.8 -1.0620166e+22 1.628862e-314 433.82916 430.13119
1820747.8 -1.058474e+22 1.6288601e-314 435.08572 430.33563
1892365.8 -1.0558917e+22 1.6288587e-314 436.03436 430.46338
2047135.8 -1.0530139e+22 1.6288571e-314 436.97589 430.46521
2199913.5 -1.0503577e+22 1.6288556e-314 437.90115 430.61832
2352377.5 -1.0477753e+22 1.6288542e-314 438.80533 430.75858
2475479.5 -1.0452668e+22 1.6288528e-314 439.74084 430.92496
2631717.5 -1.0425367e+22 1.6288513e-314 440.73776 431.04068
2633395.5 -1.0398066e+22 1.6288498e-314 441.83041 431.241
2688759.5 -1.0361911e+22 1.6288479e-314 443.26593 431.37399
2793827.5 -1.0327225e+22 1.628846e-314 444.60837 431.539
2933077.5 -1.029624e+22 1.6288443e-314 445.78976 431.62445
2954679.5 -1.0271146e+22 1.6288429e-314 446.82309 431.7002
2951953.5 -1.0243106e+22 1.6288413e-314 447.9346 431.9574
3170895.5 -1.0209906e+22 1.6288395e-314 449.13541 432.09064
3198577.5 -1.0183344e+22 1.6288381e-314 450.22266 432.21078
3252683.5 -1.0154566e+22 1.6288365e-314 451.34701 432.38098
3369915.5 -1.0123572e+22 1.6288348e-314 452.56576 432.48309
3483999.5 -1.0092587e+22 1.6288331e-314 453.75876 432.58423
3526153.5 -1.006307e+22 1.6288315e-314 454.96176 432.72479
3429055.5 -1.003577e+22 1.62883e-314 456.14374 432.91504
3555513.5 -1.0002569e+22 1.6288281e-314 457.43518 433.06262
3481063.5 -9.9745297e+21 1.6288266e-314 458.642 433.24597
3590325.5 -9.9413202e+21 1.6288248e-314 459.95493 433.3649
3664565.5 -9.9095968e+21 1.628823e-314 461.23282 433.45712
3707557.5 -9.8771259e+21 1.6288213e-314 462.52817 433.69019
3693295.5 -9.8461321e+21 1.6288196e-314 463.81253 433.82379
3586131.5 -9.8173631e+21 1.628818e-314 465.11398 433.99793
3571031.5 -9.7871079e+21 1.6288163e-314 466.39963 434.12695
3489871.5 -9.7568527e+21 1.6288147e-314 467.71454 434.25699
3434507.5 -9.725868e+21 1.628813e-314 469.04098 434.4762
3562853.5 -9.6904427e+21 1.628811e-314 470.44757 434.58246
3584873.5 -9.6557649e+21 1.6288091e-314 471.86075 434.75183
3352089.5 -9.6292027e+21 1.6288077e-314 473.15738 434.91773
3331747.5 -9.5960022e+21 1.6288058e-314 474.58386 435.03934
3216193.5 -9.565747e+21 1.6288042e-314 475.94293 435.25403
3221645.5 -9.5303307e+21 1.6288022e-314 477.40619 435.41125
3079039.5 -9.5008141e+21 1.6288006e-314 478.7807 435.50961
2938741.5 -9.4690817e+21 1.6287989e-314 480.19214 435.79071
3168797.5 -9.4292372e+21 1.6287959e-314 481.74164 435.86301
3153907.5 -9.3960367e+21 1.6287922e-314 483.15289 435.93579
2866599.5 -9.3672587e+21 1.6287891e-314 484.59872 436.13767
2667369.5 -9.3355308e+21 1.6287856e-314 486.06506 436.38165
2712667.5 -9.2978988e+21 1.6287814e-314 487.61163 436.54977
2583063.5 -9.2661709e+21 1.628778e-314 489.07144 436.62564
2541749.5 -9.2314887e+21 1.6287742e-314 490.5571 436.83227
2282961.5 -9.2027107e+21 1.628771e-314 491.97311 436.96585
2282751.5 -9.1650831e+21 1.6287669e-314 493.57565 437.15442
2063493.8 -9.1340893e+21 1.6287635e-314 495.07712 437.29804
2028156.8 -9.098673e+21 1.6287596e-314 496.64236 437.56323
1991246.8 -9.0632567e+21 1.6287557e-314 498.20783 437.68604
1877370.8 -9.0315288e+21 1.6287522e-314 499.72611 437.83279
1778280.8 -8.9968466e+21 1.6287484e-314 501.3129 438.12128
1708130.8 -8.9643802e+21 1.6287449e-314 502.8421 438.20108
1781950.8 -8.9245368e+21 1.6287405e-314 504.4411 438.35806
1664719.8 -8.892809e+21 1.628737e-314 505.9913 438.4129
1685900.8 -8.8618152e+21 1.6287336e-314 507.28543 438.53201
1675100.8 -8.8323031e+21 1.6287304e-314 508.54355 438.78894
1545811.8 -8.8020479e+21 1.628727e-314 509.98785 439.01135
1476080.8 -8.7681088e+21 1.6287233e-314 511.55048 439.26031
1437388.8 -8.7260497e+21 1.6287187e-314 513.47943 439.14169
1347210.8 -8.6869404e+21 1.6287144e-314 515.26044 439.3877
1335991.8 -8.6507855e+21 1.6287105e-314 516.82129 439.67828
1150498.8 -8.6227461e+21 1.6287074e-314 518.27179 439.83701
1001914.9 -8.5961839e+21 1.6287045e-314 519.70807 439.98904
895274.38 -8.5629788e+21 1.6287008e-314 521.42346 440.19898
938056.38 -8.5157541e+21 1.6286956e-314 523.34576 440.29852
933862.38 -8.4766493e+21 1.6286913e-314 525.03961 440.56747
847878.88 -8.4449215e+21 1.6286879e-314 526.65735 440.65289
785016.88 -8.4117164e+21 1.6286842e-314 528.27063 440.88385
737254.38 -8.374823e+21 1.6286802e-314 529.97754 441.06262
681312.88 -8.3364523e+21 1.628676e-314 531.80597 441.29813
