# .PCD v0.7 - Point Cloud Data file format
VERSION 0.7
FIELDS x y z p_x p_y
SIZE 8 8 8 8 8
TYPE F F F F F
COUNT 1 1 1 1 1
WIDTH 785
HEIGHT 1
VIEWPOINT 0 0 0 1 0 0 0
POINTS 785
DATA ascii
-0.032545023 -6.0875775e+21 1.6284293e-314 525.27801 449.93665
-0.074125037 -6.0745892e+21 1.6284278e-314 526.75842 450.20874
-0.10217504 -6.0440412e+21 1.6284245e-314 528.31982 450.24191
-0.17120013 -6.0067785e+21 1.6284204e-314 529.95947 450.41922
-0.3729803 -5.9858232e+21 1.6284181e-314 531.7077 450.66666
-0.43598026 -5.9087891e+21 1.6284096e-314 533.50903 450.79315
-1.121681 -5.9400036e+21 1.6284131e-314 535.08704 450.93149
-2.0226417 -5.9045107e+21 1.6284092e-314 536.77264 451.16516
-2.5610423 -5.8607537e+21 1.6284044e-314 538.58844 451.25293
-3.3085609 -5.8139028e+21 1.6283992e-314 540.51813 451.42609
-4.4027243 -5.7935375e+21 1.628397e-314 542.02301 451.6182
-6.888484 -5.7714744e+21 1.6283946e-314 544.01672 451.87527
-9.1891232 -5.7391566e+21 1.628391e-314 545.72534 452.06851
-11.686087 -5.7060236e+21 1.6283874e-314 547.51019 452.14874
-15.025602 -5.6934811e+21 1.628386e-314 549.4314 452.19189
-18.783367 -5.645225e+21 1.6283807e-314 551.00562 452.37637
-27.536007 -5.5987388e+21 1.6283756e-314 553.11176 452.66779
-38.292504 -5.6210226e+21 1.6283781e-314 554.6919 452.65646
-50.040337 -5.5877455e+21 1.6283744e-314 556.51477 452.77927
-54.721306 -5.4552947e+21 1.6283599e-314 558.65869 453.14188
-144.23044 -5.5975589e+21 1.6283755e-314 560.22675 453.36047
-178.15048 -5.5214841e+21 1.6283672e-314 562.35565 453.54697
-202.7009 -5.4568439e+21 1.6283601e-314 564.21906 453.66544
-246.66635 -5.4149334e+21 1.6283555e-314 566.13214 453.79336
-467.59955 -5.4395771e+21 1.6283582e-314 568.02948 454.0791
-493.59882 -5.3480099e+21 1.6283481e-314 569.99554 454.23584
-683.61267 -5.3685959e+21 1.6283504e-314 571.8186 454.41678
-772.33191 -5.3241048e+21 1.6283455e-314 573.69159 454.5694
-902.94324 -5.2925976e+21 1.628342e-314 575.64825 454.78427
-1133.6511 -5.3078693e+21 1.6283437e-314 577.5434 454.92752
-1290.9168 -5.2374781e+21 1.628336e-314 579.60956 455.13998
-1672.6228 -5.2462556e+21 1.628337e-314 581.58563 455.35138
-1882.031 -5.220432e+21 1.6283341e-314 583.53528 455.44824
-2211.7183 -5.1809579e+21 1.6283298e-314 585.55286 455.66846
-2784.7495 -5.1626553e+21 1.6283278e-314 587.59918 455.84024
-3200.5757 -5.1211906e+21 1.6283232e-314 589.64197 455.9968
-3966.978 -5.1340259e+21 1.6283246e-314 591.57538 456.19675
-4645.2764 -5.0854771e+21 1.6283193e-314 593.68738 456.36563
-5785.7686 -5.0597255e+21 1.6283165e-314 595.81909 456.55594
-7101.0733 -5.0460751e+21 1.628315e-314 597.84308 456.78076
-8604.8809 -5.0429721e+21 1.6283147e-314 599.87903 456.93912
-10555.725 -4.9965625e+21 1.6283096e-314 602.03571 457.16144
-13098.357 -4.9853486e+21 1.6283083e-314 604.14606 457.33545
-15430.951 -4.9621775e+21 1.6283058e-314 606.30957 457.51621
-20630.746 -4.964024e+21 1.628306e-314 608.45911 457.72827
-24994.137 -4.9319269e+21 1.6283025e-314 610.63843 457.91983
-29122.246 -4.8930383e+21 1.6282982e-314 612.82886 458.12027
-36171.305 -4.8824143e+21 1.628297e-314 614.95465 458.31519
-46174.055 -4.8709752e+21 1.6282958e-314 617.13989 458.46423
-58564.305 -4.8503892e+21 1.6282935e-314 619.4115 458.77341
-68592.672 -4.8291412e+21 1.6282912e-314 621.70489 458.87079
-90177.61 -4.8181434e+21 1.62829e-314 623.89496 459.05859
-112783.55 -4.8063395e+21 1.6282887e-314 626.1405 459.26621
-135449.84 -4.7971161e+21 1.6282877e-314 628.49298 459.43857
-152988.59 -4.7490087e+21 1.6282824e-314 630.90637 459.67014
-178863.59 -4.7491528e+21 1.6282824e-314 633.29303 459.87079
-200823.34 -4.7326246e+21 1.6282806e-314 635.6687 460.05783
-226581.59 -4.7156533e+21 1.628278e-314 638.1806 460.35788
-251756.59 -4.7212986e+21 1.6282793e-314 640.62335 460.46533
-289540.81 -4.7125909e+21 1.6282773e-314 643.01422 460.71005
-332479.81 -4.6934438e+21 1.6282731e-314 645.56146 460.96579
-390977.31 -4.6922999e+21 1.6282729e-314 648.04187 461.24793
-441282.81 -4.6994201e+21 1.6282745e-314 650.53528 461.32434
-497213.81 -4.6941824e+21 1.6282733e-314 653.13904 461.58884
-567542.13 -4.6792395e+21 1.62827e-314 655.86853 461.83661
-677694.63 -4.6742224e+21 1.6282689e-314 658.5517 462.06952
-802999.63 -4.676177e+21 1.6282694e-314 661.36951 462.29761
-899468.63 -4.6627112e+21 1.6282664e-314 664.15649 462.50909
-1023620.1 -4.665258e+21 1.628267e-314 666.91168 462.73441
-1239207.3 -4.6634116e+21 1.6282665e-314 669.72632 462.96909
-1498730.3 -4.6693158e+21 1.6282678e-314 672.72955 463.13968
-1782579.3 -4.676177e+21 1.6282694e-314 675.68396 463.39014
-2091804.3 -4.6924102e+21 1.6282729e-314 678.52118 463.64316
-2557686.5 -4.6681719e+21 1.6282676e-314 682.06988 463.95309
-4644353 -4.7212243e+21 1.6282792e-314 690.52387 464.66968
-5538581 -4.6887578e+21 1.6282721e-314 694.54864 464.92764
-7356389 -4.7080175e+21 1.6282763e-314 698.88965 465.29907
-10776010 -4.808258e+21 1.6282889e-314 703.77173 465.45554
-1.9554774e+15 -2.2788263e+24 1.6328825e-314 856.99048 449.65295
-2.6885084e+15 -2.0310912e+24 1.6327763e-314 903.76074 454.4512
-2.8500764e+15 -1.9676217e+24 1.6327491e-314 913.60132 455.14838
-3.8054017e+15 -1.8484292e+24 1.6326981e-314 950.97443 458.76868
-4.4024108e+15 -1.6532073e+24 1.6326144e-314 982.3175 461.74875
63.310112 -8.7850783e+21 1.6287252e-314 439.70175 438.85156
60.037133 -8.6707094e+21 1.6287126e-314 441.3212 439.11139
57.02401 -8.6286503e+21 1.628708e-314 442.12839 439.21686
49.098259 -8.5615062e+21 1.6287007e-314 443.24228 439.50214
44.824333 -8.4914076e+21 1.628693e-314 444.52866 439.66788
41.889305 -8.4486099e+21 1.6286883e-314 445.56757 439.72903
39.290917 -8.3999125e+21 1.6286829e-314 446.62759 439.80524
37.091851 -8.3327638e+21 1.6286756e-314 447.72058 439.94101
34.341149 -8.2884934e+21 1.6286707e-314 448.74915 440.00833
30.322567 -8.2420073e+21 1.6286656e-314 449.81021 440.1553
27.687695 -8.1829786e+21 1.6286591e-314 450.94601 440.33533
24.835217 -8.1409195e+21 1.6286545e-314 452.04364 440.45828
21.305615 -8.0936947e+21 1.6286493e-314 453.1965 440.62888
19.703045 -8.0390931e+21 1.6286433e-314 454.37335 440.72522
15.777288 -7.9859641e+21 1.6286375e-314 455.56366 440.95233
14.358404 -7.9461208e+21 1.6286331e-314 456.71545 441.05478
13.647047 -7.8974234e+21 1.6286278e-314 457.92389 441.11282
11.509443 -7.8487214e+21 1.6286225e-314 459.14972 441.31738
10.263365 -7.7992854e+21 1.628617e-314 460.40082 441.4292
7.888484 -7.7520607e+21 1.6286119e-314 461.64358 441.66589
7.2614432 -7.71369e+21 1.6286076e-314 462.8486 441.73563
6.5934439 -7.6638126e+21 1.6286022e-314 464.1192 441.85336
5.7777624 -7.6225642e+21 1.6285977e-314 465.41635 441.96051
4.6091223 -7.5821309e+21 1.6285932e-314 466.73184 442.13773
3.9868808 -7.5256827e+21 1.628587e-314 468.07892 442.26434
3.821281 -7.4614884e+21 1.62858e-314 469.45309 442.35455
3.219522 -7.4292427e+21 1.6285764e-314 470.76578 442.50421
2.5925613 -7.3801759e+21 1.6285711e-314 472.18591 442.72006
1.9015205 -7.3704346e+21 1.62857e-314 473.45422 442.81671
1.4552009 -7.3159816e+21 1.628564e-314 474.83075 442.98697
1.0777605 -7.2700089e+21 1.628559e-314 476.20111 443.09021
0.64348019 -7.2447032e+21 1.6285562e-314 477.56244 443.28314
0.50832022 -7.1853052e+21 1.6285497e-314 479.03812 443.38031
0.36366028 -7.1489251e+21 1.6285457e-314 480.45697 443.51233
0.2080501 -7.1171972e+21 1.6285422e-314 481.83328 443.73227
0.13937005 -7.0683512e+21 1.6285369e-314 483.27548 443.91196
0.094095037 -7.0338942e+21 1.6285331e-314 484.76892 444.04196
0.061827533 -6.9802473e+21 1.6285272e-314 486.17493 444.2417
0.038515024 -6.9694026e+21 1.628526e-314 487.62424 444.33218
0.028680008 -6.9153144e+21 1.6285201e-314 489.05582 444.47278
0.020003762 -6.8593121e+21 1.6285139e-314 490.53989 444.68164
0.011249384 -6.8526693e+21 1.6285132e-314 492.0918 444.77423
0.0085975063 -6.7813953e+21 1.6285054e-314 493.61261 444.95276
0.0024311575 -6.7802109e+21 1.6285052e-314 495.1207 445.08899
0.0012400167 -6.734094e+21 1.6285002e-314 496.7038 445.20413
0.00061821926 -6.6792717e+21 1.6284942e-314 498.25839 445.37207
0.00017765243 -6.6791231e+21 1.6284942e-314 499.79041 445.46661
8.6590866e-05 -6.6130102e+21 1.6284869e-314 501.36896 445.69089
2.849122e-05 -6.5939735e+21 1.6284848e-314 502.87524 445.80759
3.039369e-06 -6.5609171e+21 1.6284812e-314 504.45132 446.01025
3.550112e-07 -6.5252801e+21 1.6284773e-314 505.98065 446.21561
4.9185785e-09 -6.4987134e+21 1.6284744e-314 507.57828 446.44476
6.491544e-10 -6.448836e+21 1.6284689e-314 509.17865 446.52298
3.5837886e-13 -6.4157796e+21 1.6284653e-314 510.78836 446.63391
-1.1688339e-12 -6.3875217e+21 1.6284622e-314 512.3562 446.85352
-1.0772954e-09 -6.3545374e+21 1.6284585e-314 514.00446 446.97546
-4.7817245e-08 -6.3160947e+21 1.6284543e-314 515.6507 447.13046
-3.4086628e-07 -6.26651e+21 1.6284489e-314 517.33728 447.26495
-2.9793096e-06 -6.2487253e+21 1.6284469e-314 518.89996 447.38315
-3.7413113e-05 -6.217664e+21 1.6284435e-314 520.54218 447.63345
-8.6322296e-05 -6.1799599e+21 1.6284394e-314 522.17761 447.74954
-0.00048181269 -6.1747942e+21 1.6284388e-314 523.79175 448.0166
-0.00048017589 -6.0995301e+21 1.6284306e-314 525.35962 448.06357
-0.0012004383 -6.0638165e+21 1.6284266e-314 526.80585 448.22559
-0.0031533144 -6.0354844e+21 1.6284235e-314 528.38177 448.353
-0.0062308153 -5.9906961e+21 1.6284186e-314 530.10614 448.44092
-0.016457509 -5.979257e+21 1.6284174e-314 531.82861 448.70612
-0.027225014 -5.9247274e+21 1.6284114e-314 533.59204 448.92264
-0.055310033 -5.9257632e+21 1.6284115e-314 535.28381 449.03217
-0.097870037 -5.8952153e+21 1.6284082e-314 536.9444 449.19946
-0.13450012 -5.8443741e+21 1.6284026e-314 538.7417 449.31277
-0.32600016 -5.8265939e+21 1.6284006e-314 540.59442 449.57059
-0.5074004 -5.7882233e+21 1.6283964e-314 542.20435 449.74982
-1.0629604 -5.7567881e+21 1.628393e-314 544.20825 449.96494
-1.8065603 -5.7315545e+21 1.6283902e-314 545.89844 450.07779
-2.6823211 -5.7073521e+21 1.6283875e-314 547.53131 450.25565
-3.9746413 -5.6871355e+21 1.6283853e-314 549.54071 450.52264
-5.152484 -5.6501654e+21 1.6283813e-314 551.08014 450.66177
-6.6094427 -5.600878e+21 1.6283759e-314 553.12952 450.81549
-9.4707242 -5.6094349e+21 1.6283768e-314 554.80023 450.90546
-15.092169 -5.6081829e+21 1.6283767e-314 556.67267 451.15485
-12.793608 -5.4558846e+21 1.62836e-314 558.77466 451.23764
-25.253765 -5.5215561e+21 1.6283672e-314 560.52649 451.42062
-37.004814 -5.5069465e+21 1.6283656e-314 562.45489 451.6153
-46.965782 -5.4640767e+21 1.6283609e-314 564.3515 451.7218
-56.912651 -5.3996617e+21 1.6283538e-314 566.23419 451.94046
-101.12004 -5.4212069e+21 1.6283562e-314 568.08191 452.16647
-106.88774 -5.3340623e+21 1.6283466e-314 569.97552 452.30334
-210.93894 -5.3759007e+21 1.6283512e-314 571.88574 452.56888
-248.62729 -5.3257261e+21 1.6283457e-314 573.7973 452.69598
-347.77118 -5.2920797e+21 1.628342e-314 575.71826 452.84512
-541.47107 -5.3022624e+21 1.6283431e-314 577.68176 453.06329
-624.38416 -5.2519391e+21 1.6283376e-314 579.70715 453.19492
-789.5658 -5.2462556e+21 1.628337e-314 581.69647 453.38986
-882.92371 -5.2039758e+21 1.6283323e-314 583.67218 453.5267
-1020.9286 -5.1774901e+21 1.6283294e-314 585.69287 453.72784
-1311.3962 -5.1707753e+21 1.6283287e-314 587.58258 453.88419
-1555.3543 -5.1220013e+21 1.6283233e-314 589.72247 454.12091
-1826.5711 -5.1055451e+21 1.6283215e-314 591.78326 454.25326
-2286.4292 -5.0992716e+21 1.6283208e-314 593.7691 454.46872
-2855.978 -5.0755151e+21 1.6283182e-314 595.81909 454.6647
-3360.605 -5.0414994e+21 1.6283145e-314 597.9212 454.84714
-4025.0581 -5.022832e+21 1.6283124e-314 599.95081 455.10321
-5095.835 -5.0006203e+21 1.62831e-314 602.15735 455.25964
-6193.1553 -4.9987017e+21 1.6283098e-314 604.15729 455.33285
-7272.124 -4.9498557e+21 1.6283044e-314 606.43225 455.58807
-9102.795 -4.9454287e+21 1.628304e-314 608.52911 455.77426
-11207.154 -4.9156193e+21 1.6283007e-314 610.90594 455.89648
-14409.076 -4.9091251e+21 1.6283e-314 612.92407 456.20682
-17291.356 -4.8740016e+21 1.6282961e-314 615.13867 456.46091
-21666.871 -4.8495065e+21 1.6282934e-314 617.32678 456.61185
-27753.527 -4.8435302e+21 1.6282928e-314 619.52216 456.84747
-31425.184 -4.8089201e+21 1.628289e-314 621.84747 456.94745
-42821.242 -4.8112844e+21 1.6282892e-314 624.0072 457.17609
-53179.211 -4.7932791e+21 1.6282873e-314 626.32092 457.35214
-61373.836 -4.7609612e+21 1.6282837e-314 628.71539 457.47116
-84187.609 -4.7453923e+21 1.628282e-314 630.99658 457.81009
-108426.73 -4.7491528e+21 1.6282824e-314 633.37781 457.94904
-132663.34 -4.7493014e+21 1.6282824e-314 635.71216 458.11645
-155996.72 -4.7321832e+21 1.6282806e-314 638.14398 458.33231
-179462.59 -4.7171665e+21 1.6282783e-314 640.56457 458.57037
-208619.53 -4.7230319e+21 1.6282796e-314 643.0036 458.78772
-225982.53 -4.6925589e+21 1.6282729e-314 645.77222 459.00586
-252781.53 -4.6941081e+21 1.6282733e-314 648.24048 459.19559
-298115.56 -4.6862853e+21 1.6282716e-314 650.7641 459.49008
-359045.56 -4.6844794e+21 1.6282712e-314 653.43103 459.77225
-404973.31 -4.6832612e+21 1.6282709e-314 655.93951 459.87833
-459061.31 -4.6706061e+21 1.6282681e-314 658.71265 460.16379
-522390.06 -4.6790188e+21 1.62827e-314 661.40826 460.35718
-604871.13 -4.6563657e+21 1.628265e-314 664.27423 460.57251
-765670.13 -4.6784288e+21 1.6282698e-314 667.00391 460.83481
-872992.13 -4.666143e+21 1.6282671e-314 669.84601 461.09341
-977482.63 -4.656771e+21 1.6282651e-314 672.91589 461.25186
-1213517.3 -4.6716757e+21 1.6282684e-314 675.75366 461.51688
-1471991.3 -4.6634859e+21 1.6282666e-314 678.90729 461.80859
-1790653.3 -4.6760306e+21 1.6282693e-314 682.15735 462.04865
-2089707.3 -4.6690208e+21 1.6282678e-314 685.71258 462.37515
-3024512.5 -4.6925589e+21 1.6282729e-314 690.78894 462.60867
-3892734.5 -4.7287155e+21 1.6282802e-314 694.52216 462.8931
-4932501 -4.7072428e+21 1.6282762e-314 698.80914 463.30557
-1.9710993e+15 -2.2695707e+24 1.6328785e-314 864.1405 448.58115
-2.7208774e+15 -2.001717e+24 1.6327637e-314 913.71912 453.15207
-3.3487093e+15 -1.8835645e+24 1.6327131e-314 939.39911 456.08215
248.2894 -8.7828671e+21 1.6287249e-314 439.91293 437.12701
251.3204 -8.720884e+21 1.6287181e-314 440.77148 437.20294
251.66855 -8.6699708e+21 1.6287126e-314 441.57031 437.26166
249.5643 -8.6124148e+21 1.6287062e-314 442.37237 437.36551
234.0455 -8.5519135e+21 1.6286996e-314 443.38913 437.53076
211.00559 -8.5032116e+21 1.6286943e-314 444.62826 437.65039
191.5239 -8.4486099e+21 1.6286883e-314 445.73733 437.80295
178.84165 -8.3858928e+21 1.6286814e-314 446.83081 437.94348
162.93894 -8.3379295e+21 1.6286761e-314 447.88187 438.05292
144.40463 -8.2803735e+21 1.6286698e-314 448.95447 438.21585
132.41867 -8.227249e+21 1.628664e-314 450.03464 438.31696
115.15654 -8.1785516e+21 1.6286586e-314 451.12961 438.51993
102.80199 -8.1387037e+21 1.6286543e-314 452.22601 438.6449
91.86821 -8.0833635e+21 1.6286482e-314 453.39685 438.80588
89.264695 -8.025812e+21 1.6286419e-314 454.58334 438.85873
77.363266 -7.9778486e+21 1.6286366e-314 455.77203 438.99655
59.541771 -7.9416938e+21 1.6286327e-314 456.89105 439.23877
56.680992 -7.8856149e+21 1.6286265e-314 458.08398 439.32913
53.716515 -7.8324905e+21 1.6286207e-314 459.26944 439.41214
49.112358 -7.7882156e+21 1.6286158e-314 460.45352 439.49872
39.663384 -7.7417294e+21 1.6286107e-314 461.74722 439.70975
31.89761 -7.7011475e+21 1.6286063e-314 463.03418 439.85074
27.310726 -7.6574671e+21 1.6286015e-314 464.31567 440.04273
25.68449 -7.6100217e+21 1.6285963e-314 465.64325 440.08112
22.051846 -7.570989e+21 1.628592e-314 466.90942 440.20422
17.863049 -7.521625e+21 1.6285866e-314 468.25012 440.3895
14.914885 -7.4810431e+21 1.6285821e-314 469.55884 440.53357
13.244482 -7.4455502e+21 1.6285782e-314 470.87186 440.61652
11.149443 -7.3923492e+21 1.6285724e-314 472.2821 440.80652
9.0508862 -7.3513979e+21 1.6285679e-314 473.64294 440.95227
7.5979224 -7.3100774e+21 1.6285634e-314 474.97293 441.07913
6.6204825 -7.2621906e+21 1.6285581e-314 476.39175 441.22967
5.2009611 -7.2336333e+21 1.628555e-314 477.74454 441.40326
4.3035231 -7.1843459e+21 1.6285496e-314 479.18616 441.53845
3.5251212 -7.1522488e+21 1.6285461e-314 480.59763 441.68048
2.8665614 -7.1070867e+21 1.6285411e-314 481.96524 441.90463
2.5170417 -7.046806e+21 1.6285345e-314 483.44751 442.03976
1.6658409 -7.0456981e+21 1.6285344e-314 484.80786 442.1499
1.3916805 -6.9846023e+21 1.6285277e-314 486.24515 442.26502
1.1716011 -6.929262e+21 1.6285216e-314 487.57071 442.35284
0.73312033 -6.9024791e+21 1.6285187e-314 488.87351 442.52838
0.39662022 -6.8836631e+21 1.6285166e-314 490.44074 442.69125
0.18940005 -6.8728139e+21 1.6285154e-314 492.18527 442.86691
0.16549012 -6.7777789e+21 1.628505e-314 493.84317 443.06091
0.092745051 -6.7669298e+21 1.6285038e-314 495.32892 443.18631
0.059015028 -6.7253165e+21 1.6284992e-314 496.83829 443.34189
0.038712524 -6.6811902e+21 1.6284944e-314 498.39551 443.52393
0.021210011 -6.655218e+21 1.6284915e-314 499.93616 443.72696
0.016983759 -6.6023142e+21 1.6284857e-314 501.49542 443.78274
0.0094606337 -6.571397e+21 1.6284823e-314 503.06326 444.0018
0.0042872532 -6.5424704e+21 1.6284792e-314 504.61939 444.11969
0.0014520946 -6.5013705e+21 1.6284746e-314 506.20081 444.35294
0.00054198492 -6.475029e+21 1.6284718e-314 507.75653 444.47055
0.00018237505 -6.4370276e+21 1.6284676e-314 509.35007 444.68893
5.9798353e-05 -6.4181395e+21 1.6284655e-314 510.91925 444.80377
3.3334007e-05 -6.3782196e+21 1.6284611e-314 512.48895 444.87039
3.539491e-06 -6.3323234e+21 1.6284561e-314 514.13928 445.1261
2.4057016e-07 -6.3188982e+21 1.6284546e-314 515.76947 445.289
5.1353475e-08 -6.2654765e+21 1.6284488e-314 517.42035 445.39502
5.3914283e-11 -6.2465118e+21 1.6284467e-314 519.0379 445.62057
9.7033642e-14 -6.2020162e+21 1.6284418e-314 520.70667 445.69247
-2.3403561e-13 -6.1729477e+21 1.6284386e-314 522.30414 445.85364
-5.1622413e-09 -6.145057e+21 1.6284356e-314 523.97937 446.10126
-4.2985924e-08 -6.0974629e+21 1.6284303e-314 525.4176 446.21072
-3.2427232e-07 -6.0672122e+21 1.628427e-314 526.90869 446.2937
-3.5017706e-06 -6.03371e+21 1.6284233e-314 528.56854 446.50696
-2.5224126e-05 -5.9977037e+21 1.6284194e-314 530.21838 446.66165
-7.6718789e-05 -5.9672278e+21 1.6284161e-314 531.95825 446.77664
-0.00015543363 -5.9158012e+21 1.6284104e-314 533.68353 446.90448
-0.00081002375 -5.9090864e+21 1.6284097e-314 535.42242 447.11594
-0.0032432205 -5.8955846e+21 1.6284082e-314 537.06873 447.29401
-0.0077152541 -5.8442255e+21 1.6284026e-314 538.78876 447.48962
-0.018567514 -5.8349301e+21 1.6284015e-314 540.72552 447.67706
-0.025745016 -5.7948616e+21 1.6283971e-314 542.20239 447.77927
-0.055930011 -5.768448e+21 1.6283942e-314 544.24719 448.00281
-0.10888504 -5.7288253e+21 1.6283899e-314 545.93732 448.27899
-0.18572006 -5.7128871e+21 1.6283881e-314 547.59131 448.35309
-0.2415801 -5.70787e+21 1.6283876e-314 549.52124 448.1861
-0.63152016 -5.6663288e+21 1.628383e-314 551.31427 448.61905
-0.7749604 -5.5645745e+21 1.6283719e-314 553.54834 448.79858
-1.7861612 -5.5750544e+21 1.628373e-314 555.02801 448.99612
-2.3588805 -5.5203762e+21 1.628367e-314 556.87415 449.14859
-4.9966421 -5.5784456e+21 1.6283734e-314 558.69647 449.43927
-5.4321623 -5.4826721e+21 1.6283629e-314 560.56012 449.63629
-7.9153624 -5.5005288e+21 1.6283649e-314 562.49426 449.70557
-10.357763 -5.44445e+21 1.6283587e-314 564.33142 449.8941
-12.823362 -5.3748694e+21 1.6283511e-314 566.31146 450.11548
-21.288967 -5.4136049e+21 1.6283553e-314 568.10474 450.20215
-24.727688 -5.3294911e+21 1.6283461e-314 570.13879 450.40372
-46.705956 -5.3927982e+21 1.628353e-314 571.94391 450.5278
-55.598107 -5.3150256e+21 1.6283445e-314 573.94989 450.75989
-76.666916 -5.2728944e+21 1.6283399e-314 575.90375 450.98465
-120.28679 -5.2956196e+21 1.6283424e-314 577.82013 451.08304
-157.1329 -5.2281061e+21 1.628335e-314 579.83508 451.32529
-221.80869 -5.2093621e+21 1.6283329e-314 581.88409 451.45132
-332.53388 -5.1964503e+21 1.6283315e-314 583.77924 451.63281
-457.40058 -5.1526933e+21 1.6283267e-314 585.80365 451.87649
-606.6283 -5.1499641e+21 1.6283264e-314 587.81787 451.99594
-743.83386 -5.1329225e+21 1.6283245e-314 589.77057 452.15958
-852.38806 -5.0917461e+21 1.62832e-314 591.89001 452.31451
-998.96375 -5.0645939e+21 1.628317e-314 593.9491 452.54105
-1281.8845 -5.0457058e+21 1.628315e-314 596.00928 452.75024
-1599.5095 -5.0427514e+21 1.6283146e-314 597.9798 452.91177
-1797.7761 -4.9995124e+21 1.6283099e-314 600.18359 453.02759
-2357.0444 -4.9964905e+21 1.6283096e-314 602.17011 453.33688
-2964.646 -4.9792237e+21 1.6283077e-314 604.35193 453.50476
-3520.5542 -4.9503736e+21 1.6283045e-314 606.52094 453.6907
-4115.0889 -4.9192357e+21 1.6283011e-314 608.64392 453.92361
-5706.6319 -4.9350974e+21 1.6283028e-314 610.901 454.06406
-6934.5303 -4.9109716e+21 1.6283002e-314 613.06964 454.27533
-8117.7022 -4.8825629e+21 1.6282971e-314 615.29193 454.47867
-10757.576 -4.873263e+21 1.628296e-314 617.39246 454.68112
-12979.412 -4.8415351e+21 1.6282926e-314 619.59119 454.87534
-15253.834 -4.8216878e+21 1.6282904e-314 621.90527 454.99414
-20187.387 -4.8126851e+21 1.6282894e-314 624.15008 455.23315
-24692.012 -4.7712159e+21 1.6282848e-314 626.52069 455.44992
-30264.871 -4.7629518e+21 1.6282839e-314 628.78711 455.62674
-38558.117 -4.7513686e+21 1.6282827e-314 631.12701 455.78699
-50988.336 -4.7348403e+21 1.6282809e-314 633.49512 456.05533
-61398.086 -4.714068e+21 1.6282777e-314 635.94488 456.26504
-81618.609 -4.7122599e+21 1.6282773e-314 638.30524 456.45151
-105966.55 -4.7051757e+21 1.6282757e-314 640.75293 456.67566
-132340.78 -4.7054707e+21 1.6282758e-314 643.17224 456.88019
-149550.53 -4.6818583e+21 1.6282706e-314 645.85455 457.04117
-180935.78 -4.6955087e+21 1.6282736e-314 648.27667 457.23419
-206874.91 -4.6893478e+21 1.6282722e-314 650.87067 457.45868
-233035.53 -4.6769156e+21 1.6282695e-314 653.54797 457.7395
-263740.56 -4.6737788e+21 1.6282688e-314 656.13251 458.03885
-324636.56 -4.6809373e+21 1.6282704e-314 658.82019 458.21741
-376868.81 -4.67057e+21 1.6282681e-314 661.54187 458.46371
-436637.56 -4.6678026e+21 1.6282675e-314 664.38727 458.70078
-490146.31 -4.6685772e+21 1.6282677e-314 667.14429 458.83261
-589352.13 -4.6693158e+21 1.6282678e-314 670.01733 459.11633
-724356.63 -4.6799037e+21 1.6282702e-314 672.84607 459.31015
-807456.13 -4.6488402e+21 1.6282634e-314 676.05896 459.53522
-978059.63 -4.667359e+21 1.6282674e-314 679.0144 459.85055
-1190553.3 -4.6629702e+21 1.6282665e-314 682.37122 460.1391
-1913441.3 -4.6692054e+21 1.6282678e-314 691.11682 460.63855
-2658350.5 -4.7021132e+21 1.628275e-314 694.92981 461.01181
-3416890.5 -4.7050293e+21 1.6282757e-314 699.26977 461.32257
-4764309 -4.7798493e+21 1.6282858e-314 703.92322 461.58255
-8960714.1 -5.0462958e+21 1.628315e-314 709.75073 462.08026
-14552562 -5.1332153e+21 1.6283246e-314 718.21906 462.08887
-1.0217895e+15 -2.6398046e+24 1.6329896e-314 780.72217 438.81757
-1.3308142e+15 -2.5155128e+24 1.632963e-314 815.00024 441.93182
-1.4032939e+15 -2.5377065e+24 1.6329678e-314 817.26941 442.48779
-1.5044844e+15 -2.39698e+24 1.6329331e-314 831.4422 444.00183
-1.8110098e+15 -2.3275603e+24 1.6329034e-314 854.57929 446.38528
-1.8552017e+15 -2.2791099e+24 1.6328826e-314 861.76068 446.61331
-1.8990416e+15 -2.2444474e+24 1.6328678e-314 866.21228 447.17148
-2.1017039e+15 -2.1644507e+24 1.6328335e-314 882.64935 449.14273
-2.4641736e+15 -2.1731392e+24 1.6328372e-314 901.11645 450.01779
-2.3168219e+15 -1.9934068e+24 1.6327602e-314 906.80664 450.80582
-2.6042067e+15 -2.0900262e+24 1.6328016e-314 908.45221 451.41312
-2.6112441e+15 -2.0631078e+24 1.6327901e-314 910.92657 451.46457
-2.6947017e+15 -1.9675271e+24 1.6327491e-314 920.40222 452.08948
-2.7998318e+15 -1.956383e+24 1.6327443e-314 922.89557 452.80911
-2.9577405e+15 -1.9099145e+24 1.6327244e-314 932.27478 453.23318
-3.2745395e+15 -1.9196429e+24 1.6327286e-314 941.77368 454.07944
-3.1875642e+15 -1.7866614e+24 1.6326716e-314 946.73071 454.80984
-3.2341475e+15 -1.7942165e+24 1.6326748e-314 949.08173 454.59433
-3.4293516e+15 -1.8391735e+24 1.6326941e-314 953.49213 454.63873
-3.4361054e+15 -1.6619903e+24 1.6326182e-314 963.88458 456.03116
-3.7987875e+15 -1.818112e+24 1.6326851e-314 965.45966 456.06693
-3.6777532e+15 -1.7010916e+24 1.6326349e-314 968.47266 456.6091
820.21424 -8.8330417e+21 1.6287304e-314 439.34732 435.06976
786.08435 -8.7799127e+21 1.6287246e-314 440.11868 435.25842
786.97498 -8.7289995e+21 1.628719e-314 440.92944 435.31381
802.88807 -8.6581669e+21 1.6287113e-314 441.80435 435.38956
803.81971 -8.6028267e+21 1.6287052e-314 442.56308 435.47409
759.3783 -8.5556019e+21 1.6287e-314 443.4913 435.6434
708.91541 -8.4884533e+21 1.6286926e-314 444.81982 435.84033
674.65271 -8.4397558e+21 1.6286873e-314 445.91186 435.95276
641.56726 -8.3851542e+21 1.6286813e-314 446.97388 436.08914
596.29627 -8.3357137e+21 1.6286759e-314 448.03116 436.25003
556.26795 -8.2781622e+21 1.6286696e-314 449.10202 436.42117
527.93396 -8.2257718e+21 1.6286638e-314 450.19669 436.52957
469.10492 -8.1874056e+21 1.6286596e-314 451.24298 436.6911
440.4328 -8.1423922e+21 1.6286547e-314 452.31079 436.77322
430.77655 -8.0855793e+21 1.6286484e-314 453.4321 436.83151
394.89545 -8.0250734e+21 1.6286418e-314 454.61804 436.98618
343.38837 -7.9800644e+21 1.6286369e-314 455.7767 437.12799
287.55976 -7.927674e+21 1.6286311e-314 456.96106 437.31543
273.63349 -7.8760223e+21 1.6286255e-314 458.11124 437.36182
244.16782 -7.8169936e+21 1.628619e-314 459.26224 437.535
210.8519 -7.7697688e+21 1.6286138e-314 460.42276 437.74188
171.81198 -7.7402567e+21 1.6286106e-314 461.854 437.85831
137.28781 -7.6967204e+21 1.6286058e-314 463.21207 438.01758
122.59587 -7.6593856e+21 1.6286017e-314 464.48105 438.06992
109.5399 -7.6086931e+21 1.6285961e-314 465.77029 438.21866
93.788193 -7.5601398e+21 1.6285908e-314 467.0972 438.38818
81.241623 -7.5149822e+21 1.6285858e-314 468.4234 438.49902
60.448021 -7.4819258e+21 1.6285822e-314 469.71332 438.72522
57.864983 -7.4364754e+21 1.6285772e-314 471.06131 438.73282
48.652825 -7.3941191e+21 1.6285726e-314 472.44211 438.90207
39.779869 -7.3457144e+21 1.6285673e-314 473.79242 439.09555
32.540184 -7.2998227e+21 1.6285622e-314 475.16367 439.22916
27.262737 -7.2647712e+21 1.6285584e-314 476.51971 439.39371
21.274258 -7.2362904e+21 1.6285553e-314 477.89313 439.57925
17.941128 -7.1923848e+21 1.6285505e-314 479.30576 439.68137
14.451529 -7.1433181e+21 1.6285451e-314 480.72089 439.89969
13.612166 -7.08746e+21 1.6285389e-314 482.13016 439.96625
11.463369 -7.061267e+21 1.6285361e-314 483.48938 440.0524
10.826887 -7.0083633e+21 1.6285303e-314 484.77859 440.10742
8.6809674 -6.953023e+21 1.6285242e-314 485.97708 440.35834
7.0300818 -6.9223265e+21 1.6285208e-314 487.22226 440.54022
6.0612822 -6.8483188e+21 1.6285127e-314 488.82169 440.77487
5.7180815 -6.8264043e+21 1.6285103e-314 490.56863 440.60483
2.9993606 -6.8337092e+21 1.6285111e-314 492.55984 440.99664
2.5999217 -6.7719468e+21 1.6285043e-314 494.01819 441.16736
1.7256811 -6.7535766e+21 1.6285023e-314 495.45523 441.35239
1.0017603 -6.7193402e+21 1.6284986e-314 497.01154 441.52066
0.78484047 -6.6800824e+21 1.6284943e-314 498.51547 441.59393
0.42372006 -6.6569158e+21 1.6284917e-314 500.04584 441.7829
0.28982014 -6.6040076e+21 1.6284859e-314 501.62036 441.95184
0.19579014 -6.5730183e+21 1.6284825e-314 503.19308 442.04495
0.11406504 -6.537674e+21 1.6284786e-314 504.74899 442.22726
0.061557524 -6.5033656e+21 1.6284749e-314 506.32065 442.452
0.039490037 -6.4796046e+21 1.6284723e-314 507.86212 442.56815
0.023210015 -6.444409e+21 1.6284684e-314 509.47339 442.75568
0.013181878 -6.4089161e+21 1.6284645e-314 511.09363 442.95196
0.0085531306 -6.3793995e+21 1.6284613e-314 512.63806 443.04483
0.0045023142 -6.3386735e+21 1.6284568e-314 514.24243 443.14551
0.001146673 -6.3215508e+21 1.6284549e-314 515.88544 443.33578
0.00054717239 -6.2606801e+21 1.6284482e-314 517.51068 443.53204
0.00012491606 -6.2460705e+21 1.6284466e-314 519.16876 443.73377
7.1972711e-05 -6.1982557e+21 1.6284414e-314 520.80267 443.82095
2.980958e-05 -6.1381192e+21 1.6284348e-314 522.49951 444.03363
1.0603033e-06 -6.1678564e+21 1.6284381e-314 523.97961 444.13162
3.8050092e-07 -6.0976813e+21 1.6284304e-314 525.61182 444.3074
7.7200025e-09 -6.0732583e+21 1.6284277e-314 527.23584 444.49524
9.6805439e-11 -6.0238223e+21 1.6284223e-314 528.92554 444.6817
3.7858653e-14 -5.9864109e+21 1.6284182e-314 530.46027 444.78897
-1.617206e-11 -5.9720241e+21 1.6284166e-314 532.1001 444.9801
-1.5202175e-09 -5.9211875e+21 1.628411e-314 533.79864 445.11008
-5.5657972e-07 -5.9320322e+21 1.6284122e-314 535.46472 445.31625
-5.1231719e-06 -5.8822269e+21 1.6284067e-314 537.20703 445.55917
-1.0496098e-05 -5.8200232e+21 1.6283999e-314 538.961 445.62274
-0.00012753913 -5.822901e+21 1.6284002e-314 540.78742 445.87491
-0.00021627543 -5.7750908e+21 1.628395e-314 542.31097 445.96237
-0.0023081261 -5.7787792e+21 1.6283954e-314 544.31476 446.29718
-0.0053863777 -5.7376028e+21 1.6283909e-314 546.06226 446.41162
-0.015211878 -5.679682e+21 1.6283845e-314 549.37518 446.58527
-0.04175251 -5.6441891e+21 1.6283806e-314 551.56982 446.93295
-0.060942523 -5.6093628e+21 1.6283768e-314 553.34119 447.01947
-0.25116009 -5.5585217e+21 1.6283712e-314 556.87598 447.46814
-0.27456016 -5.4353752e+21 1.6283577e-314 559.08252 447.67407
-0.82376039 -5.4967638e+21 1.6283644e-314 560.61114 447.74786
-1.5940807 -5.4824514e+21 1.6283629e-314 562.604 447.83563
-2.2992816 -5.4391358e+21 1.6283581e-314 564.47034 447.98627
-3.1059222 -5.3826156e+21 1.6283519e-314 566.36792 448.242
-5.7262411 -5.438843e+21 1.6283581e-314 568.22925 448.36316
-5.5723219 -5.3203398e+21 1.6283451e-314 570.21674 448.51975
-10.526724 -5.3717709e+21 1.6283507e-314 572.2052 448.67667
-12.594885 -5.3209298e+21 1.6283451e-314 574.06043 448.78503
-16.853771 -5.2797579e+21 1.6283406e-314 576.01941 449.01965
-26.760326 -5.2763622e+21 1.6283403e-314 577.91528 449.20084
-33.442589 -5.2211705e+21 1.6283342e-314 579.98248 449.38998
-52.922905 -5.2083308e+21 1.6283328e-314 581.95648 449.5939
-79.311386 -5.2012466e+21 1.628332e-314 583.83875 449.76581
-107.08482 -5.1714373e+21 1.6283287e-314 585.84155 449.89435
-151.70566 -5.1401508e+21 1.6283253e-314 587.85083 450.09839
-221.94699 -5.1287882e+21 1.6283241e-314 589.91571 450.22192
-336.55829 -5.084072e+21 1.6283192e-314 592.00659 450.53912
-470.11859 -5.0841485e+21 1.6283192e-314 593.98694 450.59683
-535.49109 -5.0145679e+21 1.6283115e-314 596.13648 450.74164
-754.77039 -5.0203956e+21 1.6283122e-314 598.17285 451.05512
-920.99597 -5.0178871e+21 1.6283119e-314 600.17096 451.23489
-1089.946 -4.98461e+21 1.6283083e-314 602.36389 451.42856
-1342.2595 -4.9572326e+21 1.6283053e-314 604.55182 451.55878
-1680.241 -4.9433615e+21 1.6283037e-314 606.61145 451.79376
-1954.366 -4.9109716e+21 1.6283002e-314 608.80102 451.9874
-2627.7085 -4.8933355e+21 1.6282982e-314 611.06604 452.2785
-3230.0249 -4.8924483e+21 1.6282981e-314 613.19843 452.36578
-3780.3628 -4.8494299e+21 1.6282934e-314 615.4928 452.59524
-4839.0186 -4.8419765e+21 1.6282926e-314 617.5921 452.79669
-6148.1826 -4.8376981e+21 1.6282921e-314 619.77643 452.9353
-7520.4209 -4.8146036e+21 1.6282896e-314 622.06207 453.17899
-9636.7481 -4.812613e+21 1.6282894e-314 624.3382 453.32223
-12568.334 -4.8168194e+21 1.6282898e-314 626.51666 453.48355
-15338.709 -4.7823578e+21 1.6282861e-314 628.83008 453.78644
-19429.137 -4.761254e+21 1.6282838e-314 631.19434 453.96411
-25550.855 -4.7554263e+21 1.6282831e-314 633.5954 454.15924
-30033.199 -4.7187158e+21 1.6282787e-314 636.02136 454.35556
-39323.586 -4.714363e+21 1.6282777e-314 638.39563 454.55875
-53168.711 -4.7116316e+21 1.6282771e-314 640.79926 454.83612
-63022.695 -4.7024465e+21 1.6282751e-314 643.30688 454.9455
-89367.516 -4.7079792e+21 1.6282763e-314 645.78162 455.14929
-115453.45 -4.6954727e+21 1.6282736e-314 648.37116 455.44833
-134468.16 -4.6766949e+21 1.6282695e-314 651.00995 455.61386
-160107.16 -4.6756231e+21 1.6282692e-314 653.63025 455.7702
-189988.91 -4.676767e+21 1.6282695e-314 656.30524 456.004
-218435.41 -4.660572e+21 1.6282659e-314 659.05536 456.3718
-240598.41 -4.6553704e+21 1.6282648e-314 661.75903 456.45969
-294849.06 -4.6674716e+21 1.6282674e-314 664.49213 456.77487
-363347.31 -4.6844051e+21 1.6282712e-314 667.15405 456.95227
-402045.06 -4.6602027e+21 1.6282658e-314 670.10394 457.11883
-472645.81 -4.6706804e+21 1.6282681e-314 673.14532 457.31326
-533043.63 -4.6607184e+21 1.628266e-314 676.08948 457.55551
-661494.13 -4.647953e+21 1.6282632e-314 679.32294 457.87772
-811807.63 -4.6559604e+21 1.6282649e-314 682.53174 458.12115
-1451124.3 -4.70525e+21 1.6282757e-314 691.08478 458.69858
-1865522.3 -4.716169e+21 1.6282781e-314 695.15356 459.09921
-2394948.5 -4.7360203e+21 1.628281e-314 699.29388 459.34457
-3400532.5 -4.7766788e+21 1.6282854e-314 704.0614 459.77856
-2.1508909e+15 -2.0813366e+24 1.6327979e-314 904.10974 447.02118
-2.1934648e+15 -2.096071e+24 1.6328042e-314 906.27185 447.1069
-2.3608711e+15 -1.9831112e+24 1.6327558e-314 918.41351 448.88742
-2.3095033e+15 -1.9157702e+24 1.6327269e-314 920.91797 449.14947
-2.4242047e+15 -1.9536437e+24 1.6327431e-314 923.04321 449.0769
-2.77281e+15 -1.9536437e+24 1.6327431e-314 934.63098 449.98782
-3.1985422e+15 -1.7662605e+24 1.6326628e-314 958.53821 452.69369
1606.3699 -8.9828269e+21 1.6287469e-314 437.9245 433.05414
1601.905 -8.9208484e+21 1.6287401e-314 438.68649 433.17148
1632.7273 -8.8544383e+21 1.6287328e-314 439.5032 433.23969
1642.0261 -8.790244e+21 1.6287257e-314 440.32187 433.33341
1620.3377 -8.7289995e+21 1.628719e-314 441.13342 433.46796
1623.2459 -8.6072537e+21 1.6287057e-314 442.785 433.65622
1550.5418 -8.560029e+21 1.6287005e-314 443.70258 433.79828
1441.7107 -8.4855034e+21 1.6286923e-314 444.97055 434.04993
1325.6707 -8.4382787e+21 1.6286871e-314 446.07736 434.23074
1269.5154 -8.3799886e+21 1.6286807e-314 447.14926 434.36642
1207.5222 -8.3261255e+21 1.6286748e-314 448.2164 434.49307
1138.115 -8.281112e+21 1.6286699e-314 449.27387 434.59534
1139.365 -8.2250332e+21 1.6286637e-314 450.30637 434.63095
1133.4461 -8.169693e+21 1.6286577e-314 451.26981 434.68933
1116.5496 -8.1187843e+21 1.6286521e-314 452.22028 434.75174
1063.9363 -8.0560627e+21 1.6286452e-314 453.24878 434.91092
1000.1923 -7.9940841e+21 1.6286384e-314 454.40329 435.09976
945.82801 -7.9571906e+21 1.6286344e-314 455.55005 435.22012
906.72156 -7.9055389e+21 1.6286287e-314 456.72702 435.34674
837.54041 -7.8575755e+21 1.6286234e-314 457.91354 435.55728
761.16004 -7.8133051e+21 1.6286186e-314 459.16403 435.76581
723.55896 -7.7660804e+21 1.6286134e-314 460.46771 435.84369
626.37098 -7.7432066e+21 1.6286109e-314 461.93945 435.98679
561.41883 -7.6908162e+21 1.6286051e-314 463.37347 436.15759
508.09882 -7.6503109e+21 1.6286007e-314 464.66299 436.2644
444.74384 -7.5957813e+21 1.6285947e-314 465.9928 436.45914
399.73895 -7.5620583e+21 1.628591e-314 467.20142 436.52423
340.34711 -7.5194092e+21 1.6285863e-314 468.5083 436.6583
253.61923 -7.4764674e+21 1.6285816e-314 469.84653 436.88998
222.5051 -7.4375068e+21 1.6285773e-314 471.2171 437.0058
190.45383 -7.3876249e+21 1.6285719e-314 472.60907 437.17282
160.13828 -7.345791e+21 1.6285673e-314 473.9451 437.30356
126.36162 -7.3090461e+21 1.6285633e-314 475.2923 437.44458
114.20421 -7.2592363e+21 1.6285578e-314 476.67697 437.56073
88.043564 -7.2279498e+21 1.6285544e-314 478.02432 437.79379
76.889634 -7.1899529e+21 1.6285502e-314 479.3895 437.84814
62.378258 -7.1337255e+21 1.628544e-314 480.79813 438.04373
58.113304 -7.091887e+21 1.6285394e-314 482.19 438.07443
59.996178 -7.0240043e+21 1.628532e-314 483.40518 438.08832
52.789788 -6.9793646e+21 1.6285271e-314 484.50592 438.27057
41.742089 -6.9464568e+21 1.6285235e-314 485.73569 438.48035
30.210568 -6.9203359e+21 1.6285206e-314 487.21811 438.67261
25.169933 -6.8655091e+21 1.6285146e-314 489.01752 438.84338
19.11105 -6.8295749e+21 1.6285107e-314 490.88959 438.97052
12.224966 -6.8387982e+21 1.6285117e-314 492.60764 439.17615
9.5987225 -6.7904701e+21 1.6285064e-314 494.10559 439.38959
7.8376036 -6.7478931e+21 1.6285017e-314 495.62588 439.49527
6.0894423 -6.7202995e+21 1.6284987e-314 497.1355 439.7081
5.0971213 -6.6784611e+21 1.6284941e-314 498.66394 439.81589
3.9236007 -6.6460667e+21 1.6284905e-314 500.21622 439.93292
3.2357612 -6.6093939e+21 1.6284865e-314 501.77994 440.09509
2.282722 -6.586376e+21 1.628484e-314 503.27435 440.32565
1.9786403 -6.5225465e+21 1.628477e-314 504.91183 440.42975
1.0578411 -6.5002626e+21 1.6284745e-314 506.43375 440.63763
0.81012047 -6.4708226e+21 1.6284713e-314 508.022 440.65182
0.45566029 -6.4348884e+21 1.6284674e-314 509.56064 440.86572
0.24529013 -6.4025706e+21 1.6284638e-314 511.21765 441.0668
0.17516014 -6.3636865e+21 1.6284595e-314 512.81049 441.17929
0.10539006 -6.3278964e+21 1.6284556e-314 514.39477 441.3475
0.058375024 -6.3076797e+21 1.6284534e-314 516.00397 441.48355
0.044427537 -6.2411976e+21 1.6284461e-314 517.69397 441.65637
0.023242515 -6.2315328e+21 1.628445e-314 519.35101 441.78506
0.01345188 -6.1919102e+21 1.6284407e-314 520.9729 441.987
0.0073671295 -6.16601e+21 1.6284379e-314 522.54138 442.14133
0.0017036253 -6.1573766e+21 1.6284369e-314 524.21271 442.32211
0.0012527665 -6.0810811e+21 1.6284285e-314 525.82501 442.46396
0.00017972276 -6.0959114e+21 1.6284302e-314 527.42456 442.69617
9.6171906e-05 -6.0292086e+21 1.6284229e-314 529.10175 442.87677
4.26509e-05 -5.984641e+21 1.628418e-314 530.67743 443.03525
6.5835002e-06 -5.9765255e+21 1.6284171e-314 532.21582 443.10593
1.4083869e-06 -5.9153576e+21 1.6284104e-314 533.91669 443.30756
2.0838751e-08 -5.9042878e+21 1.6284091e-314 535.67895 443.53686
4.6747972e-10 -5.8727806e+21 1.6284057e-314 537.33594 443.6553
1.0729306e-12 -5.8179582e+21 1.6283997e-314 539.0838 443.80206
-2.5853536e-10 -5.8099171e+21 1.6283988e-314 541.00732 444.08408
-1.3849741e-08 -5.7839448e+21 1.6283959e-314 542.42883 444.21832
-4.3778249e-07 -5.7419578e+21 1.6283913e-314 544.59552 444.36404
-4.2468301e-06 -5.7298566e+21 1.62839e-314 546.21106 444.46143
-0.0001123321 -5.7451328e+21 1.6283917e-314 548.23248 444.70834
-4.9758812e-05 -5.5955638e+21 1.6283753e-314 550.03491 444.8064
-0.00030797668 -5.6182934e+21 1.6283778e-314 551.48602 444.98721
-0.0017306886 -5.6100293e+21 1.6283769e-314 553.229 445.23373
-0.0036876272 -5.5504062e+21 1.6283703e-314 555.41095 445.33383
-0.015140003 -5.5419935e+21 1.6283694e-314 557.22913 445.67181
-0.01047313 -5.3426236e+21 1.6283475e-314 559.07086 446.01865
-0.18385014 -5.6666936e+21 1.6283831e-314 560.61713 445.93955
-0.044172518 -5.3814356e+21 1.6283518e-314 562.95196 445.96405
-0.43290013 -5.459429e+21 1.6283603e-314 566.43555 446.34592
-0.74228037 -5.420617e+21 1.6283561e-314 568.42816 446.46939
-0.87528026 -5.3220377e+21 1.6283453e-314 570.38617 446.68201
-2.5120807 -5.3695551e+21 1.6283505e-314 572.31268 446.83639
-3.3924823 -5.3390793e+21 1.6283471e-314 574.15576 447.00565
-4.1459227 -5.2869141e+21 1.6283414e-314 576.15399 447.16339
-6.7857619 -5.2850676e+21 1.6283412e-314 578.13409 447.35657
-7.8560019 -5.2133478e+21 1.6283333e-314 580.11749 447.552
-12.845129 -5.2265568e+21 1.6283348e-314 581.96527 447.67926
-17.742733 -5.1862676e+21 1.6283304e-314 583.99536 447.91666
-26.272015 -5.1557963e+21 1.628327e-314 585.98077 448.14014
-37.007378 -5.1343952e+21 1.6283247e-314 588.00153 448.29385
-55.778588 -5.1149171e+21 1.6283225e-314 590.08575 448.48898
-74.675217 -5.0879856e+21 1.6283196e-314 592.08032 448.59509
-106.76994 -5.0505021e+21 1.6283155e-314 594.24841 448.78912
-151.634 -5.0292496e+21 1.6283132e-314 596.25281 448.94714
-251.82211 -5.0289569e+21 1.6283131e-314 598.2663 449.23184
-391.94647 -5.0291776e+21 1.6283131e-314 600.3255 449.30978
-516.10681 -4.9891856e+21 1.6283088e-314 602.46289 449.50803
-680.53015 -4.9688924e+21 1.6283065e-314 604.59412 449.74615
-831.78552 -4.9412223e+21 1.6283035e-314 606.79828 449.96161
-972.01209 -4.9156914e+21 1.6283007e-314 608.90576 450.14734
-1316.947 -4.9206363e+21 1.6283012e-314 611.04346 450.37036
-1556.6238 -4.8824143e+21 1.628297e-314 613.31348 450.51804
-1887.5603 -4.8692818e+21 1.6282956e-314 615.52618 450.70474
-2438.7593 -4.8604998e+21 1.6282946e-314 617.67944 450.92349
-3026.1265 -4.8371846e+21 1.6282921e-314 619.82513 451.11218
-3730.146 -4.8197692e+21 1.6282902e-314 622.14069 451.33578
-4509.6983 -4.8052316e+21 1.6282886e-314 624.35712 451.45059
-5770.4483 -4.7763095e+21 1.6282854e-314 626.75714 451.65301
-7171.2803 -4.7609612e+21 1.6282837e-314 629.11731 451.85245
-9559.7402 -4.7597047e+21 1.6282836e-314 631.34753 452.13525
-12346.498 -4.745613e+21 1.628282e-314 633.75104 452.315
-14485.428 -4.7114109e+21 1.6282771e-314 636.21216 452.50723
-18683.34 -4.710267e+21 1.6282768e-314 638.52307 452.69925
-25157.637 -4.7034058e+21 1.6282753e-314 640.95587 452.96756
-29647.832 -4.6910456e+21 1.6282726e-314 643.47552 453.06143
-43552.602 -4.6992737e+21 1.6282744e-314 645.9505 453.37811
-53434.133 -4.6869879e+21 1.6282717e-314 648.5235 453.50809
-64549.695 -4.6776542e+21 1.6282697e-314 651.15259 453.66086
-91848.703 -4.665553e+21 1.628267e-314 653.83929 453.99439
-109589.33 -4.6465884e+21 1.6282629e-314 656.57636 454.10706
-149090.53 -4.6676562e+21 1.6282675e-314 659.1944 454.39737
-178737.66 -4.6691311e+21 1.6282678e-314 661.90582 454.61334
-205228.66 -4.6562914e+21 1.628265e-314 664.70758 454.88019
-237900.91 -4.665848e+21 1.6282671e-314 667.40906 455.08997
-261843.91 -4.6600541e+21 1.6282658e-314 670.26044 455.19949
-334681.81 -4.6649991e+21 1.6282669e-314 673.3089 455.48862
-394112.56 -4.6541522e+21 1.6282645e-314 676.38489 455.75989
-458489.81 -4.6653684e+21 1.628267e-314 679.33221 455.88147
-547514.13 -4.6596128e+21 1.6282657e-314 682.82111 456.24881
-811073.63 -4.6896811e+21 1.6282723e-314 687.28742 456.74103
-970562.13 -4.6863979e+21 1.6282716e-314 691.50116 456.9548
-1255775.3 -4.7092717e+21 1.6282766e-314 695.09228 457.15579
-2461846.5 -4.8095145e+21 1.628289e-314 704.40533 457.96295
-2.8275579e+15 -1.7429323e+24 1.6326528e-314 956.53607 449.89923
-2.9494362e+15 -1.7247034e+24 1.632645e-314 961.40442 450.40594
3093.7515 -8.7289995e+21 1.628719e-314 441.36154 431.82291
3062.7437 -8.6736593e+21 1.628713e-314 442.19684 431.91864
3089.0816 -8.6109422e+21 1.6287061e-314 443.0614 431.9884
3054.7573 -8.5563405e+21 1.6287001e-314 443.90262 432.08392
3088.1812 -8.4832876e+21 1.6286921e-314 445.05273 432.13806
2811.7827 -8.4375401e+21 1.6286871e-314 446.16022 432.35129
2597.6441 -8.3851542e+21 1.6286813e-314 447.22244 432.54703
2482.5464 -8.3275982e+21 1.628675e-314 448.3186 432.67267
2486.0679 -8.2597154e+21 1.6286675e-314 449.41379 432.74527
2475.5425 -8.1925713e+21 1.6286602e-314 450.3161 432.8645
2374.9859 -8.1468192e+21 1.6286552e-314 451.11908 432.98721
2250.4663 -8.091479e+21 1.6286491e-314 452.01471 433.15387
2039.8084 -8.0376159e+21 1.6286432e-314 453.05661 433.36584
1944.6795 -7.9852255e+21 1.6286374e-314 454.25745 433.51746
1862.5955 -7.9446436e+21 1.628633e-314 455.42264 433.60388
1719.9519 -7.9062774e+21 1.6286288e-314 456.62469 433.77893
1638.8308 -7.8568369e+21 1.6286234e-314 457.95282 433.86942
1545.7283 -7.8184708e+21 1.6286191e-314 459.27472 433.93524
1374.3933 -7.7845271e+21 1.6286154e-314 460.54367 434.12643
1220.9158 -7.7417294e+21 1.6286107e-314 462.07935 434.27295
1102.1726 -7.6900776e+21 1.6286051e-314 463.495 434.42285
1013.7094 -7.6421188e+21 1.6285998e-314 464.78934 434.54813
943.85193 -7.606036e+21 1.6285958e-314 466.04111 434.69888
895.78553 -7.5491465e+21 1.6285896e-314 467.35111 434.85501
830.70008 -7.5159415e+21 1.628586e-314 468.60126 434.978
779.03894 -7.4691626e+21 1.6285808e-314 469.91898 435.1015
729.69275 -7.4269548e+21 1.6285762e-314 471.24439 435.19556
672.87098 -7.3736818e+21 1.6285703e-314 472.65033 435.34885
581.84754 -7.3463809e+21 1.6285674e-314 474.00165 435.51596
488.35614 -7.3139865e+21 1.6285638e-314 475.37973 435.70895
434.83148 -7.2573177e+21 1.6285576e-314 476.83194 435.85794
352.97309 -7.2125294e+21 1.6285527e-314 478.18369 436.07153
288.57367 -7.1782931e+21 1.6285489e-314 479.52753 436.18054
251.9758 -7.1278212e+21 1.6285434e-314 480.91186 436.27246
246.79941 -7.0665813e+21 1.6285367e-314 482.16965 436.33365
231.09641 -7.0211265e+21 1.6285317e-314 483.20303 436.44153
202.34763 -6.9676327e+21 1.6285258e-314 484.42615 436.63785
163.58408 -6.9412146e+21 1.6285229e-314 485.87274 436.73819
108.94084 -6.9201873e+21 1.6285206e-314 487.50851 437.01761
84.830796 -6.8897114e+21 1.6285173e-314 489.26874 437.13983
61.670433 -6.8427839e+21 1.6285121e-314 491.09677 437.34186
45.992974 -6.8423426e+21 1.6285121e-314 492.73496 437.45252
40.05761 -6.7795489e+21 1.6285052e-314 494.26047 437.59918
31.184017 -6.7419889e+21 1.628501e-314 495.73972 437.74439
24.823696 -6.7144674e+21 1.628498e-314 497.27295 437.91711
19.634579 -6.6726334e+21 1.6284934e-314 498.8298 438.08627
14.762564 -6.6371405e+21 1.6284895e-314 500.36337 438.28192
12.284803 -6.5897672e+21 1.6284843e-314 501.91806 438.46445
9.8067227 -6.5601065e+21 1.6284811e-314 503.50299 438.56015
7.5276823 -6.5340577e+21 1.6284782e-314 504.98315 438.69028
6.1430426 -6.5043969e+21 1.628475e-314 506.54205 438.82364
4.4862433 -6.4796046e+21 1.6284723e-314 508.09287 438.99634
3.7828021 -6.4192474e+21 1.6284656e-314 509.7749 439.14477
2.6249614 -6.4108347e+21 1.6284647e-314 511.35092 439.38248
2.1980014 -6.3758597e+21 1.6284609e-314 512.90631 439.42471
1.5327203 -6.3195602e+21 1.6284547e-314 514.57733 439.6485
0.76544035 -6.3139532e+21 1.6284541e-314 516.16394 439.80206
0.48856014 -6.2603829e+21 1.6284482e-314 517.77362 439.98691
0.2685203 -6.2459218e+21 1.6284466e-314 519.40692 440.11896
0.19745013 -6.1832002e+21 1.6284397e-314 521.11487 440.2915
0.14354012 -6.1332463e+21 1.6284343e-314 522.71472 440.39801
0.058820032 -6.1508103e+21 1.6284362e-314 524.34851 440.55048
0.048432522 -6.0786446e+21 1.6284283e-314 525.95599 440.71701
0.01657876 -6.0993792e+21 1.6284305e-314 527.57452 440.95572
0.013496256 -6.0323837e+21 1.6284232e-314 529.24029 441.08774
0.010753756 -5.9744584e+21 1.6284168e-314 530.78375 441.2095
0.003150688 -5.9709906e+21 1.6284165e-314 532.34497 441.38852
0.0014224069 -5.9018513e+21 1.6284089e-314 534.04193 441.63464
0.00034585566 -5.8935152e+21 1.628408e-314 535.88733 441.75738
9.8355508e-05 -5.8737399e+21 1.6284058e-314 537.41779 441.94589
4.7743197e-05 -5.8369184e+21 1.6284018e-314 539.05566 442.02612
6.3571815e-06 -5.8136753e+21 1.6283992e-314 541.17419 442.09726
1.2012211e-05 -5.7552366e+21 1.6283928e-314 542.77026 441.95697
2.1819309e-07 -5.7435813e+21 1.6283915e-314 544.71716 442.2598
2.4956477e-09 -5.7398163e+21 1.6283911e-314 546.36157 442.35425
-5.1113991e-10 -5.6573261e+21 1.6283821e-314 550.0863 443.02768
-2.8675813e-09 -5.6028686e+21 1.6283761e-314 551.59393 443.12427
-2.430192e-07 -5.5760091e+21 1.6283731e-314 553.41223 443.30557
-6.5348679e-05 -5.5848677e+21 1.6283741e-314 557.18182 443.5159
-0.0081837532 -5.4093264e+21 1.6283548e-314 564.74536 444.41089
-0.027575012 -5.4502777e+21 1.6283593e-314 566.56964 444.60297
-0.050990008 -5.410655e+21 1.628355e-314 568.54236 444.78461
-0.059487514 -5.3101572e+21 1.628344e-314 570.53406 445.0007
-0.21886012 -5.366236e+21 1.6283501e-314 572.41345 445.16232
-0.39142007 -5.3198219e+21 1.628345e-314 574.3269 445.36716
-0.71456039 -5.2860269e+21 1.6283413e-314 576.29681 445.51975
-1.474241 -5.2756236e+21 1.6283402e-314 578.23712 445.64236
-1.9541605 -5.1963782e+21 1.6283315e-314 580.23358 445.84677
-3.2203212 -5.209218e+21 1.6283329e-314 582.05841 445.9743
-4.6992026 -5.1832412e+21 1.62833e-314 584.08685 446.1944
-6.2196837 -5.1611826e+21 1.6283276e-314 586.05322 446.24313
-10.077444 -5.1464243e+21 1.628326e-314 588.0567 446.53586
-12.809927 -5.1008254e+21 1.628321e-314 590.16895 446.63986
-20.739208 -5.0839278e+21 1.6283191e-314 592.18335 446.9324
-28.981136 -5.0618647e+21 1.6283167e-314 594.26251 447.07794
-43.948815 -5.0507949e+21 1.6283155e-314 596.32281 447.21326
-75.374131 -5.0699081e+21 1.6283176e-314 598.41589 447.40247
-103.32677 -5.009623e+21 1.628311e-314 600.47644 447.67679
-144.97287 -4.9775258e+21 1.6283075e-314 602.56183 447.875
-223.94382 -4.9685231e+21 1.6283065e-314 604.69421 448.03229
-311.19379 -4.9353181e+21 1.6283028e-314 606.90472 448.16415
-457.2265 -4.9162093e+21 1.6283008e-314 609.01752 448.33618
-599.45008 -4.8774693e+21 1.6282965e-314 611.31201 448.55878
