# .PCD v0.7 - Point Cloud Data file format
VERSION 0.7
FIELDS x y z p_x p_y
SIZE 8 8 8 8 8
TYPE F F F F F
COUNT 1 1 1 1 1
WIDTH 783
HEIGHT 1
VIEWPOINT 0 0 0 1 0 0 0
POINTS 783
DATA ascii
-2518.7954 -4.7822858e+21 1.6282861e-314 495.08563 438.06769
-2266.7681 -4.8072988e+21 1.6282888e-314 496.66812 438.23813
-1978.3889 -4.8101045e+21 1.6282891e-314 498.24383 438.44193
-1792.8196 -4.8174814e+21 1.6282899e-314 499.81 438.6033
-1607.9465 -4.8283261e+21 1.6282911e-314 501.2641 438.70679
-1515.8274 -4.833861e+21 1.6282917e-314 502.53076 438.94321
-1379.0618 -4.8447822e+21 1.6282929e-314 503.89774 439.10223
-1205.1253 -4.8580633e+21 1.6282944e-314 505.39972 439.22711
-1001.1036 -4.863301e+21 1.6282949e-314 506.97791 439.32959
-938.49622 -4.8879492e+21 1.6282976e-314 508.59393 439.51425
-837.03821 -4.8836663e+21 1.6282972e-314 510.20383 439.72577
-785.82776 -4.9356153e+21 1.6283029e-314 511.92307 439.82752
-679.34241 -4.9327375e+21 1.6283026e-314 513.63074 440.04517
-541.94202 -4.9261713e+21 1.6283018e-314 515.31512 440.16537
-547.09241 -4.9895504e+21 1.6283088e-314 516.92096 440.3649
-428.27789 -4.9810656e+21 1.6283079e-314 518.54724 440.54217
-387.6966 -5.0264439e+21 1.6283128e-314 520.04321 440.64459
-263.86432 -5.0239354e+21 1.6283126e-314 521.68335 440.77344
-196.46976 -5.0141986e+21 1.6283115e-314 523.39294 440.95593
-184.34561 -5.0762537e+21 1.6283183e-314 525.09759 441.09256
-124.12416 -5.0586176e+21 1.6283164e-314 526.78082 441.30627
-119.6877 -5.1213348e+21 1.6283233e-314 528.53125 441.47842
-87.52388 -5.1137372e+21 1.6283224e-314 530.24237 441.64179
-58.935036 -5.1110801e+21 1.6283221e-314 531.84534 441.7179
-55.265297 -5.1425107e+21 1.6283256e-314 533.38519 441.9559
-46.192635 -5.1506307e+21 1.6283265e-314 534.97174 442.18744
-41.011208 -5.1923925e+21 1.628331e-314 536.55347 442.33783
-29.734409 -5.1997694e+21 1.6283319e-314 538.14252 442.44553
-21.805439 -5.2223505e+21 1.6283343e-314 539.76703 442.41174
-11.075846 -5.3114857e+21 1.6283441e-314 545.82526 443.05963
-8.7888051 -5.3233662e+21 1.6283454e-314 547.58051 443.32379
-6.1918421 -5.3302252e+21 1.6283462e-314 549.19391 443.32367
-6.6996813 -5.3814356e+21 1.6283518e-314 551.16162 443.81851
-4.0604792 -5.3815077e+21 1.6283518e-314 553.02332 443.83966
-4.1686411 -5.4672472e+21 1.6283612e-314 554.88086 444.01215
-3.2068811 -5.4702016e+21 1.6283615e-314 556.78094 444.23373
-2.9365602 -5.5272397e+21 1.6283678e-314 558.57965 444.39835
-0.88896001 -5.4366272e+21 1.6283578e-314 560.76099 444.6445
-1.6147206 -5.567673e+21 1.6283722e-314 562.44488 444.8689
-0.53960002 -5.5643538e+21 1.6283719e-314 564.62695 444.91559
-0.36209995 -5.5929067e+21 1.628375e-314 566.63098 445.14221
-0.16906002 -5.5884796e+21 1.6283745e-314 568.53003 445.30102
-0.21201006 -5.6827084e+21 1.6283848e-314 570.39941 445.5683
-0.082149998 -5.6571775e+21 1.628382e-314 572.28149 445.70572
-0.079795018 -5.7368687e+21 1.6283908e-314 574.03156 445.83859
-0.03684 -5.7318517e+21 1.6283902e-314 575.98193 446.01605
-0.024376247 -5.7573061e+21 1.628393e-314 577.83673 446.21454
-0.018583749 -5.8117591e+21 1.628399e-314 579.79169 446.40219
-0.011365624 -5.8474726e+21 1.6284029e-314 581.89069 446.57342
-0.0059642503 -5.8765479e+21 1.6284061e-314 583.94067 446.7843
-0.0013884374 -5.8888697e+21 1.6284075e-314 586.23065 447.00037
-0.00071340625 -5.9356486e+21 1.6284126e-314 588.27844 447.21161
-0.00026270707 -5.9656786e+21 1.6284159e-314 590.27801 447.39951
-9.4383795e-05 -6.0090663e+21 1.6284206e-314 592.26807 447.47906
-5.692969e-05 -6.0448519e+21 1.6284246e-314 594.09003 447.7388
-1.3029299e-05 -6.0889781e+21 1.6284294e-314 596.15906 447.84558
-1.4100344e-06 -6.1066142e+21 1.6284313e-314 598.35876 448.11441
-2.5995638e-07 -6.1527311e+21 1.6284364e-314 600.46771 448.29691
-3.121378e-08 -6.2023878e+21 1.6284418e-314 602.6582 448.52506
-8.6575761e-11 -6.2324943e+21 1.6284452e-314 604.87286 448.68359
-9.1260889e-14 -6.2896045e+21 1.6284514e-314 607.15112 448.91855
3.0802101e-12 -6.3158717e+21 1.6284543e-314 609.49487 449.14377
3.2168637e-09 -6.3552017e+21 1.6284586e-314 611.62555 449.27841
2.7815819e-08 -6.4159282e+21 1.6284653e-314 613.72235 449.4754
1.333435e-06 -6.431272e+21 1.628467e-314 615.89453 449.60406
2.8619384e-06 -6.4860222e+21 1.628473e-314 618.09314 449.92041
1.841797e-05 -6.5277886e+21 1.6284775e-314 620.36719 450.14642
6.0479979e-05 -6.5826109e+21 1.6284836e-314 622.59808 450.28409
0.00021518758 -6.6287999e+21 1.6284886e-314 624.99957 450.43158
0.00080895343 -6.6670219e+21 1.6284928e-314 627.54517 450.64218
0.0014721092 -6.7169038e+21 1.6284983e-314 629.97485 450.99356
0.0036842809 -6.777261e+21 1.6285049e-314 632.45923 451.1879
0.0093443786 -6.8303855e+21 1.6285107e-314 634.77185 451.33447
0.012886876 -6.8908193e+21 1.6285174e-314 637.13641 451.59808
0.021605004 -6.9319191e+21 1.6285219e-314 639.48871 451.82895
0.035522498 -6.9840843e+21 1.6285276e-314 641.98358 452.04108
0.061380007 -7.0366954e+21 1.6285334e-314 644.47589 452.21683
0.123715 -7.0763946e+21 1.6285377e-314 647.06769 452.40552
0.19253007 -7.1649399e+21 1.6285474e-314 649.73926 452.58084
0.32559997 -7.208179e+21 1.6285522e-314 652.54651 452.9389
0.47009999 -7.2951705e+21 1.6285617e-314 655.41248 453.18051
0.7449199 -7.3738304e+21 1.6285704e-314 658.19434 453.42276
1.1994402 -7.4380247e+21 1.6285774e-314 660.91791 453.67361
2.4101606 -7.4786066e+21 1.6285819e-314 663.80951 453.86871
2.6684804 -7.5850807e+21 1.6285935e-314 666.17999 454.00064
3.7918401 -7.6411595e+21 1.6285997e-314 669.2096 454.20541
5.5694399 -7.709263e+21 1.6286072e-314 672.25366 454.41724
5.9686404 -7.8177322e+21 1.6286191e-314 675.00824 454.69605
7.6737604 -7.8376516e+21 1.6286212e-314 677.86578 455.14377
11.026239 -7.9343169e+21 1.6286319e-314 681.07184 455.30457
13.870722 -8.0494244e+21 1.6286445e-314 684.71979 455.61645
14.966402 -8.2088022e+21 1.628662e-314 688.38141 455.91626
22.720005 -8.3541604e+21 1.6286779e-314 692.64819 456.11319
39.441933 -8.4301632e+21 1.6286862e-314 696.89417 456.40109
45.06498 -8.5740487e+21 1.628702e-314 700.90185 456.86218
99.020829 -8.7378536e+21 1.62872e-314 706.9845 457.04239
118.24641 -8.9555261e+21 1.6287439e-314 712.26965 457.4729
-270710.94 -5.0881297e+21 1.6283196e-314 432.12057 428.65152
-199609.59 -4.9233655e+21 1.6283015e-314 436.43314 429.31869
-188810.59 -4.8948848e+21 1.6282984e-314 437.25201 429.47934
-172838.22 -4.8642603e+21 1.6282951e-314 438.12045 429.52808
-163812.59 -4.8430123e+21 1.6282927e-314 438.9321 429.69043
-156329.72 -4.8268534e+21 1.6282909e-314 439.73761 429.86221
-149023.72 -4.8116537e+21 1.6282893e-314 440.64865 430.06982
-135156.34 -4.7940176e+21 1.6282873e-314 441.6181 430.13217
-120152.42 -4.7788901e+21 1.6282857e-314 442.57752 430.1442
-108557.8 -4.7681174e+21 1.6282845e-314 443.56845 430.23401
-95001.047 -4.7461309e+21 1.6282821e-314 444.63443 430.3634
-84578.172 -4.7279048e+21 1.6282801e-314 445.69708 430.55441
-77340.39 -4.7217399e+21 1.6282793e-314 446.71829 430.75012
-67368.39 -4.7182001e+21 1.6282786e-314 447.75519 430.87759
-60976.008 -4.7111902e+21 1.628277e-314 448.81882 431.02832
-55195.727 -4.7078688e+21 1.6282763e-314 449.83756 431.10245
-51848.82 -4.7042164e+21 1.6282755e-314 450.89328 431.32703
-47007.008 -4.7024825e+21 1.6282751e-314 451.94189 431.44382
-39798.695 -4.6977222e+21 1.6282741e-314 453.12372 431.51215
-35432.039 -4.6931488e+21 1.6282731e-314 454.34412 431.74793
-30283.863 -4.6857697e+21 1.6282715e-314 455.59064 431.84573
-27362.27 -4.6840718e+21 1.6282711e-314 456.78903 431.95697
-24276.504 -4.6801987e+21 1.6282702e-314 458.04514 432.09613
-22676.77 -4.6820069e+21 1.6282706e-314 459.22006 432.30313
-19698.16 -4.6807144e+21 1.6282703e-314 460.42075 432.40335
-16892.566 -4.6837768e+21 1.628271e-314 461.53781 432.4418
-15649.182 -4.6823379e+21 1.6282707e-314 462.72409 432.64911
-13994.064 -4.679978e+21 1.6282702e-314 463.99829 432.75012
-12533.924 -4.6798294e+21 1.6282702e-314 465.29025 432.87354
-10885.041 -4.6765103e+21 1.6282694e-314 466.67194 433.02322
-9884.6348 -4.6817119e+21 1.6282706e-314 468.01904 433.20383
-8030.2901 -4.6842947e+21 1.6282711e-314 469.7124 433.30841
-7589.7237 -4.6922999e+21 1.6282729e-314 471.21683 433.53598
-7034.1455 -4.6979812e+21 1.6282741e-314 472.58478 433.69284
-6293.4229 -4.6998254e+21 1.6282745e-314 473.93634 433.80652
-5589.9776 -4.7021875e+21 1.6282751e-314 475.23361 433.9122
-5000.7237 -4.7022619e+21 1.6282751e-314 476.54761 434.10098
-4357.6533 -4.7056913e+21 1.6282758e-314 477.91534 434.24432
-3949.4458 -4.7104156e+21 1.6282769e-314 479.27817 434.41025
-3587.4829 -4.7119266e+21 1.6282772e-314 480.72653 434.56729
-3322.9224 -4.7136987e+21 1.6282776e-314 482.18106 434.81049
-2987.3364 -4.720006e+21 1.628279e-314 483.64511 434.93955
-2514.2075 -4.7193057e+21 1.6282788e-314 485.15991 435.0459
-2243.7075 -4.7301926e+21 1.6282803e-314 486.5661 435.20502
-2005.9749 -4.7386774e+21 1.6282813e-314 487.95032 435.38031
-1851.9456 -4.7501886e+21 1.6282825e-314 489.27969 435.49332
-1641.0628 -4.7512965e+21 1.6282827e-314 490.7518 435.61466
-1403.4944 -4.7540257e+21 1.628283e-314 492.24072 435.68451
-1373.1028 -4.7867128e+21 1.6282865e-314 493.68115 435.93253
-1102.8069 -4.7725445e+21 1.628285e-314 495.28366 436.08057
-997.38636 -4.7971161e+21 1.6282877e-314 496.83237 436.23108
-902.77893 -4.8011018e+21 1.6282881e-314 498.40832 436.40842
-845.87513 -4.8160042e+21 1.6282898e-314 499.90564 436.62985
-786.40149 -4.8381394e+21 1.6282922e-314 501.40167 436.79971
-656.05628 -4.8312804e+21 1.6282914e-314 502.89319 436.88251
-609.78186 -4.8601305e+21 1.6282946e-314 504.33502 437.04217
-499.8963 -4.8553341e+21 1.6282941e-314 505.82501 437.18481
-426.87506 -4.8659581e+21 1.6282952e-314 507.33768 437.37793
-388.54669 -4.9172406e+21 1.6283009e-314 508.9408 437.49109
-244.08072 -4.8922276e+21 1.6282981e-314 510.56607 437.6293
-214.20035 -4.9290491e+21 1.6283022e-314 512.28687 437.78931
-164.56705 -4.9413709e+21 1.6283035e-314 513.96399 437.93369
-110.97347 -4.9226269e+21 1.6283015e-314 515.67206 438.11658
-115.30751 -4.9905862e+21 1.6283089e-314 517.22375 438.31674
-83.215348 -4.9777465e+21 1.6283075e-314 518.78241 438.46027
-72.174088 -5.0235661e+21 1.6283125e-314 520.32068 438.56274
-54.350075 -5.0174457e+21 1.6283119e-314 521.97382 438.76553
-41.120003 -5.0149372e+21 1.6283116e-314 523.58899 438.9484
-35.846413 -5.0667331e+21 1.6283173e-314 525.36365 439.10434
-26.467198 -5.0537492e+21 1.6283158e-314 527.01691 439.31128
-24.919041 -5.1097515e+21 1.628322e-314 528.72485 439.48383
-16.540806 -5.102888e+21 1.6283212e-314 530.41876 439.61563
-14.208002 -5.116615e+21 1.6283227e-314 531.85834 439.78897
-12.280642 -5.1406687e+21 1.6283254e-314 533.4342 439.96515
-9.2172795 -5.1411866e+21 1.6283254e-314 535.13892 440.18765
-8.8780842 -5.1753464e+21 1.6283292e-314 536.73724 440.49701
-5.9857607 -5.1929825e+21 1.6283311e-314 538.36279 440.38327
-5.7180796 -5.1867856e+21 1.6283304e-314 540.20819 440.98145
-3.8195996 -5.243013e+21 1.6283366e-314 541.99329 440.79034
-2.8168798 -5.2432337e+21 1.6283366e-314 543.79492 440.93628
-2.6800809 -5.2967995e+21 1.6283425e-314 545.90649 441.28708
-1.4213603 -5.3104499e+21 1.628344e-314 547.84723 441.28647
-0.93520034 -5.3199705e+21 1.628345e-314 549.36237 441.49109
-1.0481598 -5.3803278e+21 1.6283517e-314 551.1709 441.84662
-0.40818006 -5.3752387e+21 1.6283511e-314 553.02911 441.85001
-0.29083997 -5.4310923e+21 1.6283572e-314 554.92273 441.96204
-0.21499005 -5.468283e+21 1.6283613e-314 556.90418 442.2193
-0.28936011 -5.5613995e+21 1.6283715e-314 558.65131 442.49417
-0.084230021 -5.6120199e+21 1.6283771e-314 562.53754 442.69138
-0.026461247 -5.5597782e+21 1.6283714e-314 564.72931 442.95477
-0.0097693746 -5.5918033e+21 1.6283749e-314 568.60315 443.41589
-0.0083731283 -5.6772456e+21 1.6283842e-314 570.43243 443.48023
-0.0014535163 -5.6542997e+21 1.6283817e-314 572.40735 443.6568
-0.00149286 -5.7257989e+21 1.6283896e-314 574.18579 443.8732
-0.00043085154 -5.7460921e+21 1.6283918e-314 576.07593 443.99023
-0.00011422463 -5.7571574e+21 1.628393e-314 578.02978 444.14887
-0.0001119004 -5.8203925e+21 1.6283999e-314 579.90503 444.42557
-2.4792e-05 -5.8376593e+21 1.6284018e-314 582.07275 444.59293
-1.8340154e-06 -5.8573625e+21 1.628404e-314 584.15063 444.75565
-3.2427221e-07 -5.8984624e+21 1.6284085e-314 586.30829 444.96072
-1.5977864e-08 -5.9374951e+21 1.6284128e-314 588.40649 445.1272
-6.5234318e-10 -5.9712901e+21 1.6284165e-314 590.36883 445.3327
-3.1175102e-12 -6.0126106e+21 1.628421e-314 592.30475 445.52548
1.450235e-15 -6.0410125e+21 1.6284241e-314 594.31958 445.69742
9.7602607e-11 -6.06662e+21 1.628427e-314 596.37531 445.95111
6.8957826e-09 -6.1191545e+21 1.6284327e-314 598.43872 446.07123
1.9854738e-07 -6.1454961e+21 1.6284356e-314 600.5694 446.32608
1.3846441e-06 -6.19427e+21 1.628441e-314 602.8042 446.49191
1.4252933e-05 -6.2219402e+21 1.628444e-314 605.04541 446.69858
4.1872067e-05 -6.2749926e+21 1.6284498e-314 607.36737 446.97574
0.00013658396 -6.307387e+21 1.6284534e-314 609.64941 447.16226
0.00034657034 -6.3597008e+21 1.6284591e-314 611.77472 447.29504
0.00074946892 -6.3959322e+21 1.6284631e-314 613.91376 447.55933
0.0022459072 -6.439392e+21 1.6284679e-314 615.97205 447.64471
0.0060930001 -6.4839596e+21 1.6284727e-314 618.16284 447.81549
0.01068625 -6.5264601e+21 1.6284774e-314 620.46307 448.08701
0.016311247 -6.5716177e+21 1.6284824e-314 622.72028 448.29034
0.030718748 -6.6142668e+21 1.628487e-314 625.23792 448.48044
0.039337494 -6.6727775e+21 1.6284935e-314 627.58948 448.82236
0.099710003 -6.7143953e+21 1.628498e-314 630.18012 448.85187
0.11865003 -6.7830887e+21 1.6285056e-314 632.59753 449.15985
0.22729007 -6.8230807e+21 1.6285099e-314 635.03387 449.33844
0.30248004 -6.9031411e+21 1.6285187e-314 637.25964 449.48578
0.53908027 -6.9356076e+21 1.6285223e-314 639.50311 449.66309
0.99104035 -6.9833503e+21 1.6285275e-314 642.07929 449.85638
1.4785607 -7.0383933e+21 1.6285336e-314 644.60779 450.18405
2.2223211 -7.0905585e+21 1.6285393e-314 647.21551 450.43924
2.8254399 -7.174384e+21 1.6285485e-314 649.91626 450.6311
3.9536004 -7.2086924e+21 1.6285522e-314 652.67737 450.85107
5.3368006 -7.2863164e+21 1.6285608e-314 655.50183 451.06509
6.6902399 -7.374051e+21 1.6285704e-314 658.30267 451.2395
9.3289586 -7.4093187e+21 1.6285743e-314 661.12152 451.53891
10.142084 -7.5146895e+21 1.6285858e-314 663.80402 451.80551
14.662081 -7.5652334e+21 1.6285914e-314 666.61853 451.96399
22.872959 -7.6120122e+21 1.6285965e-314 669.58417 452.16101
22.835209 -7.7358297e+21 1.6286101e-314 672.38721 452.47647
31.488011 -7.8147778e+21 1.6286187e-314 675.40179 452.58603
50.017281 -7.8295361e+21 1.6286204e-314 678.32269 452.92566
70.661149 -8.0427815e+21 1.6286437e-314 685.19427 453.64853
129.46439 -8.3047244e+21 1.6286725e-314 692.75891 454.04141
151.45987 -8.4404944e+21 1.6286874e-314 696.75397 454.54291
491.41754 -8.716457e+21 1.6287177e-314 707.00842 455.01059
-204249.59 -5.104068e+21 1.6283214e-314 431.58817 426.6835
-92446.422 -4.8455208e+21 1.628293e-314 439.19168 427.81201
-83928.047 -4.8273668e+21 1.628291e-314 440.00494 427.96896
-71307.172 -4.8024304e+21 1.6282883e-314 440.88898 428.07809
-61637.93 -4.7789666e+21 1.6282857e-314 441.8338 428.17331
-56347.211 -4.768856e+21 1.6282846e-314 442.75766 428.26303
-51618.805 -4.755647e+21 1.6282831e-314 443.76239 428.42963
-46065.273 -4.7421452e+21 1.6282817e-314 444.76666 428.55273
-40400.336 -4.7240677e+21 1.6282797e-314 445.85992 428.72705
-35523.132 -4.7189364e+21 1.6282787e-314 446.89755 428.86874
-31453.348 -4.714068e+21 1.6282777e-314 447.93378 428.98856
-28592.379 -4.7073892e+21 1.6282762e-314 448.99771 429.12057
-26038.113 -4.704991e+21 1.6282757e-314 450.02429 429.2225
-23463.535 -4.6994584e+21 1.6282745e-314 451.13275 429.3877
-20587.816 -4.696137e+21 1.6282737e-314 452.25949 429.49902
-18388.098 -4.6941081e+21 1.6282733e-314 453.38449 429.6684
-15837.924 -4.6906763e+21 1.6282725e-314 454.57297 429.7778
-14357.299 -4.6856233e+21 1.6282714e-314 455.75061 429.91702
-13671.307 -4.6867289e+21 1.6282717e-314 456.95502 430.16736
-11872.83 -4.6842204e+21 1.6282711e-314 458.17645 430.22058
-10078.947 -4.6814169e+21 1.6282705e-314 459.39932 430.27859
-8816.5567 -4.6790188e+21 1.62827e-314 460.58255 430.43509
-8071.9072 -4.6801244e+21 1.6282702e-314 461.71576 430.62079
-7413.4346 -4.6784288e+21 1.6282698e-314 462.93814 430.77011
-6551.2236 -4.675846e+21 1.6282693e-314 464.26981 430.87689
-5946.9033 -4.6771746e+21 1.6282696e-314 465.52441 431.0246
-5565.2354 -4.6851054e+21 1.6282713e-314 466.8027 431.20157
-4803.2158 -4.6838872e+21 1.628271e-314 468.31439 431.39737
-4069.9497 -4.691156e+21 1.6282726e-314 469.97897 431.54675
-3712.0415 -4.6952137e+21 1.6282735e-314 471.45648 431.68912
-3303.7114 -4.6951034e+21 1.6282735e-314 472.83344 431.80048
-2920.6528 -4.6959163e+21 1.6282737e-314 474.14252 431.89963
-2621.686 -4.6977965e+21 1.6282741e-314 475.40073 432.04364
-2388.5825 -4.7023722e+21 1.6282751e-314 476.72113 432.23581
-2118.4927 -4.7072046e+21 1.6282762e-314 478.07889 432.40451
-1883.1975 -4.7078328e+21 1.6282763e-314 479.44034 432.508
-1720.5862 -4.7124062e+21 1.6282773e-314 480.85245 432.64889
-1572.5979 -4.7169819e+21 1.6282783e-314 482.32275 432.83557
-1401.1604 -4.7190851e+21 1.6282788e-314 483.79297 433.00903
-1194.7424 -4.7186054e+21 1.6282787e-314 485.31296 433.16687
-1085.051 -4.7346197e+21 1.6282808e-314 486.6785 433.3237
-971.20276 -4.740006e+21 1.6282814e-314 488.09369 433.47913
-879.77991 -4.7445816e+21 1.6282819e-314 489.49191 433.6044
-798.8429 -4.7507786e+21 1.6282826e-314 490.90179 433.76148
-694.31311 -4.750702e+21 1.6282826e-314 492.40353 433.90176
-638.85315 -4.78007e+21 1.6282858e-314 493.84409 434.0256
-510.76105 -4.7646497e+21 1.6282841e-314 495.40668 434.19083
-506.15314 -4.8124644e+21 1.6282894e-314 496.92963 434.41788
-389.02789 -4.8012459e+21 1.6282881e-314 498.5466 434.61551
-303.83112 -4.8051595e+21 1.6282886e-314 500.0574 434.80383
-254.09024 -4.8424223e+21 1.6282927e-314 501.539 434.90958
-200.28421 -4.8368153e+21 1.628292e-314 503.01865 435.06101
-168.22281 -4.8695025e+21 1.6282956e-314 504.49866 435.14767
-119.88741 -4.8660347e+21 1.6282952e-314 506.03244 435.28604
-92.569596 -4.8621976e+21 1.6282948e-314 507.61322 435.45496
-79.656998 -4.9047702e+21 1.6282995e-314 509.22778 435.57544
-58.117134 -4.8871341e+21 1.6282976e-314 510.82629 435.82703
-52.418556 -4.9390831e+21 1.6283033e-314 512.50299 435.93671
-36.437783 -4.9313324e+21 1.6283024e-314 514.27753 436.12604
-30.794239 -4.9442487e+21 1.6283038e-314 515.84631 436.38916
-26.827519 -4.9861592e+21 1.6283084e-314 517.41559 436.4556
-18.297611 -4.9725088e+21 1.6283069e-314 519.03998 436.59521
-17.23328 -5.0205442e+21 1.6283122e-314 520.5766 436.78293
-13.754564 -5.0260026e+21 1.6283128e-314 522.07874 436.93307
-9.7609654 -5.0212828e+21 1.6283123e-314 523.82404 437.09293
-9.5593587 -5.0763978e+21 1.6283183e-314 525.46289 437.31363
-6.6920023 -5.0571404e+21 1.6283162e-314 527.14319 437.51215
-5.1302424 -5.0904941e+21 1.6283199e-314 528.86011 437.54627
-3.7523999 -5.0853285e+21 1.6283193e-314 530.40381 437.72418
-3.4324804 -5.1120393e+21 1.6283222e-314 531.96728 437.95575
-2.6116796 -5.1245818e+21 1.6283236e-314 533.60852 438.06293
-1.8588803 -5.1215554e+21 1.6283233e-314 535.22119 438.27899
-1.3376801 -5.1673795e+21 1.6283283e-314 537.01251 438.38751
-0.91756022 -5.2038317e+21 1.6283323e-314 538.49841 438.45447
-0.77320016 -5.2268496e+21 1.6283348e-314 540.08801 438.72983
-0.34494001 -5.2095873e+21 1.6283329e-314 542.24658 439.01776
-0.17968002 -5.229214e+21 1.6283351e-314 543.99005 439.06262
-0.13341001 -5.2914132e+21 1.6283419e-314 546.27448 439.31665
-0.072969988 -5.3038116e+21 1.6283433e-314 547.92401 439.3895
-0.05526001 -5.3197498e+21 1.628345e-314 549.49927 439.64819
-0.04872001 -5.3759007e+21 1.6283512e-314 551.25696 439.83313
-0.025429998 -5.3699965e+21 1.6283505e-314 553.12116 440.06427
-0.013566876 -5.4058587e+21 1.6283545e-314 555.05652 440.1076
-0.010572502 -5.4476205e+21 1.628359e-314 557.04437 440.36972
-0.0086981301 -5.5211148e+21 1.6283671e-314 558.84552 440.46115
-0.00054842199 -5.453894e+21 1.6283597e-314 561.16516 440.66415
-0.00020617191 -5.485104e+21 1.6283632e-314 562.84717 440.72745
-0.00038662512 -5.5728386e+21 1.6283728e-314 564.81854 441.11581
-5.9068356e-05 -5.5588189e+21 1.6283712e-314 566.82367 441.25504
-2.3286619e-05 -5.5847191e+21 1.6283741e-314 568.71759 441.47882
-2.2761717e-05 -5.6692787e+21 1.6283834e-314 570.58563 441.64157
-9.1142295e-07 -5.6505347e+21 1.6283813e-314 572.48291 441.85144
-7.5006131e-07 -5.7254296e+21 1.6283895e-314 574.27094 442.0058
-1.4850139e-08 -5.7303745e+21 1.6283901e-314 576.19885 442.1554
-3.8063536e-10 -5.7521404e+21 1.6283925e-314 578.15778 442.39535
-2.9913854e-12 -5.8060034e+21 1.6283984e-314 580.08404 442.54822
2.9620713e-13 -5.8307214e+21 1.6284011e-314 582.19293 442.67981
4.7111526e-10 -5.8730012e+21 1.6284057e-314 584.21075 442.85773
1.0547258e-07 -5.8883495e+21 1.6284074e-314 586.47449 443.0849
4.3061829e-07 -5.935205e+21 1.6284125e-314 588.49176 443.28677
2.5513314e-06 -5.9644243e+21 1.6284157e-314 590.45715 443.49487
1.5426271e-05 -6.0055962e+21 1.6284203e-314 592.43213 443.62692
6.1035171e-05 -6.0225658e+21 1.6284221e-314 594.44885 443.86472
0.00016783204 -6.064035e+21 1.6284267e-314 596.51837 444.01801
0.00046953518 -6.1002664e+21 1.6284306e-314 598.6308 444.173
0.00095325814 -6.1415869e+21 1.6284352e-314 600.72101 444.414
0.0026493133 -6.1932387e+21 1.6284408e-314 602.90326 444.54474
0.0080793743 -6.2124196e+21 1.628443e-314 605.18237 444.80771
0.013156252 -6.2676877e+21 1.628449e-314 607.42554 444.96426
0.024275009 -6.2870217e+21 1.6284511e-314 609.82233 445.25861
0.040147521 -6.343024e+21 1.6284573e-314 611.92102 445.32693
0.057872512 -6.3851551e+21 1.6284619e-314 614.12555 445.57816
0.076235012 -6.4277322e+21 1.6284666e-314 616.10663 445.84451
0.15208998 -6.4617479e+21 1.6284703e-314 618.37195 445.96048
0.19530001 -6.5243209e+21 1.6284772e-314 620.59589 446.21494
0.39152009 -6.5590751e+21 1.628481e-314 622.92297 446.34506
0.64103997 -6.6116817e+21 1.6284868e-314 625.32281 446.5394
0.92155993 -6.6594964e+21 1.628492e-314 627.76593 446.84424
1.9908803 -6.7112968e+21 1.6284977e-314 630.34705 446.90521
2.6700807 -6.7526173e+21 1.6285022e-314 632.79047 447.18936
3.1711202 -6.8223466e+21 1.6285099e-314 635.15265 447.38477
4.0816012 -6.8643291e+21 1.6285145e-314 637.48688 447.543
4.9873591 -6.9108873e+21 1.6285196e-314 639.82269 447.86939
5.88128 -6.987408e+21 1.628528e-314 642.21533 448.06754
7.1579218 -7.0466574e+21 1.6285345e-314 644.71942 448.30176
11.340479 -7.0797138e+21 1.6285381e-314 647.36963 448.43253
14.074244 -7.1424309e+21 1.628545e-314 650.0321 448.68133
16.005757 -7.2296476e+21 1.6285545e-314 652.77685 448.9288
22.419209 -7.2913334e+21 1.6285613e-314 655.69507 449.21393
29.965443 -7.3518393e+21 1.628568e-314 658.52136 449.41092
44.066567 -7.4035631e+21 1.6285736e-314 661.35297 449.62351
55.210244 -7.4857628e+21 1.6285826e-314 664.05115 449.78586
65.72548 -7.5577078e+21 1.6285905e-314 666.85162 450.07553
79.907853 -7.643596e+21 1.6286e-314 669.67285 450.37775
111.12447 -7.7254985e+21 1.6286089e-314 672.67383 450.51645
155.61221 -7.795597e+21 1.6286166e-314 675.7204 450.73743
196.09598 -7.8708566e+21 1.6286249e-314 678.64795 451.03986
371.08747 -8.0501584e+21 1.6286446e-314 685.53509 451.59338
522.83411 -8.1209956e+21 1.6286523e-314 688.91748 451.81943
553.52356 -8.2921819e+21 1.6286711e-314 692.841 452.1795
644.71058 -8.4375401e+21 1.6286871e-314 697.04016 452.53629
934.64612 -8.4744336e+21 1.6286911e-314 701.60468 452.8219
937.03186 -8.7754857e+21 1.6287241e-314 707.48907 453.32352
-47581.774 -4.843895e+21 1.6282928e-314 439.34515 426.15591
-42065.617 -4.820062e+21 1.6282902e-314 440.18027 426.28366
-34304.836 -4.7952696e+21 1.6282875e-314 441.08655 426.31848
-31916.371 -4.7819885e+21 1.628286e-314 441.9805 426.52856
-29363.418 -4.7695946e+21 1.6282847e-314 442.92139 426.64709
-26356.949 -4.7486394e+21 1.6282824e-314 443.94916 426.79623
-22615.168 -4.740006e+21 1.6282814e-314 444.95004 426.78183
-20270.621 -4.7274589e+21 1.62828e-314 446.01987 426.96744
-16984.972 -4.7164662e+21 1.6282782e-314 447.13544 427.09097
-15834.807 -4.7135501e+21 1.6282776e-314 448.1488 427.28824
-14434.799 -4.7095667e+21 1.6282767e-314 449.1662 427.37796
-13024.955 -4.7038111e+21 1.6282754e-314 450.20148 427.49219
-11972.447 -4.700564e+21 1.6282747e-314 451.26013 427.66363
-10015.869 -4.6938131e+21 1.6282732e-314 452.43094 427.71512
-8994.9785 -4.6925949e+21 1.628273e-314 453.57416 427.89832
-7925.2705 -4.6884989e+21 1.6282721e-314 454.76764 428.06247
-7084.6065 -4.6841844e+21 1.6282711e-314 455.94885 428.14871
-6554.3369 -4.6830022e+21 1.6282708e-314 457.1651 428.34705
-5933.4658 -4.6843308e+21 1.6282711e-314 458.35703 428.46695
-5359.126 -4.6821916e+21 1.6282707e-314 459.55954 428.65149
-4751.2783 -4.6823762e+21 1.6282707e-314 460.72199 428.77997
-4021.9849 -4.6812683e+21 1.6282705e-314 461.86951 428.83185
-3860.7681 -4.6794984e+21 1.6282701e-314 463.08481 429.12775
-3430.811 -4.6766206e+21 1.6282694e-314 464.40439 429.2337
-3038.1275 -4.6766566e+21 1.6282695e-314 465.68048 429.32303
-2796.1763 -4.6827455e+21 1.6282708e-314 467.07611 429.51636
-2437.3247 -4.6894221e+21 1.6282723e-314 468.69266 429.67435
-2039.01 -4.6924102e+21 1.6282729e-314 470.22256 429.80295
-1851.8225 -4.6922639e+21 1.6282729e-314 471.63236 429.9556
-1696.3381 -4.6942545e+21 1.6282733e-314 473.00052 430.12491
-1542.0012 -4.6963959e+21 1.6282738e-314 474.28293 430.26529
-1414.4514 -4.700233e+21 1.6282746e-314 475.50751 430.4133
-1236.3577 -4.7004176e+21 1.6282747e-314 476.88211 430.56479
-1046.0979 -4.7033675e+21 1.6282753e-314 478.23471 430.65497
-990.26966 -4.7094181e+21 1.6282766e-314 479.53018 430.86881
-879.42151 -4.709677e+21 1.6282767e-314 481.05594 430.99277
-798.76087 -4.7139937e+21 1.6282776e-314 482.48239 431.14307
-682.93665 -4.7107827e+21 1.6282769e-314 484.00516 431.28821
-605.48108 -4.7160586e+21 1.6282781e-314 485.46057 431.44836
-536.61731 -4.7206343e+21 1.6282791e-314 486.8746 431.6326
-485.32477 -4.7434737e+21 1.6282818e-314 488.18991 431.75665
-395.72492 -4.7410373e+21 1.6282815e-314 489.59906 431.93243
-310.67145 -4.7493014e+21 1.6282824e-314 491.00296 432.06006
-239.94376 -4.7529178e+21 1.6282828e-314 492.52976 432.25024
-204.65665 -4.7765302e+21 1.6282854e-314 494.02042 432.37048
-144.86014 -4.7666403e+21 1.6282843e-314 495.56601 432.52679
-120.1357 -4.7985933e+21 1.6282878e-314 497.11462 432.63803
-93.706253 -4.7923198e+21 1.6282872e-314 498.74503 432.85144
-70.049271 -4.8042723e+21 1.6282885e-314 500.26914 432.96304
-58.627846 -4.8266327e+21 1.6282909e-314 501.77814 433.10861
-48.134407 -4.8343789e+21 1.6282918e-314 503.23746 433.26013
-39.206398 -4.8524563e+21 1.6282938e-314 504.71768 433.40466
-28.929279 -4.8500965e+21 1.6282935e-314 506.271 433.56384
-24.416645 -4.8647061e+21 1.6282951e-314 507.82346 433.7496
-18.270725 -4.8942948e+21 1.6282983e-314 509.42224 433.77185
-13.971201 -4.8907504e+21 1.628298e-314 511.02228 433.97266
-13.318079 -4.9327375e+21 1.6283026e-314 512.66736 434.21768
-10.00448 -4.9309676e+21 1.6283024e-314 514.41736 434.44135
-7.43184 -4.944028e+21 1.6283038e-314 516.04108 434.55756
-6.4014406 -4.9683024e+21 1.6283065e-314 517.61993 434.71933
-5.1926394 -4.9806243e+21 1.6283078e-314 519.17804 434.90018
-3.9407201 -4.9999582e+21 1.6283099e-314 520.73511 435.01758
-3.23136 -5.0068938e+21 1.6283107e-314 522.36731 435.20532
-2.7372003 -5.0301369e+21 1.6283132e-314 523.95264 435.38391
-2.20888 -5.064666e+21 1.628317e-314 525.63483 435.51657
-1.0593598 -5.0403195e+21 1.6283144e-314 527.31879 435.69434
-0.75144017 -5.0636346e+21 1.6283169e-314 528.94946 435.85886
-0.58000005 -5.082892e+21 1.628319e-314 530.4295 436.09378
-0.29643995 -5.095439e+21 1.6283204e-314 532.09088 436.1366
-0.22779003 -5.1231812e+21 1.6283235e-314 533.60699 436.32626
-0.11498 -5.121042e+21 1.6283232e-314 535.20276 436.42474
-0.084945038 -5.1583048e+21 1.6283273e-314 537.01886 436.60877
-0.057612516 -5.1644297e+21 1.628328e-314 538.69531 436.90289
-0.03055251 -5.185529e+21 1.6283303e-314 540.37012 436.94128
-0.021166254 -5.2526012e+21 1.6283377e-314 542.30255 436.94434
-0.012058126 -5.3120036e+21 1.6283442e-314 546.39514 437.62103
-0.0037622512 -5.2970247e+21 1.6283425e-314 548.05164 437.76385
-0.0016655943 -5.311265e+21 1.6283441e-314 549.57324 437.91595
-0.0015333912 -5.3705865e+21 1.6283506e-314 551.40607 438.1749
-0.00035876181 -5.3617324e+21 1.6283496e-314 553.23993 438.35599
-0.00011776366 -5.3995131e+21 1.6283538e-314 555.18079 438.44644
-5.5130375e-05 -5.4347853e+21 1.6283576e-314 557.15442 438.65765
-2.0515134e-05 -5.4752906e+21 1.6283621e-314 559.08978 438.82465
-4.1111758e-07 -5.4637794e+21 1.6283608e-314 561.13898 438.92746
-2.1434792e-07 -5.5131434e+21 1.6283662e-314 562.85657 439.12817
-7.4302662e-08 -5.5776349e+21 1.6283733e-314 564.953 439.34573
-6.0483854e-11 -5.5665651e+21 1.6283721e-314 566.97858 439.58142
2.8951808e-23 -5.5786639e+21 1.6283734e-314 568.93402 439.78412
1.6059821e-18 -5.6568059e+21 1.628382e-314 570.69488 439.91974
1.2441872e-09 -5.6463261e+21 1.6283808e-314 572.58978 440.11514
9.3421964e-09 -5.7021842e+21 1.628387e-314 574.42102 440.25891
7.0536828e-07 -5.7051341e+21 1.6283873e-314 576.39893 440.40234
1.1944278e-06 -5.7593709e+21 1.6283932e-314 578.26508 440.64603
9.4492226e-06 -5.7917608e+21 1.6283968e-314 580.24695 440.79065
5.6382334e-05 -5.8168504e+21 1.6283996e-314 582.36841 440.96658
0.00010952343 -5.8617873e+21 1.6284045e-314 584.3454 441.16858
0.00029122672 -5.8884216e+21 1.6284074e-314 586.51977 441.42996
0.0014799845 -5.9118133e+21 1.62841e-314 588.67657 441.48914
0.0027761576 -5.9532824e+21 1.6284145e-314 590.67175 441.72568
0.0054769377 -5.9982194e+21 1.6284195e-314 592.58813 441.90042
0.010031873 -6.0343743e+21 1.6284234e-314 594.52789 442.08667
0.021091256 -6.0554016e+21 1.6284257e-314 596.5816 442.16824
0.027773757 -6.0961321e+21 1.6284302e-314 598.72699 442.47043
0.045549996 -6.131035e+21 1.628434e-314 600.80072 442.66315
0.074280039 -6.1780391e+21 1.6284392e-314 603.05963 442.83108
0.11775 -6.2161846e+21 1.6284434e-314 605.29669 443.05457
0.19157007 -6.2659178e+21 1.6284488e-314 607.58295 443.25589
0.30904013 -6.3155025e+21 1.6284543e-314 609.78955 443.40643
0.54163993 -6.3525446e+21 1.6284583e-314 612.04779 443.57315
0.81456006 -6.3928293e+21 1.6284627e-314 614.19714 443.82571
1.2563202 -6.4191708e+21 1.6284656e-314 616.29511 444.09573
1.7120802 -6.4751776e+21 1.6284718e-314 618.36206 444.28195
2.5124803 -6.5277121e+21 1.6284775e-314 620.74847 444.43381
3.5344014 -6.55767e+21 1.6284808e-314 623.06018 444.57452
4.1788798 -6.6062954e+21 1.6284862e-314 625.43066 444.85428
5.9811221 -6.6579472e+21 1.6284918e-314 627.89014 444.98929
7.3839999 -6.7006683e+21 1.6284965e-314 630.40912 445.28076
8.4876805 -6.7726854e+21 1.6285044e-314 632.82709 445.51633
12.989122 -6.8013148e+21 1.6285076e-314 635.2934 445.66785
14.353922 -6.8745883e+21 1.6285156e-314 637.49616 445.8681
19.163517 -6.9170888e+21 1.6285203e-314 639.94641 446.09085
24.5024 -6.9806166e+21 1.6285272e-314 642.32135 446.24814
35.185921 -7.006814e+21 1.6285301e-314 645.01715 446.48221
40.851204 -7.0820016e+21 1.6285383e-314 647.5191 446.76794
54.032662 -7.1422102e+21 1.628545e-314 650.25934 446.99124
71.293473 -7.1979963e+21 1.6285511e-314 652.96423 447.21317
104.11263 -7.2686083e+21 1.6285588e-314 655.83606 447.33734
126.37953 -7.3374503e+21 1.6285664e-314 658.7898 447.64862
145.86881 -7.4269548e+21 1.6285762e-314 661.41211 447.91907
193.62821 -7.5092266e+21 1.6285852e-314 664.06482 448.04532
263.01447 -7.5496644e+21 1.6285897e-314 666.85095 448.28958
383.70319 -7.6153314e+21 1.6285969e-314 669.88995 448.53415
412.37506 -7.7254985e+21 1.6286089e-314 672.88916 448.8818
553.52356 -7.8103508e+21 1.6286183e-314 675.9596 448.97305
653.42493 -7.8811879e+21 1.628626e-314 679.25677 449.35312
759.86976 -7.9712103e+21 1.6286359e-314 682.56885 449.6243
909.26087 -8.0354047e+21 1.6286429e-314 685.73834 449.82031
980.79749 -8.1364925e+21 1.628654e-314 689.0365 450.16049
1239.0608 -8.2420073e+21 1.6286656e-314 693.25549 450.50302
1340.6829 -8.4456601e+21 1.6286879e-314 697.01392 450.59201
-30350.059 -4.8869134e+21 1.6282975e-314 437.95526 424.34695
-26970.371 -4.8641162e+21 1.628295e-314 438.75476 424.388
-23988.481 -4.843895e+21 1.6282928e-314 439.55924 424.45816
-20878.465 -4.8248583e+21 1.6282907e-314 440.38229 424.5137
-17802.543 -4.8033896e+21 1.6282884e-314 441.24768 424.6015
-15995.217 -4.7829478e+21 1.6282861e-314 442.1619 424.79642
-14796.068 -4.7674554e+21 1.6282844e-314 443.1037 424.94928
-13305.779 -4.74886e+21 1.6282824e-314 444.12839 425.08478
-11879.061 -4.7358717e+21 1.628281e-314 445.14627 425.19867
-10685.654 -4.7274589e+21 1.62828e-314 446.17316 425.33932
-8840.3183 -4.7190468e+21 1.6282788e-314 447.3237 425.39889
-7888.5674 -4.7117059e+21 1.6282771e-314 448.4043 425.58102
-7383.5322 -4.7069096e+21 1.6282761e-314 449.37137 425.74789
-6722.9307 -4.7019286e+21 1.628275e-314 450.37335 425.85998
-5988.3525 -4.6986815e+21 1.6282743e-314 451.44675 425.94339
-5292.0322 -4.6953623e+21 1.6282736e-314 452.55768 426.05734
-4779.376 -4.6918563e+21 1.6282728e-314 453.70859 426.26804
-4054.0161 -4.6863979e+21 1.6282716e-314 454.93869 426.41635
-3764.02 -4.6857336e+21 1.6282714e-314 456.09546 426.56528
-3328.2876 -4.6830405e+21 1.6282709e-314 457.34933 426.64252
-3057.2954 -4.6844794e+21 1.6282712e-314 458.53372 426.79273
-2717.2056 -4.6801244e+21 1.6282702e-314 459.73166 426.95389
-2406.8911 -4.6778388e+21 1.6282697e-314 460.92587 427.11606
-2035.7122 -4.6766566e+21 1.6282695e-314 462.11145 427.19681
-1967.8206 -4.6797551e+21 1.6282701e-314 463.27789 427.44095
-1794.8059 -4.6772466e+21 1.6282696e-314 464.56686 427.60523
-1677.4348 -4.6824505e+21 1.6282707e-314 465.83679 427.77222
-1425.7561 -4.6814169e+21 1.6282705e-314 467.46201 427.89465
-1234.6165 -4.6880935e+21 1.628272e-314 469.03119 428.01504
-1034.1995 -4.691746e+21 1.6282728e-314 470.46716 428.10861
-933.06897 -4.691451e+21 1.6282727e-314 471.85269 428.24487
-848.81409 -4.6927052e+21 1.628273e-314 473.13297 428.36899
-774.73792 -4.6938491e+21 1.6282732e-314 474.47235 428.55035
-722.27844 -4.6963959e+21 1.6282738e-314 475.65008 428.73712
-638.73059 -4.6989787e+21 1.6282744e-314 477.00912 428.87463
-543.97962 -4.7006383e+21 1.6282747e-314 478.40894 428.99683
-443.34088 -4.7025568e+21 1.6282751e-314 479.80679 429.09378
-388.35211 -4.7092334e+21 1.6282766e-314 481.21967 429.30334
-300.00128 -4.7080895e+21 1.6282764e-314 482.63458 429.48474
-245.54495 -4.7150273e+21 1.6282779e-314 484.09387 429.6716
-200.34049 -4.7182722e+21 1.6282786e-314 485.58539 429.82037
-165.2327 -4.7251756e+21 1.6282798e-314 486.98947 429.98569
-125.27364 -4.7360923e+21 1.628281e-314 488.3941 430.09732
-106.55489 -4.7376416e+21 1.6282812e-314 489.74835 430.28281
-84.674576 -4.7477522e+21 1.6282823e-314 491.15555 430.39148
-59.569924 -4.7464236e+21 1.6282821e-314 492.69052 430.49982
-53.73185 -4.7726931e+21 1.628285e-314 494.14658 430.67862
-36.648964 -4.7605199e+21 1.6282837e-314 495.75778 430.80792
-31.039356 -4.789442e+21 1.6282868e-314 497.26471 430.96774
-26.725758 -4.7928377e+21 1.6282872e-314 498.85938 431.24368
-20.359684 -4.7997732e+21 1.628288e-314 500.39969 431.36325
-17.08289 -4.8356309e+21 1.6282919e-314 501.88644 431.47708
-13.759043 -4.8391752e+21 1.6282923e-314 503.41116 431.65598
-10.589762 -4.8410938e+21 1.6282925e-314 504.89169 431.78473
-7.9620791 -4.8597612e+21 1.6282946e-314 506.39233 431.8826
-6.7448015 -4.8706824e+21 1.6282958e-314 507.94266 432.06815
-5.0892802 -4.8790186e+21 1.6282967e-314 509.56705 432.19183
-3.7938409 -4.8859541e+21 1.6282974e-314 511.19519 432.3602
-3.3905606 -4.9112643e+21 1.6283002e-314 512.83032 432.5867
-2.7547212 -4.9328096e+21 1.6283026e-314 514.51685 432.74457
-2.0160012 -4.9443928e+21 1.6283038e-314 516.20154 432.91077
-1.5092003 -4.9604797e+21 1.6283056e-314 517.75464 433.11343
-0.94584 -4.9871905e+21 1.6283085e-314 519.32733 433.21204
-0.55680001 -4.9994403e+21 1.6283099e-314 520.87701 433.30994
-0.41494018 -5.0127935e+21 1.6283113e-314 522.48523 433.57034
-0.25588018 -5.0258539e+21 1.6283128e-314 524.14679 433.76672
-0.20168999 -5.0585456e+21 1.6283164e-314 525.74982 433.93744
-0.096865014 -5.0502769e+21 1.6283155e-314 527.44952 434.06827
-0.054232516 -5.0639319e+21 1.628317e-314 529.01202 434.14523
-0.039675005 -5.0753665e+21 1.6283182e-314 530.56653 434.39194
-0.025937501 -5.0973531e+21 1.6283206e-314 532.15033 434.52316
-0.017987508 -5.1327739e+21 1.6283245e-314 533.72913 434.62506
-0.0098968763 -5.1232533e+21 1.6283235e-314 535.44336 434.84854
-0.0057864385 -5.1577148e+21 1.6283272e-314 537.00391 434.94138
-0.0026450311 -5.1784494e+21 1.6283295e-314 538.82568 435.18103
-0.00056469546 -5.1632452e+21 1.6283279e-314 540.60858 435.35879
-0.00027376559 -5.2226477e+21 1.6283344e-314 542.40588 435.39804
-0.0001256621 -5.2374015e+21 1.628336e-314 544.27637 435.69412
-5.9120132e-05 -5.3017444e+21 1.628343e-314 546.50366 435.83865
-1.820899e-05 -5.2970247e+21 1.6283425e-314 548.0592 436.07828
-1.3466799e-06 -5.286252e+21 1.6283413e-314 549.63367 436.23025
-4.9662788e-07 -5.3471992e+21 1.628348e-314 551.56238 436.38699
-2.6492121e-08 -5.3642409e+21 1.6283499e-314 553.26569 436.50241
-2.4092199e-09 -5.4012109e+21 1.628354e-314 555.18628 436.74454
-1.7119598e-13 -5.4279217e+21 1.6283569e-314 557.289 436.89166
-1.8793612e-21 -5.4659951e+21 1.6283611e-314 559.23169 437.17456
4.2951115e-10 -5.4850297e+21 1.6283632e-314 561.30646 437.2915
1.7685296e-09 -5.5266474e+21 1.6283677e-314 562.88776 437.48254
7.0110346e-08 -5.5670807e+21 1.6283722e-314 565.11279 437.70514
1.2658995e-06 -5.56745e+21 1.6283722e-314 567.07745 437.92938
1.9285642e-05 -5.5804384e+21 1.6283736e-314 569.05444 438.06668
3.2000018e-05 -5.6546668e+21 1.6283818e-314 570.85199 438.17343
8.337207e-05 -5.6734062e+21 1.6283838e-314 572.66504 438.37527
0.00015430086 -5.720631e+21 1.628389e-314 574.57642 438.55435
0.00058054703 -5.7191538e+21 1.6283888e-314 576.42371 438.73486
0.001846188 -5.73443e+21 1.6283905e-314 578.34082 438.90085
0.0046624998 -5.773832e+21 1.6283948e-314 580.39716 439.07657
0.0094962512 -5.8167738e+21 1.6283995e-314 582.47205 439.25528
0.016843755 -5.8409762e+21 1.6284022e-314 584.53088 439.41513
0.026106257 -5.8805268e+21 1.6284065e-314 586.66888 439.64475
0.035605021 -5.9211087e+21 1.628411e-314 588.75421 439.90878
0.0580175 -5.9624338e+21 1.6284155e-314 590.73614 440.02011
0.10143001 -5.9974087e+21 1.6284194e-314 592.74371 440.15097
0.15998998 -6.0199853e+21 1.6284218e-314 594.73358 440.39096
0.23775008 -6.0565815e+21 1.6284259e-314 596.68866 440.56223
0.34114009 -6.1073506e+21 1.6284314e-314 598.71161 440.75619
0.74724019 -6.1174567e+21 1.6284325e-314 601.03717 440.95444
0.86316026 -6.1856367e+21 1.62844e-314 603.07947 441.17096
1.7881606 -6.2100597e+21 1.6284427e-314 605.44104 441.33777
2.3027997 -6.2637021e+21 1.6284486e-314 607.66504 441.5603
3.2449613 -6.3064998e+21 1.6284533e-314 609.9917 441.67633
3.958241 -6.3402948e+21 1.628457e-314 612.18048 441.89856
5.1064005 -6.3741619e+21 1.6284607e-314 614.38123 442.17834
6.6182413 -6.4142304e+21 1.6284651e-314 616.42505 442.3009
7.5476809 -6.4690527e+21 1.6284711e-314 618.56567 442.51434
9.5116826 -6.5221817e+21 1.6284769e-314 620.83447 442.71503
13.416643 -6.5466767e+21 1.6284796e-314 623.2132 442.92624
15.518084 -6.6132309e+21 1.6284869e-314 625.59161 443.13205
21.540486 -6.6550694e+21 1.6284915e-314 628.0592 443.36017
28.478077 -6.7031048e+21 1.6284968e-314 630.56384 443.54468
39.052803 -6.7485596e+21 1.6285018e-314 633.04156 443.72693
40.072975 -6.832304e+21 1.628511e-314 635.26599 444.00992
57.095681 -6.857245e+21 1.6285137e-314 637.71491 444.2019
75.289628 -6.9099281e+21 1.6285195e-314 640.0321 444.34103
102.80708 -6.9596613e+21 1.6285249e-314 642.49365 444.50787
119.68001 -7.0352182e+21 1.6285332e-314 645.01624 444.71997
166.0314 -7.075656e+21 1.6285377e-314 647.53534 444.95474
223.16544 -7.1264206e+21 1.6285432e-314 650.37518 445.22601
241.86881 -7.2168124e+21 1.6285531e-314 653.03442 445.51984
321.31085 -7.2993048e+21 1.6285622e-314 655.89239 445.71771
411.51496 -7.3842337e+21 1.6285715e-314 658.76801 445.92304
539.88343 -7.4260721e+21 1.6285761e-314 661.55145 446.17096
661.53479 -7.4710811e+21 1.628581e-314 664.45514 446.46701
797.49134 -7.527232e+21 1.6285872e-314 667.17242 446.59766
848.78333 -7.6387997e+21 1.6285994e-314 669.93939 446.78189
928.88099 -7.71369e+21 1.6286076e-314 673.06897 447.15955
1052.2835 -7.8037125e+21 1.6286175e-314 676.14008 447.3399
1295.3811 -7.898896e+21 1.628628e-314 679.49805 447.54999
1520.6809 -8.0007224e+21 1.6286391e-314 682.83075 447.7525
1840.968 -8.0317117e+21 1.6286425e-314 685.99579 448.06662
2001.0188 -8.1519848e+21 1.6286557e-314 689.12555 448.23593
2391.5728 -8.2597154e+21 1.6286675e-314 693.16577 448.65585
2628.69 -8.4522984e+21 1.6286887e-314 697.32428 448.8999
-14421.201 -4.8858821e+21 1.6282974e-314 438.21857 422.4892
-13766.99 -4.8677281e+21 1.6282954e-314 438.96539 422.70932
-12424.811 -4.8444895e+21 1.6282929e-314 439.78928 422.83539
-11084.6 -4.8263355e+21 1.6282909e-314 440.57846 422.91995
-9566.2949 -4.8068574e+21 1.6282888e-314 441.42899 422.99396
-8273.4356 -4.7865642e+21 1.6282865e-314 442.36594 423.15198
-7743.3272 -4.7716618e+21 1.6282849e-314 443.31631 423.3512
-6858.6748 -4.7521071e+21 1.6282827e-314 444.32465 423.42426
-6022.0225 -4.7330704e+21 1.6282807e-314 445.34409 423.51858
-5257.1357 -4.7203753e+21 1.628279e-314 446.41937 423.63748
-4725.6396 -4.7190107e+21 1.6282787e-314 447.50006 423.7915
-4116.8096 -4.7115573e+21 1.6282771e-314 448.65546 424.00766
-3776.7173 -4.70584e+21 1.6282759e-314 449.64987 424.12573
-3448.9556 -4.7023339e+21 1.6282751e-314 450.60104 424.20447
-3101.0825 -4.6979452e+21 1.6282741e-314 451.64758 424.3085
-2801.0493 -4.6948467e+21 1.6282734e-314 452.73694 424.45392
-2461.2876 -4.6919689e+21 1.6282728e-314 453.87027 424.57645
-2175.4673 -4.6890911e+21 1.6282722e-314 455.10495 424.78125
-1888.1946 -4.6845515e+21 1.6282712e-314 456.3129 424.85345
-1760.9319 -4.6818223e+21 1.6282706e-314 457.55463 425.08618
-1592.4836 -4.681194e+21 1.6282705e-314 458.75305 425.20633
-1459.4456 -4.681194e+21 1.6282705e-314 459.92581 425.37308
-1233.5725 -4.6755127e+21 1.6282692e-314 461.17123 425.46558
-1063.8547 -4.6728196e+21 1.6282686e-314 462.28998 425.57935
-974.78675 -4.6739275e+21 1.6282689e-314 463.54266 425.75064
-949.38147 -4.6803473e+21 1.6282703e-314 464.81775 426.0227
-842.04553 -4.6840358e+21 1.6282711e-314 466.24402 426.0871
-731.52503 -4.686139e+21 1.6282715e-314 467.77264 426.19373
-644.0553 -4.6893861e+21 1.6282722e-314 469.25513 426.35248
-552.91907 -4.6910096e+21 1.6282726e-314 470.65137 426.48752
-459.59186 -4.6904917e+21 1.6282725e-314 472.04309 426.63757
-380.02692 -4.6932231e+21 1.6282731e-314 473.30496 426.75418
-332.12433 -4.6977222e+21 1.6282741e-314 474.5455 426.95563
-274.78034 -4.7007486e+21 1.6282747e-314 475.79053 427.14224
-232.43778 -4.7034058e+21 1.6282753e-314 477.11426 427.32904
-171.44327 -4.7020029e+21 1.628275e-314 478.50708 427.38602
-126.80959 -4.7024465e+21 1.6282751e-314 479.91434 427.53473
-104.69637 -4.7080895e+21 1.6282764e-314 481.35718 427.64679
-92.800003 -4.7120009e+21 1.6282772e-314 482.76099 427.91061
-61.301766 -4.7084228e+21 1.6282764e-314 484.28479 427.98331
-54.357765 -4.7185671e+21 1.6282787e-314 485.72928 428.16107
-44.766731 -4.7218142e+21 1.6282794e-314 487.13721 428.32965
-34.617623 -4.7293775e+21 1.6282803e-314 488.52866 428.46713
-27.574406 -4.7301926e+21 1.6282803e-314 489.88992 428.59821
-23.742085 -4.7439916e+21 1.6282819e-314 491.29529 428.77859
-17.868168 -4.7529178e+21 1.6282828e-314 492.75674 428.8887
-14.199366 -4.7656089e+21 1.6282842e-314 494.29517 429.02673
-11.090563 -4.7608846e+21 1.6282837e-314 495.84818 429.22589
-8.4838429 -4.78066e+21 1.6282859e-314 497.4534 429.36047
-7.261281 -4.793279e+21 1.6282873e-314 498.99036 429.58627
-5.3395205 -4.7906219e+21 1.628287e-314 500.59006 429.70386
-4.5222407 -4.8216112e+21 1.6282904e-314 502.06961 429.84335
-3.5201612 -4.8259662e+21 1.6282909e-314 503.60654 430.00076
-2.8568006 -4.8435302e+21 1.6282928e-314 505.00687 430.0722
-2.1047998 -4.8457415e+21 1.628293e-314 506.58194 430.24878
-1.5904801 -4.8615311e+21 1.6282948e-314 508.1394 430.45126
-1.0076001 -4.8849948e+21 1.6282973e-314 509.64905 430.56326
-0.67256034 -4.9046981e+21 1.6282995e-314 511.31259 430.71197
-0.37552005 -4.9030723e+21 1.6282993e-314 513.02448 430.91339
-0.28490001 -4.9338454e+21 1.6283027e-314 514.63831 431.12051
-0.16067007 -4.9404837e+21 1.6283034e-314 516.31494 431.25803
-0.11288001 -4.9612183e+21 1.6283057e-314 517.89276 431.45511
-0.07222499 -4.9731708e+21 1.628307e-314 519.48712 431.62833
-0.041172512 -4.9908069e+21 1.6283089e-314 521.06476 431.67786
-0.028542508 -5.009105e+21 1.6283109e-314 522.61749 431.87445
-0.022658754 -5.0327895e+21 1.6283135e-314 524.22583 432.11264
-0.015655 -5.0592076e+21 1.6283164e-314 525.85156 432.30859
-0.0054721879 -5.0398016e+21 1.6283143e-314 527.63403 432.41836
-0.0026283139 -5.0589103e+21 1.6283164e-314 529.1001 432.56418
-0.0010794376 -5.0688723e+21 1.6283175e-314 530.64551 432.74432
-0.00044229703 -5.0983889e+21 1.6283207e-314 532.25281 432.82483
-0.00020179109 -5.1240639e+21 1.6283236e-314 533.93793 432.98401
-6.018213e-05 -5.1188262e+21 1.628323e-314 535.64758 433.20102
-4.4111345e-05 -5.1586741e+21 1.6283273e-314 537.22693 433.39197
-7.5632315e-06 -5.1735044e+21 1.628329e-314 538.98395 433.56665
-5.8126864e-07 -5.1771208e+21 1.6283294e-314 540.65552 433.67526
-1.0762786e-07 -5.2212426e+21 1.6283342e-314 542.52289 433.7944
-6.3605635e-11 -5.3016723e+21 1.628343e-314 546.55512 434.1763
-4.4384413e-19 -5.2887605e+21 1.6283416e-314 548.16705 434.44626
2.6631173e-11 -5.3105962e+21 1.628344e-314 549.71258 434.46921
2.0626794e-09 -5.3437292e+21 1.6283477e-314 551.68774 434.70984
9.8896024e-08 -5.3561997e+21 1.628349e-314 553.41443 434.9006
4.624024e-07 -5.3944938e+21 1.6283532e-314 555.31519 435.0871
4.1248796e-06 -5.4228259e+21 1.6283563e-314 557.3717 435.26074
1.0250247e-05 -5.481634e+21 1.6283628e-314 559.35352 435.46179
9.2700197e-05 -5.4634845e+21 1.6283608e-314 561.3468 435.68478
4.3437009e-05 -5.5834603e+21 1.628374e-314 562.94458 435.82797
0.000291379 -5.558668e+21 1.6283712e-314 565.12707 436.0517
0.00169611 -5.5608072e+21 1.6283715e-314 567.23102 436.15637
0.0064640018 -5.5556461e+21 1.6283709e-314 569.15241 436.38284
0.0053315023 -5.6559953e+21 1.6283819e-314 571.02173 436.53888
0.0083393772 -5.7014457e+21 1.6283869e-314 572.80945 436.71658
0.014671253 -5.7180504e+21 1.6283887e-314 574.66492 436.87335
0.029835004 -5.718789e+21 1.6283888e-314 576.53772 437.01807
0.054585018 -5.7279358e+21 1.6283898e-314 578.53986 437.25021
0.066645042 -5.7796597e+21 1.6283955e-314 580.44922 437.46506
0.10899003 -5.8240832e+21 1.6284003e-314 582.52167 437.6087
0.23075 -5.8378057e+21 1.6284019e-314 584.69141 437.74997
0.35284001 -5.882004e+21 1.6284067e-314 586.85059 437.97494
0.49018008 -5.9188254e+21 1.6284107e-314 588.91425 438.21448
0.90988028 -5.9475269e+21 1.6284139e-314 590.8938 438.32608
1.3371203 -5.983389e+21 1.6284178e-314 592.91473 438.57105
1.9847205 -6.0221245e+21 1.6284221e-314 594.76917 438.68658
2.3483205 -6.0711957e+21 1.6284275e-314 596.81366 438.94211
3.1298413 -6.0891245e+21 1.6284294e-314 598.95026 439.19717
4.2329607 -6.1183439e+21 1.6284326e-314 601.10242 439.30423
5.1156817 -6.1787011e+21 1.6284393e-314 603.20966 439.48737
6.91504 -6.2060019e+21 1.6284422e-314 605.5202 439.69714
8.9462453 -6.258613e+21 1.628448e-314 607.86658 439.84421
11.690882 -6.3039192e+21 1.628453e-314 610.12109 440.04178
15.61664 -6.3211095e+21 1.6284549e-314 612.35821 440.24075
17.973118 -6.3836059e+21 1.6284617e-314 614.42816 440.44797
23.144962 -6.4165182e+21 1.6284653e-314 616.55261 440.68417
29.623676 -6.4635943e+21 1.6284705e-314 618.73468 440.79273
40.259835 -6.5035097e+21 1.6284749e-314 621.05786 440.98239
44.92289 -6.5637949e+21 1.6284815e-314 623.26434 441.27097
59.640328 -6.5961128e+21 1.628485e-314 625.7337 441.49835
85.091874 -6.6526329e+21 1.6284912e-314 628.19684 441.59692
