# .PCD v0.7 - Point Cloud Data file format
VERSION 0.7
FIELDS x y z p_x p_y
SIZE 8 8 8 8 8
TYPE F F F F F
COUNT 1 1 1 1 1
WIDTH 741
HEIGHT 1
VIEWPOINT 0 0 0 1 0 0 0
POINTS 741
DATA ascii
-2.1524051e+14 -1.7219673e+22 1.629224e-314 216.09306 829.40747
-2.1423777e+14 -1.7163594e+22 1.6292209e-314 219.68088 828.77118
-2.1140537e+14 -1.7069145e+22 1.6292158e-314 223.15626 828.18115
-2.1216182e+14 -1.703299e+22 1.6292138e-314 226.23332 827.81903
-2.0896006e+14 -1.6959942e+22 1.6292098e-314 229.05942 827.1344
-2.0813328e+14 -1.691641e+22 1.6292074e-314 231.54314 826.71411
-2.0677862e+14 -1.6819006e+22 1.629202e-314 236.44496 826.03064
-2.0465006e+14 -1.6752605e+22 1.6291984e-314 238.46823 825.70483
-2.0651475e+14 -1.6757766e+22 1.6291987e-314 240.44499 825.4693
-2.0978697e+14 -1.6802036e+22 1.6292011e-314 241.91263 825.26306
-2.0778136e+14 -1.6735635e+22 1.6291975e-314 243.84497 824.98639
-2.1381552e+14 -1.6819006e+22 1.629202e-314 245.60901 824.85547
-2.0994522e+14 -1.6723088e+22 1.6291968e-314 247.57181 824.49286
-2.1057859e+14 -1.6736365e+22 1.6291975e-314 249.26218 824.02991
-2.1008601e+14 -1.6685456e+22 1.6291947e-314 251.23138 823.87476
-2.15821e+14 -1.6737103e+22 1.6291976e-314 256.08929 823.14581
-2.1110633e+14 -1.6686195e+22 1.6291948e-314 259.37692 821.87097
-2.0806295e+14 -1.6634538e+22 1.6291919e-314 261.57108 821.19775
-2.083444e+14 -1.6600599e+22 1.6291901e-314 263.61758 821.00677
-2.1091279e+14 -1.6666271e+22 1.6291937e-314 265.21005 820.44806
-2.1022667e+14 -1.6631593e+22 1.6291918e-314 267.216 820.09918
-2.7331236e+14 -1.6652256e+22 1.6291929e-314 377.96362 801.33441
-2.7086705e+14 -1.6597645e+22 1.6291899e-314 380.00021 800.84357
-2.754585e+14 -1.6708325e+22 1.629196e-314 381.22138 800.32544
-2.7389285e+14 -1.6661848e+22 1.6291934e-314 382.75656 800.0509
-2.7610946e+14 -1.6700949e+22 1.6291956e-314 384.20297 799.70349
-2.788538e+14 -1.6751128e+22 1.6291983e-314 385.56287 799.36841
-2.7966314e+14 -1.6740796e+22 1.6291978e-314 387.53534 799.07184
-2.8154537e+14 -1.6756289e+22 1.6291986e-314 389.57355 798.70319
-2.7649647e+14 -1.6631593e+22 1.6291918e-314 391.80893 798.33618
-6.0028088e+14 -1.7261728e+22 1.6292263e-314 626.67627 756.58344
-5.997177e+14 -1.7249928e+22 1.6292257e-314 628.49231 756.13916
-6.0260284e+14 -1.726026e+22 1.6292262e-314 630.12024 755.83618
-6.1164536e+14 -1.7350278e+22 1.6292312e-314 631.49097 755.41742
-6.0664924e+14 -1.7270591e+22 1.6292268e-314 633.15735 755.24445
-6.0907697e+14 -1.7275752e+22 1.6292271e-314 634.83478 754.93426
-6.0883054e+14 -1.7285345e+22 1.6292276e-314 636.06818 754.49182
-6.2308017e+14 -1.742628e+22 1.6292354e-314 637.15802 754.13422
-6.1896345e+14 -1.7324454e+22 1.6292298e-314 638.94708 754.18878
-6.2582466e+14 -1.738791e+22 1.6292333e-314 640.35303 753.80762
-6.2878013e+14 -1.7376101e+22 1.6292326e-314 642.03693 753.69067
-6.2944854e+14 -1.7364293e+22 1.629232e-314 643.48212 753.44971
-6.2976529e+14 -1.73547e+22 1.6292314e-314 645.17468 753.08911
-6.3352983e+14 -1.7394548e+22 1.6292336e-314 646.82111 752.59631
-2.1177487e+14 -1.7502274e+22 1.6292395e-314 210.23221 827.82324
-2.1682374e+14 -1.7562784e+22 1.6292428e-314 214.07037 827.17114
-2.0662038e+14 -1.7254351e+22 1.6292259e-314 218.08926 827.0072
-2.0313702e+14 -1.7148841e+22 1.6292201e-314 221.69638 826.35675
-2.0350652e+14 -1.7128917e+22 1.629219e-314 224.58041 825.82843
-1.9967139e+14 -1.7001267e+22 1.629212e-314 227.45836 825.50787
-2.0139541e+14 -1.7025613e+22 1.6292134e-314 229.72148 825.0025
-1.9974172e+14 -1.6934118e+22 1.6292084e-314 232.52184 824.77002
-2.0223991e+14 -1.6989458e+22 1.6292114e-314 234.51062 824.19788
-1.9910848e+14 -1.6900917e+22 1.6292065e-314 236.57185 823.87592
-2.0067413e+14 -1.689944e+22 1.6292065e-314 238.51735 823.65216
-2.0292603e+14 -1.6918626e+22 1.6292075e-314 240.14177 823.45233
-2.025917e+14 -1.6876562e+22 1.6292052e-314 241.81573 823.32153
-2.0299636e+14 -1.6868446e+22 1.6292048e-314 243.70136 822.96014
-2.0516022e+14 -1.6882471e+22 1.6292055e-314 245.59795 822.71899
-2.0479072e+14 -1.6872878e+22 1.629205e-314 247.35406 822.26721
-2.0853781e+14 -1.6941495e+22 1.6292088e-314 248.84746 821.92938
-2.0250378e+14 -1.6769574e+22 1.6291993e-314 251.13875 821.77014
-2.0456201e+14 -1.6865492e+22 1.6292046e-314 252.53445 820.90936
-2.083444e+14 -1.685517e+22 1.629204e-314 254.74106 821.0943
-1.9756041e+14 -1.6632332e+22 1.6291918e-314 263.41467 818.82294
-1.969622e+14 -1.6149762e+22 1.6291653e-314 288.43759 816.35846
-2.0039267e+14 -1.6193294e+22 1.6291677e-314 290.24759 816.09772
-1.9896768e+14 -1.6194032e+22 1.6291678e-314 293.9184 814.85028
-1.9384835e+14 -1.5991857e+22 1.6291567e-314 298.31781 814.57385
-1.9933718e+14 -1.6083352e+22 1.6291617e-314 299.76666 814.34589
-2.0229266e+14 -1.6107707e+22 1.629163e-314 303.29392 813.71082
-2.1587388e+14 -1.6106969e+22 1.629163e-314 335.28037 807.55084
-2.0857311e+14 -1.5853876e+22 1.6291491e-314 337.92355 807.81982
-2.1617292e+14 -1.5975626e+22 1.6291558e-314 339.32956 807.70441
-2.1981451e+14 -1.6047936e+22 1.6291598e-314 340.72607 807.32916
-2.7639084e+14 -1.6946665e+22 1.629209e-314 384.65057 797.44061
-2.7107797e+14 -1.6793182e+22 1.6292006e-314 387.36081 797.14386
-2.7190488e+14 -1.6815322e+22 1.6292018e-314 389.37616 796.54645
-5.9085127e+14 -1.7455788e+22 1.629237e-314 627.87012 753.78027
-5.9071061e+14 -1.7424065e+22 1.6292352e-314 629.62091 753.56494
-5.887403e+14 -1.7407834e+22 1.6292343e-314 631.0434 753.15277
-6.0130093e+14 -1.7519253e+22 1.6292405e-314 632.41278 752.84082
-6.0087895e+14 -1.7453581e+22 1.6292369e-314 635.34766 752.5658
-6.0714155e+14 -1.748752e+22 1.6292387e-314 638.2981 751.97784
-6.0573441e+14 -1.7434396e+22 1.6292358e-314 640.03107 751.84552
-6.1987827e+14 -1.75709e+22 1.6292433e-314 641.32587 751.46491
-6.2455818e+14 -1.7617386e+22 1.6292458e-314 642.86365 751.02039
-1.9903815e+14 -1.7386432e+22 1.6292332e-314 213.2617 825.74536
-1.9680382e+14 -1.7291244e+22 1.6292279e-314 216.77646 825.25452
-1.9745478e+14 -1.7284606e+22 1.6292276e-314 220.13556 824.53449
-1.9386593e+14 -1.7131871e+22 1.6292192e-314 225.83784 823.72607
-1.9126238e+14 -1.7047753e+22 1.6292146e-314 228.21814 823.37299
-1.9150867e+14 -1.703299e+22 1.6292138e-314 230.65456 822.89569
-1.9159658e+14 -1.7018236e+22 1.629213e-314 232.63675 822.51605
-1.950798e+14 -1.7096446e+22 1.6292173e-314 234.24852 822.01489
-1.9319753e+14 -1.7006428e+22 1.6292123e-314 236.30939 821.92572
-1.9754269e+14 -1.7058084e+22 1.6292152e-314 238.10655 821.77148
-1.9741962e+14 -1.7048491e+22 1.6292146e-314 239.97697 821.33771
-1.9317995e+14 -1.691051e+22 1.6292071e-314 241.9503 821.27741
-1.9699737e+14 -1.7009382e+22 1.6292125e-314 243.48535 820.67462
-1.9509738e+14 -1.6954042e+22 1.6292095e-314 245.28049 820.34747
-1.9800011e+14 -1.7009382e+22 1.6292125e-314 246.84918 819.95764
-2.0041026e+14 -1.701602e+22 1.6292129e-314 248.35693 819.92993
-1.9281044e+14 -1.6812368e+22 1.6292017e-314 250.82129 819.71881
-2.0000572e+14 -1.6915671e+22 1.6292073e-314 253.15951 819.46497
-1.9766591e+14 -1.685e+22 1.6292037e-314 255.98583 818.87592
-2.0440377e+14 -1.6043513e+22 1.6291595e-314 336.71872 805.67706
-1.9982976e+14 -1.596234e+22 1.6291551e-314 338.50128 805.10986
-2.0574071e+14 -1.6083352e+22 1.6291617e-314 339.87036 804.71265
-2.7178167e+14 -1.7084646e+22 1.6292166e-314 382.17792 796.07916
-2.6581798e+14 -1.6980604e+22 1.6292109e-314 387.07779 794.63501
-5.8451835e+14 -1.7691912e+22 1.6292499e-314 625.56171 751.85553
-5.7934613e+14 -1.7606316e+22 1.6292452e-314 628.78955 751.2829
-5.8068294e+14 -1.7601155e+22 1.6292449e-314 630.17322 751.05389
-5.8965513e+14 -1.7673465e+22 1.6292489e-314 631.53278 750.79413
-5.9042929e+14 -1.7661656e+22 1.6292483e-314 632.9845 750.56317
-5.9180154e+14 -1.7640994e+22 1.6292471e-314 634.55463 750.42267
-5.9911962e+14 -1.7708881e+22 1.6292509e-314 636.08514 750.01483
-6.0225119e+14 -1.7717735e+22 1.6292513e-314 637.53839 749.79327
-5.9904929e+14 -1.7657972e+22 1.6292481e-314 639.40265 749.53247
-5.9718474e+14 -1.7646164e+22 1.6292474e-314 641.09039 749.01733
-1.9154383e+14 -1.7497851e+22 1.6292393e-314 211.81796 823.78754
-1.9170221e+14 -1.7465381e+22 1.6292375e-314 215.12085 823.22473
-1.8934481e+14 -1.7378317e+22 1.6292327e-314 218.32782 822.71716
-1.8480597e+14 -1.7241074e+22 1.6292252e-314 221.39024 822.29614
-1.8473564e+14 -1.7231482e+22 1.6292247e-314 223.86787 821.71435
-1.8628371e+14 -1.7238858e+22 1.6292251e-314 226.47469 821.23657
-1.8404952e+14 -1.7168764e+22 1.6292212e-314 228.75862 820.84479
-1.8341628e+14 -1.7126701e+22 1.6292189e-314 230.51875 820.63196
-1.8652999e+14 -1.7154002e+22 1.6292204e-314 232.47025 820.43127
-1.8431339e+14 -1.7066938e+22 1.6292156e-314 234.65608 820.2265
-1.880782e+14 -1.7140725e+22 1.6292197e-314 236.24092 819.82398
-1.8668837e+14 -1.7100877e+22 1.6292175e-314 238.09265 819.43665
-1.8747999e+14 -1.7098661e+22 1.6292174e-314 239.79894 819.146
-1.8990772e+14 -1.7120801e+22 1.6292186e-314 241.52832 818.92212
-1.9161416e+14 -1.7108993e+22 1.629218e-314 243.40178 818.83679
-1.9055867e+14 -1.7052175e+22 1.6292148e-314 245.31087 818.64087
-1.9405947e+14 -1.7165072e+22 1.629221e-314 246.17914 818.03943
-1.8619579e+14 -1.6869185e+22 1.6292048e-314 251.21899 817.91309
-1.9140304e+14 -1.6906817e+22 1.6292069e-314 255.82584 817.27942
-1.9963622e+14 -1.7092762e+22 1.6292171e-314 257.24536 816.72986
-2.0002331e+14 -1.7111208e+22 1.6292181e-314 258.55664 816.28742
-1.8178016e+14 -1.611213e+22 1.6291633e-314 307.08871 808.94855
-1.8294128e+14 -1.6112869e+22 1.6291633e-314 308.94723 808.6571
-1.9543172e+14 -1.6100321e+22 1.6291626e-314 334.11981 804.25525
-1.9349657e+14 -1.6051629e+22 1.62916e-314 337.73593 803.37787
-1.9384835e+14 -1.605089e+22 1.6291599e-314 339.26596 803.03259
-2.6043477e+14 -1.7097184e+22 1.6292173e-314 382.94388 793.77753
-2.6335508e+14 -1.7192372e+22 1.6292225e-314 384.7504 792.9621
-5.8110546e+14 -1.7888187e+22 1.6292607e-314 626.44379 749.6474
-5.7895905e+14 -1.7838008e+22 1.6292579e-314 628.11469 749.44183
-5.7614423e+14 -1.7766437e+22 1.629254e-314 631.17877 748.98401
-5.838494e+14 -1.7823993e+22 1.6292572e-314 632.65851 748.71924
-5.8641833e+14 -1.7823255e+22 1.6292571e-314 634.30139 748.48175
-5.8388484e+14 -1.7797422e+22 1.6292557e-314 635.79651 748.08246
-5.9911962e+14 -1.7971567e+22 1.6292653e-314 637.0459 747.50238
-1.8617821e+14 -1.7663872e+22 1.6292484e-314 206.3625 822.80688
-1.8568563e+14 -1.764321e+22 1.6292473e-314 209.92906 821.95129
-1.8190324e+14 -1.7502274e+22 1.6292395e-314 213.70819 821.50891
-1.7432101e+14 -1.7291983e+22 1.629228e-314 217.16687 821.07245
-1.7629146e+14 -1.7305269e+22 1.6292287e-314 219.92837 820.5802
-1.7937002e+14 -1.7365031e+22 1.629232e-314 222.20282 820.00452
-1.7703033e+14 -1.7283129e+22 1.6292275e-314 224.71719 819.6358
-1.7442664e+14 -1.7208603e+22 1.6292234e-314 227.13747 819.18164
-1.8030243e+14 -1.729346e+22 1.6292281e-314 228.94272 819.01233
-1.7697745e+14 -1.7202704e+22 1.6292231e-314 230.84486 818.70886
-1.785784e+14 -1.7225573e+22 1.6292243e-314 232.47163 818.36157
-1.813755e+14 -1.726026e+22 1.6292262e-314 234.39314 818.04999
-1.7875436e+14 -1.7187941e+22 1.6292223e-314 236.18433 817.74487
-1.7870148e+14 -1.7151786e+22 1.6292203e-314 238.22008 817.51056
-1.8353936e+14 -1.7203442e+22 1.6292231e-314 241.48354 817.05402
-1.8904577e+14 -1.7301576e+22 1.6292285e-314 244.21208 816.45148
-1.8612546e+14 -1.7228527e+22 1.6292245e-314 245.62711 816.19488
-1.8909852e+14 -1.716064e+22 1.6292208e-314 253.23369 815.30762
-1.8865869e+14 -1.7161379e+22 1.6292208e-314 254.47041 814.89435
-1.8784949e+14 -1.7145148e+22 1.6292199e-314 255.94917 814.49365
-1.8816611e+14 -1.7196065e+22 1.6292227e-314 257.67758 813.6438
-1.678999e+14 -1.6138692e+22 1.6291647e-314 300.9733 807.84216
-1.784376e+14 -1.6004404e+22 1.6291574e-314 333.76843 802.15759
-1.8390886e+14 -1.6059005e+22 1.6291604e-314 335.56662 802.17017
-2.6766508e+14 -1.7473505e+22 1.6292379e-314 377.69318 793.14929
-2.5380254e+14 -1.7195327e+22 1.6292227e-314 381.2648 792.20593
-5.6794621e+14 -1.8020999e+22 1.629268e-314 625.96173 747.56555
-5.636185e+14 -1.7930981e+22 1.629263e-314 627.81287 747.47687
-5.674888e+14 -1.7957543e+22 1.6292645e-314 629.13257 747.20184
-5.668204e+14 -1.7925081e+22 1.6292627e-314 630.84454 746.95319
-5.7241459e+14 -1.7985582e+22 1.629266e-314 632.30225 746.49567
-5.722036e+14 -1.7944257e+22 1.6292638e-314 633.90698 746.39209
-1.8250145e+14 -1.780923e+22 1.6292564e-314 208.49178 820.3067
-1.7924694e+14 -1.769855e+22 1.6292503e-314 211.93683 819.77618
-1.7516551e+14 -1.7574593e+22 1.6292435e-314 215.25191 819.24719
-1.7264987e+14 -1.7510399e+22 1.62924e-314 217.91895 818.6463
-1.6839248e+14 -1.7389387e+22 1.6292333e-314 220.65122 818.22363
-1.6698507e+14 -1.7311907e+22 1.6292291e-314 223.15184 817.98676
-1.690786e+14 -1.7330354e+22 1.6292301e-314 225.25076 817.64874
-1.6818136e+14 -1.7283867e+22 1.6292275e-314 227.20718 817.37305
-1.7301924e+14 -1.7378317e+22 1.6292327e-314 228.66809 817.02741
-1.7226278e+14 -1.7334785e+22 1.6292303e-314 230.66524 816.74292
-1.6849811e+14 -1.7226311e+22 1.6292244e-314 232.73186 816.46918
-1.750776e+14 -1.7363554e+22 1.6292319e-314 234.30159 816.03058
-1.7757566e+14 -1.7371679e+22 1.6292324e-314 236.20035 815.90192
-1.7451456e+14 -1.728756e+22 1.6292277e-314 237.79336 815.6709
-1.7644971e+14 -1.7332569e+22 1.6292302e-314 239.52672 815.16309
-1.7646729e+14 -1.7298621e+22 1.6292284e-314 241.08025 815.05102
-1.7871906e+14 -1.7311907e+22 1.6292291e-314 242.50064 814.96326
-1.8218483e+14 -1.7429226e+22 1.6292355e-314 243.27173 814.3457
-1.7813857e+14 -1.7286822e+22 1.6292277e-314 245.45866 814.28998
-1.8197371e+14 -1.7269114e+22 1.6292267e-314 251.18913 813.61261
-1.7829694e+14 -1.7184257e+22 1.6292221e-314 253.28648 813.13739
-1.7681921e+14 -1.7201965e+22 1.6292231e-314 254.63266 812.36243
-1.7790986e+14 -1.7263944e+22 1.6292265e-314 256.43747 811.53345
-1.6121492e+14 -1.6187394e+22 1.6291674e-314 297.08679 807.23584
-1.635899e+14 -1.6236835e+22 1.6291701e-314 300.53198 806.30182
-1.60863e+14 -1.6137954e+22 1.6291647e-314 302.54492 806.16089
-1.6316765e+14 -1.6159355e+22 1.6291659e-314 304.26953 805.92456
-1.6058155e+14 -1.6102537e+22 1.6291627e-314 308.17569 804.91956
-2.5051273e+14 -1.7461697e+22 1.6292373e-314 378.69797 789.98932
-2.4674805e+14 -1.7369463e+22 1.6292322e-314 380.86383 789.55579
-5.5116329e+14 -1.8036491e+22 1.6292688e-314 627.38403 745.67731
-5.5450585e+14 -1.8090363e+22 1.6292718e-314 628.64136 745.14551
-5.5851681e+14 -1.8096263e+22 1.6292721e-314 630.49841 744.91632
-5.5932614e+14 -1.8096263e+22 1.6292721e-314 632.07495 744.55328
-1.7226278e+14 -1.7887449e+22 1.6292607e-314 203.72163 819.04303
-1.6791749e+14 -1.7716997e+22 1.6292513e-314 207.12537 818.84955
-1.6587684e+14 -1.770372e+22 1.6292506e-314 210.41678 817.7265
-1.6394169e+14 -1.7594508e+22 1.6292446e-314 213.41916 817.53918
-1.6480363e+14 -1.7583447e+22 1.629244e-314 216.08711 817.08441
-1.6037042e+14 -1.7455788e+22 1.629237e-314 218.8869 816.66132
-1.6228799e+14 -1.7500067e+22 1.6292394e-314 221.0159 816.0553
-1.5847057e+14 -1.7362825e+22 1.6292319e-314 223.49655 815.90936
-1.6117976e+14 -1.7401925e+22 1.629234e-314 226.8942 815.15723
-1.6026493e+14 -1.7335515e+22 1.6292304e-314 228.86 815.05359
-1.6691474e+14 -1.7445466e+22 1.6292364e-314 232.33513 814.36517
-1.6392411e+14 -1.7375363e+22 1.6292326e-314 234.12215 813.96613
-1.664925e+14 -1.7407095e+22 1.6292343e-314 235.80215 813.70813
-1.6619346e+14 -1.7368724e+22 1.6292322e-314 237.62808 813.50452
-1.6992297e+14 -1.7417426e+22 1.6292349e-314 239.19016 813.33191
-1.7474326e+14 -1.7542122e+22 1.6292417e-314 241.09863 812.60327
-1.715415e+14 -1.7445466e+22 1.6292364e-314 242.91095 812.39142
-1.7467293e+14 -1.7417426e+22 1.6292349e-314 249.04752 811.56952
-1.7108408e+14 -1.7377578e+22 1.6292327e-314 251.00963 810.75537
-1.6580651e+14 -1.7275752e+22 1.6292271e-314 252.97078 810.17676
-1.444671e+14 -1.6213218e+22 1.6291688e-314 289.19067 806.08868
-1.4759853e+14 -1.6258227e+22 1.6291713e-314 291.04041 805.75989
-1.4868932e+14 -1.6223549e+22 1.6291694e-314 292.96524 805.75299
-1.4731708e+14 -1.6209534e+22 1.6291686e-314 295.05109 805.07269
-1.4638467e+14 -1.6211002e+22 1.6291687e-314 296.59302 804.48138
-1.4376339e+14 -1.6163786e+22 1.6291661e-314 298.5947 803.89227
-1.4624401e+14 -1.6180017e+22 1.629167e-314 300.16733 803.77856
-1.4559305e+14 -1.6101799e+22 1.6291627e-314 302.16589 803.82184
-1.4983272e+14 -1.6237573e+22 1.6291702e-314 303.60132 803.00201
-1.5058917e+14 -1.6236096e+22 1.6291701e-314 305.68518 802.59204
-1.5118738e+14 -1.6213218e+22 1.6291688e-314 307.52258 802.41284
-2.4090743e+14 -1.7556876e+22 1.6292425e-314 376.26358 788.14594
-5.5394294e+14 -1.8385511e+22 1.629288e-314 626.03449 743.32391
-5.4778557e+14 -1.8299177e+22 1.6292832e-314 628.31512 742.92291
-5.4718749e+14 -1.8273353e+22 1.6292818e-314 630.16644 742.58777
-1.6431106e+14 -1.7998868e+22 1.6292668e-314 201.42 817.25537
-1.6395927e+14 -1.7939096e+22 1.6292635e-314 204.93497 816.78021
-1.5595479e+14 -1.7745775e+22 1.6292529e-314 208.56343 816.06799
-1.5357995e+14 -1.7606316e+22 1.6292452e-314 214.65443 815.24188
-1.5405494e+14 -1.7614432e+22 1.6292457e-314 216.89662 814.66193
-1.5287624e+14 -1.7541383e+22 1.6292417e-314 219.36765 814.43323
-1.5796027e+14 -1.762624e+22 1.6292463e-314 221.26738 814.10614
-1.5113463e+14 -1.7459481e+22 1.6292372e-314 225.0862 813.31946
-1.573622e+14 -1.7550237e+22 1.6292422e-314 226.69365 813.22693
-1.5685204e+14 -1.7526629e+22 1.6292409e-314 228.41087 812.88666
-1.5780203e+14 -1.7551715e+22 1.6292422e-314 230.02376 812.41376
-1.5818898e+14 -1.7512605e+22 1.6292401e-314 232.07243 812.28009
-1.5767882e+14 -1.7486043e+22 1.6292386e-314 233.87634 811.94226
-1.5987784e+14 -1.7511128e+22 1.62924e-314 235.61433 811.66034
-1.6452218e+14 -1.7611486e+22 1.6292455e-314 236.78569 811.3078
-1.6703796e+14 -1.7641732e+22 1.6292472e-314 237.8615 811.20709
-1.6809344e+14 -1.7666827e+22 1.6292486e-314 239.03508 810.8714
-1.6883231e+14 -1.7667556e+22 1.6292486e-314 240.61578 810.57532
-1.7045085e+14 -1.7565e+22 1.629243e-314 246.79793 810.12299
-1.3615474e+14 -1.6245689e+22 1.6291706e-314 286.51346 804.1806
-1.3444836e+14 -1.6142385e+22 1.6291649e-314 289.09393 803.79437
-1.362691e+14 -1.6221333e+22 1.6291693e-314 290.79529 803.29822
-1.3730707e+14 -1.6225026e+22 1.6291695e-314 292.61383 803.1579
-1.3867045e+14 -1.6283321e+22 1.6291727e-314 294.26056 802.69647
-1.3841537e+14 -1.6166732e+22 1.6291663e-314 301.79156 801.63117
-1.5428351e+14 -1.803723e+22 1.6292689e-314 199.58618 815.60846
-1.5175029e+14 -1.7972297e+22 1.6292653e-314 203.35439 814.72247
-1.5217254e+14 -1.7967874e+22 1.6292651e-314 206.21039 814.07941
-1.4599772e+14 -1.7744297e+22 1.6292528e-314 212.30525 813.30206
-1.4700046e+14 -1.7699289e+22 1.6292503e-314 215.17938 813.11243
-1.5122254e+14 -1.7776768e+22 1.6292546e-314 217.24156 812.65008
-1.4795045e+14 -1.770962e+22 1.6292509e-314 219.09817 812.15796
-1.5180304e+14 -1.7763483e+22 1.6292539e-314 220.89697 811.90887
-1.5088834e+14 -1.7719212e+22 1.6292514e-314 222.71498 811.64362
-1.5176787e+14 -1.7742082e+22 1.6292527e-314 224.25209 811.1994
-1.4810869e+14 -1.762624e+22 1.6292463e-314 226.29039 811.013
-1.5417802e+14 -1.7754629e+22 1.6292534e-314 227.78401 810.5932
-1.5175029e+14 -1.765428e+22 1.6292479e-314 231.55322 810.03064
-1.5512801e+14 -1.7713313e+22 1.6292511e-314 233.20653 809.68835
-1.5683446e+14 -1.7742082e+22 1.6292527e-314 234.5789 809.38068
-1.5781961e+14 -1.7757583e+22 1.6292535e-314 235.64705 809.14294
-1.6084542e+14 -1.7839486e+22 1.629258e-314 236.56628 808.72882
-1.6232316e+14 -1.770445e+22 1.6292506e-314 244.14481 808.15906
-1.5574367e+14 -1.7576061e+22 1.6292436e-314 246.98633 807.34302
-1.3004146e+14 -1.6154194e+22 1.6291656e-314 288.99115 802.11548
-1.428134e+14 -1.8129463e+22 1.6292739e-314 197.56126 813.28571
-1.4798562e+14 -1.8157503e+22 1.6292755e-314 201.3604 812.9751
-1.4385144e+14 -1.8060846e+22 1.6292702e-314 204.2601 812.30121
-1.3826585e+14 -1.784244e+22 1.6292582e-314 207.89793 811.77936
-1.4053521e+14 -1.7914011e+22 1.6292621e-314 210.06523 811.4054
-1.3944449e+14 -1.7829893e+22 1.6292575e-314 212.92581 810.98718
-1.4028013e+14 -1.7808492e+22 1.6292563e-314 216.87671 810.42932
-1.3954126e+14 -1.7767914e+22 1.6292541e-314 218.72696 810.02557
-1.4305983e+14 -1.7836531e+22 1.6292579e-314 220.46858 809.82373
-1.4117742e+14 -1.7818084e+22 1.6292568e-314 221.97908 809.24573
-1.4034173e+14 -1.7735443e+22 1.6292523e-314 224.04285 809.19159
-1.4186354e+14 -1.7778237e+22 1.6292547e-314 225.77049 808.71228
-1.4369306e+14 -1.777603e+22 1.6292545e-314 227.70699 808.54626
-1.4258483e+14 -1.7745036e+22 1.6292528e-314 229.43512 808.159
-1.4596242e+14 -1.7806276e+22 1.6292562e-314 231.14203 807.78406
-1.4868932e+14 -1.7836531e+22 1.6292579e-314 232.58604 807.63415
-1.5083546e+14 -1.789261e+22 1.6292609e-314 233.60002 807.26672
-1.4722916e+14 -1.7794477e+22 1.6292556e-314 234.9819 807.10266
-1.5481139e+14 -1.7839486e+22 1.629258e-314 241.28804 806.40851
-1.5240124e+14 -1.7853501e+22 1.6292588e-314 243.87584 805.16962
-8.8242436e+13 -1.3418167e+22 1.6290155e-314 359.94418 792.6145
-2.2679847e+14 -1.8221697e+22 1.629279e-314 371.69501 781.22754
-1.4163484e+14 -1.8394365e+22 1.6292885e-314 195.31355 811.40076
-1.4024496e+14 -1.8296223e+22 1.6292831e-314 198.86626 810.96997
-1.3794917e+14 -1.8190712e+22 1.6292773e-314 202.16446 810.17908
-1.3987553e+14 -1.8248268e+22 1.6292804e-314 204.76276 809.69934
-1.3519602e+14 -1.795312e+22 1.6292643e-314 210.63516 809.00671
-1.3550385e+14 -1.7944996e+22 1.6292638e-314 212.79994 808.61456
-1.372103e+14 -1.7998868e+22 1.6292668e-314 214.43445 808.336
-1.3659457e+14 -1.7926549e+22 1.6292628e-314 216.43135 808.20886
-1.3648901e+14 -1.7901464e+22 1.6292614e-314 219.78513 807.50311
-1.3708715e+14 -1.7925811e+22 1.6292628e-314 221.47032 807.0639
-1.3960286e+14 -1.8029853e+22 1.6292685e-314 222.94826 806.68866
-1.3911028e+14 -1.7972297e+22 1.6292653e-314 224.98863 806.46991
-1.3730707e+14 -1.7879333e+22 1.6292602e-314 227.05942 806.07617
-1.4101904e+14 -1.8001075e+22 1.6292669e-314 228.64131 805.8891
-1.4151162e+14 -1.8000336e+22 1.6292668e-314 230.02686 805.62073
-1.4041206e+14 -1.7979683e+22 1.6292657e-314 231.19119 805.23926
-1.4320049e+14 -1.8087409e+22 1.6292716e-314 231.81787 804.70099
-1.4251436e+14 -1.7908841e+22 1.6292618e-314 241.66605 803.52124
-1.2173795e+14 -1.6259704e+22 1.6291714e-314 297.40671 795.9563
-1.1955657e+14 -1.6137215e+22 1.6291646e-314 299.61578 795.65692
-1.2156205e+14 -1.6204364e+22 1.6291683e-314 303.18817 794.84808
-7.9551905e+13 -1.3291994e+22 1.6290086e-314 360.06967 790.5119
-7.5690461e+13 -1.3142943e+22 1.6290004e-314 362.5889 789.7724
-4.9753799e+13 -8.3556399e+21 1.6286781e-314 571.44452 761.62286
-5.0189637e+13 -8.3740866e+21 1.6286801e-314 573.37231 761.25134
-1.3597885e+14 -1.8429781e+22 1.6292904e-314 193.21588 809.7898
-1.3177435e+14 -1.8215797e+22 1.6292787e-314 197.47455 808.98663
-1.3527515e+14 -1.8368532e+22 1.629287e-314 200.02589 808.27118
-1.3239007e+14 -1.8218752e+22 1.6292788e-314 203.0578 807.71802
-1.3337523e+14 -1.8215059e+22 1.6292786e-314 205.7265 807.40155
-1.3406128e+14 -1.8228344e+22 1.6292794e-314 208.14232 806.90008
-1.3399095e+14 -1.8183335e+22 1.6292769e-314 210.31146 806.69037
-1.3251321e+14 -1.810364e+22 1.6292725e-314 212.18979 806.3512
-1.3348079e+14 -1.8130941e+22 1.629274e-314 213.78065 806.04205
-1.327595e+14 -1.806453e+22 1.6292704e-314 215.70785 805.84582
-1.3219653e+14 -1.8027637e+22 1.6292683e-314 217.41791 805.51386
-1.3482659e+14 -1.8134633e+22 1.6292742e-314 219.00278 805.12408
-1.3364789e+14 -1.8055676e+22 1.6292699e-314 220.92633 804.86707
-1.3359514e+14 -1.8029114e+22 1.6292684e-314 222.96469 804.54211
-1.3604046e+14 -1.8117664e+22 1.6292733e-314 224.50575 804.25677
-1.3541587e+14 -1.8070439e+22 1.6292707e-314 226.48306 803.91632
-1.3735982e+14 -1.8138317e+22 1.6292744e-314 227.91457 803.65729
-1.3910149e+14 -1.8217275e+22 1.6292787e-314 228.89004 803.35059
-1.402098e+14 -1.8274092e+22 1.6292819e-314 229.59996 803.07086
-1.3938295e+14 -1.8251214e+22 1.6292806e-314 230.62581 802.70386
-1.1412934e+14 -1.6159355e+22 1.6291659e-314 299.49066 793.53308
-7.0320384e+13 -1.3154751e+22 1.6290011e-314 360.34094 788.24506
-7.1705805e+13 -1.3212307e+22 1.6290042e-314 362.30325 787.72546
-7.2796525e+13 -1.3221161e+22 1.6290047e-314 364.02686 787.58691
-4.7191515e+13 -8.4309041e+21 1.6286863e-314 569.15912 759.53119
-1.334016e+14 -1.8610556e+22 1.6293003e-314 191.26025 807.84699
-1.2968968e+14 -1.843052e+22 1.6292904e-314 195.17168 807.02173
-1.2859016e+14 -1.8362633e+22 1.6292867e-314 198.17409 806.42041
-1.2610083e+14 -1.8249736e+22 1.6292805e-314 201.16812 805.69824
-1.27948e+14 -1.8288107e+22 1.6292826e-314 203.53972 805.41431
-1.2596889e+14 -1.8186281e+22 1.629277e-314 206.19928 804.87463
-1.2837025e+14 -1.8235721e+22 1.6292798e-314 208.05711 804.82355
-1.2940815e+14 -1.8245314e+22 1.6292803e-314 211.76737 804.14288
-1.2831743e+14 -1.8164889e+22 1.6292759e-314 213.49165 803.98389
-1.2997992e+14 -1.8263761e+22 1.6292813e-314 214.76851 803.40637
-1.2810638e+14 -1.8131679e+22 1.629274e-314 216.93419 803.29346
-1.3092112e+14 -1.8258591e+22 1.629281e-314 218.3109 802.85718
-1.2990952e+14 -1.8168573e+22 1.6292761e-314 220.40593 802.71106
-1.3123774e+14 -1.8209898e+22 1.6292783e-314 222.11845 802.38507
-1.3232846e+14 -1.8245314e+22 1.6292803e-314 223.99243 801.98352
-1.3164241e+14 -1.8218013e+22 1.6292788e-314 225.5239 801.57318
-1.3444836e+14 -1.8310247e+22 1.6292838e-314 227.56554 801.25519
-1.3115862e+14 -1.8140533e+22 1.6292745e-314 229.12733 801.11054
-1.0806009e+14 -1.6108446e+22 1.6291631e-314 299.5166 791.7793
-6.9673891e+13 -1.3342903e+22 1.6290114e-314 359.78702 786.18573
-6.8134548e+13 -1.3161389e+22 1.6290014e-314 362.23727 786.04437
-6.7945435e+13 -1.3161389e+22 1.6290014e-314 364.05887 785.41931
-1.2917066e+14 -1.8732306e+22 1.629307e-314 189.17506 805.86285
-1.2718276e+14 -1.8623103e+22 1.629301e-314 192.92293 805.09015
-1.2321575e+14 -1.8452651e+22 1.6292917e-314 196.36934 804.20856
-1.2382268e+14 -1.8412073e+22 1.6292894e-314 199.18872 804.03113
-1.2347962e+14 -1.8361894e+22 1.6292867e-314 201.40132 803.75195
-1.2435043e+14 -1.8394365e+22 1.6292885e-314 203.75096 803.18079
-1.2294302e+14 -1.8320578e+22 1.6292844e-314 205.84918 802.75061
-1.2516848e+14 -1.8346402e+22 1.6292858e-314 207.82597 802.81128
-1.2425366e+14 -1.8282946e+22 1.6292823e-314 209.78209 802.5047
-1.2568744e+14 -1.836411e+22 1.6292868e-314 211.17601 801.97052
-1.2539712e+14 -1.8323523e+22 1.6292846e-314 212.97305 801.74011
-1.2617122e+14 -1.8307292e+22 1.6292837e-314 214.81346 801.66888
-1.2749944e+14 -1.8358949e+22 1.6292865e-314 216.55833 801.24951
-1.266726e+14 -1.8313931e+22 1.629284e-314 218.26535 800.89282
-1.2847581e+14 -1.8382557e+22 1.6292878e-314 219.90431 800.52368
-1.2868687e+14 -1.8384034e+22 1.6292879e-314 221.56149 800.15387
-1.2996234e+14 -1.8411335e+22 1.6292894e-314 224.72586 799.54681
-1.3100904e+14 -1.8475529e+22 1.6292929e-314 225.43777 799.19183
-1.3085952e+14 -1.8479213e+22 1.6292931e-314 226.37602 798.86359
-1.3168637e+14 -1.8324262e+22 1.6292846e-314 233.70804 798.5448
-1.0463841e+14 -1.6103276e+22 1.6291628e-314 299.61758 790.55768
-1.0724203e+14 -1.6248634e+22 1.6291708e-314 301.01044 789.87122
-6.5764028e+13 -1.3184268e+22 1.6290027e-314 360.04993 784.64905
-6.7013058e+13 -1.3268377e+22 1.6290073e-314 361.72607 784.36481
-6.6643624e+13 -1.3286824e+22 1.6290083e-314 363.6069 783.42114
-1.259601e+14 -1.8871765e+22 1.6293146e-314 187.16078 804.0788
-1.2379624e+14 -1.8785431e+22 1.6293099e-314 190.5555 803.14014
-1.2093754e+14 -1.8637857e+22 1.6293018e-314 193.99646 802.46564
-1.1974126e+14 -1.8450444e+22 1.6292915e-314 199.70898 802.12036
-1.2108706e+14 -1.848586e+22 1.6292935e-314 201.9639 801.70935
-1.1923989e+14 -1.8401742e+22 1.6292889e-314 204.00798 801.22937
-1.2143891e+14 -1.848069e+22 1.6292932e-314 205.47621 800.96497
-1.2184351e+14 -1.8457821e+22 1.6292919e-314 207.35641 800.80841
-1.2305737e+14 -1.8488806e+22 1.6292936e-314 210.87141 800.06836
-1.2244165e+14 -1.8428304e+22 1.6292903e-314 212.62175 799.89728
-1.241393e+14 -1.8537507e+22 1.6292963e-314 213.86867 799.25977
-1.237347e+14 -1.8477006e+22 1.629293e-314 216.12595 799.03552
-1.236731e+14 -1.8468891e+22 1.6292925e-314 217.73772 798.65625
-1.2347083e+14 -1.8440851e+22 1.629291e-314 219.56265 798.34564
-1.2495736e+14 -1.8489544e+22 1.6292937e-314 221.30478 798.00952
-1.2675178e+14 -1.8549316e+22 1.629297e-314 222.51827 797.82727
-1.2759615e+14 -1.8595063e+22 1.6292995e-314 223.29872 797.54224
-1.2812396e+14 -1.8646711e+22 1.6293023e-314 224.17081 797.06915
-1.2887162e+14 -1.8583994e+22 1.6292989e-314 225.87257 797.41681
-1.3104427e+14 -1.8592848e+22 1.6292993e-314 228.34706 797.4596
-1.3021742e+14 -1.8530869e+22 1.6292959e-314 230.7066 797.07135
-1.3260992e+14 -1.8603918e+22 1.6293e-314 234.68706 796.26587
-1.3594368e+14 -1.8772893e+22 1.6293092e-314 236.99382 795.43164
-6.2760134e+13 -1.320566e+22 1.6290038e-314 359.95688 782.2395
-6.4149925e+13 -1.3281663e+22 1.629008e-314 361.53714 782.1604
-1.149474e+14 -1.855817e+22 1.6292974e-314 195.02245 800.72968
-1.1613489e+14 -1.8572185e+22 1.6292982e-314 197.33928 800.42822
-1.1846585e+14 -1.863565e+22 1.6293017e-314 200.04907 800.02533
-1.1583579e+14 -1.8529392e+22 1.6292959e-314 201.90797 799.49176
-1.1844827e+14 -1.8611294e+22 1.6293004e-314 203.4052 799.34662
-1.1803481e+14 -1.8547839e+22 1.6292969e-314 205.44258 799.19946
-1.1917835e+14 -1.861941e+22 1.6293008e-314 206.96501 798.60846
-1.1987319e+14 -1.8647449e+22 1.6293023e-314 208.56287 798.20679
-1.2004036e+14 -1.8625319e+22 1.6293011e-314 210.26427 798.01038
-1.1995238e+14 -1.8586948e+22 1.629299e-314 212.14597 797.80554
-1.210431e+14 -1.8658519e+22 1.6293029e-314 213.74512 797.18176
-1.1901997e+14 -1.8549316e+22 1.629297e-314 215.67905 796.87176
-1.2100794e+14 -1.8600963e+22 1.6292998e-314 217.42627 796.68988
-1.2159722e+14 -1.8598018e+22 1.6292996e-314 219.23776 796.45068
-1.2443841e+14 -1.8735261e+22 1.6293072e-314 220.30377 796.03912
-1.2418326e+14 -1.8724191e+22 1.6293065e-314 221.41385 795.7489
-1.223185e+14 -1.8612772e+22 1.6293004e-314 222.78963 795.65747
-1.2296946e+14 -1.8650404e+22 1.6293025e-314 223.71657 795.33087
-1.2668139e+14 -1.8637857e+22 1.6293018e-314 228.19508 795.5852
-1.2829985e+14 -1.8773631e+22 1.6293093e-314 231.73834 794.10113
-1.2736751e+14 -1.8681397e+22 1.6293042e-314 233.09985 794.18494
-1.2847581e+14 -1.8778792e+22 1.6293095e-314 234.49365 793.40363
-1.2780727e+14 -1.8794285e+22 1.6293104e-314 236.57687 792.49676
-1.2745542e+14 -1.8750014e+22 1.629308e-314 238.82086 792.15301
-8.987855e+13 -1.6008088e+22 1.6291576e-314 301.42093 785.57623
-6.0842599e+13 -1.3221891e+22 1.6290047e-314 357.85904 781.21704
-6.1247232e+13 -1.3228538e+22 1.6290051e-314 359.78326 780.95337
-6.0081753e+13 -1.3165821e+22 1.6290017e-314 361.76434 780.12189
-6.0635904e+13 -1.3120073e+22 1.6289992e-314 363.69867 780.43945
-1.1734876e+14 -1.9115272e+22 1.6293218e-314 182.94052 801.02643
-1.1645151e+14 -1.9116749e+22 1.6293218e-314 186.07808 799.89087
-1.1380393e+14 -1.8821586e+22 1.6293119e-314 189.77481 799.48999
-1.1325854e+14 -1.8797239e+22 1.6293106e-314 192.58939 798.77002
-1.111475e+14 -1.8634911e+22 1.6293017e-314 197.62721 798.05621
-1.1282757e+14 -1.8670328e+22 1.6293036e-314 199.72174 797.81512
-1.144812e+14 -1.8731568e+22 1.629307e-314 201.27951 797.48804
-1.1596772e+14 -1.8814209e+22 1.6293115e-314 202.8223 796.92908
-1.1591498e+14 -1.8782485e+22 1.6293097e-314 204.60422 796.71216
-1.1587981e+14 -1.8737467e+22 1.6293073e-314 206.47082 796.58893
-1.1503538e+14 -1.8718291e+22 1.6293062e-314 208.03653 796.04175
-1.1702328e+14 -1.8745592e+22 1.6293077e-314 209.96475 796.01715
-1.1631958e+14 -1.8707221e+22 1.6293056e-314 211.78073 795.6142
-1.1705845e+14 -1.8730829e+22 1.6293069e-314 213.35641 795.26685
-1.1906399e+14 -1.8823801e+22 1.629312e-314 214.91928 794.80188
-1.171728e+14 -1.8689513e+22 1.6293046e-314 217.336 794.61682
-1.177094e+14 -1.869172e+22 1.6293048e-314 218.65834 794.4455
-1.2030423e+14 -1.8812731e+22 1.6293114e-314 219.48206 794.14618
-1.2004036e+14 -1.8825278e+22 1.6293121e-314 220.27876 793.74542
-1.1942464e+14 -1.8816424e+22 1.6293116e-314 221.64085 793.24182
-1.2257359e+14 -1.8960312e+22 1.6293176e-314 222.85555 793.14105
-1.2101673e+14 -1.8767722e+22 1.6293089e-314 227.95718 792.56329
-1.2354995e+14 -1.8882834e+22 1.6293153e-314 229.82155 792.02301
-1.2219536e+14 -1.8874719e+22 1.6293148e-314 231.19026 791.25281
-1.201723e+14 -1.8787646e+22 1.62931e-314 233.60237 790.63055
-1.2014586e+14 -1.8804616e+22 1.629311e-314 235.53941 789.97864
-1.2012827e+14 -1.8791339e+22 1.6293102e-314 237.50472 789.56885
-8.6298493e+13 -1.6080407e+22 1.6291615e-314 301.00107 783.76654
-5.7121849e+13 -1.315032e+22 1.6290008e-314 358.13382 779.01776
-5.7315357e+13 -1.3141466e+22 1.6290003e-314 359.92899 778.76746
-3.5698082e+13 -8.3807295e+21 1.6286808e-314 569.16461 751.18133
-3.4898954e+13 -8.3010383e+21 1.6286721e-314 571.36243 750.53436
-1.1328491e+14 -1.9351387e+22 1.6293283e-314 183.91498 798.3551
-1.0964332e+14 -1.9014914e+22 1.6293191e-314 187.50418 797.51984
-1.0957299e+14 -1.8991297e+22 1.6293184e-314 190.26656 796.87744
-1.1058452e+14 -1.9029668e+22 1.6293195e-314 192.4744 796.50562
-1.0908041e+14 -1.8844464e+22 1.6293131e-314 195.26096 796.20313
-1.1098912e+14 -1.8923419e+22 1.6293165e-314 197.10143 795.88818
-1.0887808e+14 -1.8806832e+22 1.6293111e-314 199.17172 795.42761
-1.1106831e+14 -1.8869549e+22 1.6293145e-314 200.7904 795.26031
-1.1089242e+14 -1.8873242e+22 1.6293147e-314 202.25171 794.78839
-1.1206226e+14 -1.8878403e+22 1.629315e-314 203.88835 794.74023
-1.1098912e+14 -1.8795023e+22 1.6293104e-314 206.1317 794.46301
-1.1246692e+14 -1.8887996e+22 1.6293155e-314 207.4754 793.87329
-1.1267798e+14 -1.8845202e+22 1.6293132e-314 209.42705 793.79144
-1.1275717e+14 -1.8849625e+22 1.6293134e-314 211.11629 793.3457
-1.1399741e+14 -1.893965e+22 1.629317e-314 212.80814 792.81134
-1.1507055e+14 -1.8948513e+22 1.6293172e-314 214.67406 792.66681
-1.1466595e+14 -1.8885041e+22 1.6293154e-314 216.42409 792.34808
-1.1713763e+14 -1.9141825e+22 1.6293225e-314 217.19179 791.94904
-1.1783255e+14 -1.9214135e+22 1.6293245e-314 217.91226 791.7102
-1.1893206e+14 -1.9166919e+22 1.6293232e-314 220.93199 791.51141
-1.2009311e+14 -1.918315e+22 1.6293237e-314 225.44563 790.67847
-1.1496498e+14 -1.8840771e+22 1.6293129e-314 231.65118 788.86713
-1.1748069e+14 -1.9004592e+22 1.6293188e-314 233.522 788.38971
-1.1583579e+14 -1.8980975e+22 1.6293181e-314 235.19395 787.47949
-8.1812534e+13 -1.6109176e+22 1.6291631e-314 299.15244 782.38275
-8.1592618e+13 -1.609516e+22 1.6291623e-314 300.90192 781.96143
-5.5094356e+13 -1.3241076e+22 1.6290058e-314 355.45764 777.39026
-5.4197144e+13 -1.3164344e+22 1.6290016e-314 357.68811 776.82788
-5.4984398e+13 -1.3148842e+22 1.6290007e-314 359.62686 777.04541
-5.479089e+13 -1.3126712e+22 1.6289995e-314 361.66983 776.55402
-1.0676703e+14 -1.948273e+22 1.6293319e-314 181.87746 796.03857
-1.0959057e+14 -1.9599319e+22 1.6293351e-314 184.93077 795.77063
-1.0513099e+14 -1.9171351e+22 1.6293233e-314 187.90204 795.17548
-1.0594018e+14 -1.9113795e+22 1.6293218e-314 192.79778 794.42847
-1.0555317e+14 -1.9084269e+22 1.629321e-314 194.71863 793.91754
-1.0611614e+14 -1.9085747e+22 1.629321e-314 196.70097 793.5946
-1.0756744e+14 -1.9203813e+22 1.6293242e-314 198.31657 793.20868
-1.0640639e+14 -1.9056239e+22 1.6293202e-314 200.08385 792.94336
-1.0804244e+14 -1.9175764e+22 1.6293235e-314 201.64635 792.62799
-1.0857025e+14 -1.9161011e+22 1.6293231e-314 203.37257 792.42798
-1.092563e+14 -1.9112318e+22 1.6293217e-314 205.40454 792.34656
-1.075059e+14 -1.8935236e+22 1.6293169e-314 207.45378 791.91925
-1.0955541e+14 -1.9171351e+22 1.6293233e-314 208.79758 791.32751
-1.1069008e+14 -1.920529e+22 1.6293243e-314 210.7115 791.09351
-1.1381272e+14 -1.9366141e+22 1.6293287e-314 215.17389 790.38257
-1.1428765e+14 -1.9372049e+22 1.6293289e-314 216.13025 790.27612
-1.1537837e+14 -1.9456159e+22 1.6293312e-314 217.06671 790.07208
-1.1795569e+14 -1.9723276e+22 1.6293385e-314 217.68701 789.72937
-1.2214261e+14 -1.989299e+22 1.6293431e-314 223.74516 788.93616
-1.2159722e+14 -1.9841324e+22 1.6293417e-314 225.91386 788.39154
-1.1429651e+14 -1.9134457e+22 1.6293223e-314 232.3253 787.04968
-7.7264902e+13 -1.6113607e+22 1.6291634e-314 299.15848 780.69781
-7.5479336e+13 -1.6098115e+22 1.6291625e-314 300.77786 779.76282
-5.3110819e+13 -1.3308963e+22 1.6290095e-314 355.24051 775.35919
-5.3713356e+13 -1.3310441e+22 1.6290096e-314 357.21738 775.27338
-5.2158645e+13 -1.3117119e+22 1.628999e-314 359.50738 775.24884
-5.2489827e+13 -1.3135566e+22 1.629e-314 361.42798 774.82318
-3.1768862e+13 -8.1844536e+21 1.6286593e-314 573.25372 746.34149
-3.3136222e+13 -8.3312889e+21 1.6286754e-314 574.76233 746.60645
-1.018148e+14 -1.9560948e+22 1.629334e-314 185.08823 793.1294
-1.0003803e+14 -1.9339587e+22 1.629328e-314 187.76016 792.71582
-1.0014359e+14 -1.9307107e+22 1.6293271e-314 190.12186 792.27533
-1.0114633e+14 -1.9369095e+22 1.6293288e-314 192.15974 791.85346
-1.0149818e+14 -1.9280554e+22 1.6293263e-314 194.32542 791.78107
-1.0151576e+14 -1.9280554e+22 1.6293263e-314 196.04803 791.34168
-1.0569389e+14 -1.9611118e+22 1.6293354e-314 197.45572 791.10687
-1.0384672e+14 -1.9475344e+22 1.6293317e-314 199.16734 790.56616
-1.0443607e+14 -1.9444359e+22 1.6293308e-314 200.96268 790.43225
-1.0352125e+14 -1.9324816e+22 1.6293276e-314 202.89351 790.10107
-1.0440091e+14 -1.9363186e+22 1.6293286e-314 204.6079 789.80981
-1.0674945e+14 -1.9590456e+22 1.6293348e-314 206.07666 789.33404
-1.0640639e+14 -1.9408943e+22 1.6293299e-314 208.42641 789.34051
-1.0706607e+14 -1.9450268e+22 1.629331e-314 211.84491 788.52765
-1.1183355e+14 -1.9789677e+22 1.6293403e-314 214.4875 788.13843
-1.1375991e+14 -1.9980053e+22 1.6293455e-314 215.25658 787.84582
-1.1530804e+14 -2.0028746e+22 1.6293469e-314 216.68445 787.82019
-1.1711126e+14 -2.0078934e+22 1.6293482e-314 218.6884 787.72687
-1.1766538e+14 -1.9980053e+22 1.6293455e-314 220.87797 787.75336
-1.175774e+14 -1.9910698e+22 1.6293436e-314 222.71359 787.53467
-1.1638118e+14 -1.9791154e+22 1.6293403e-314 224.58011 787.11762
-1.1577425e+14 -1.9690814e+22 1.6293376e-314 226.79498 786.73975
-1.1739271e+14 -1.9845756e+22 1.6293418e-314 228.36023 786.26611
-1.1748069e+14 -1.9828048e+22 1.6293414e-314 230.28131 785.87341
-6.9893773e+13 -1.6103276e+22 1.6291628e-314 289.98514 780.3421
-5.0530953e+13 -1.3281663e+22 1.629008e-314 355.0423 773.73358
-4.87625e+13 -1.3154751e+22 1.6290011e-314 357.47421 772.90832
-5.0342713e+13 -1.3227061e+22 1.629005e-314 359.25903 772.97437
-4.9629782e+13 -1.3137043e+22 1.6290001e-314 361.20447 772.73254
-3.1441421e+13 -8.3667097e+21 1.6286793e-314 569.16052 745.16821
-9.881537e+13 -1.9953482e+22 1.6293448e-314 179.31085 791.97253
-9.8023687e+13 -1.9894467e+22 1.6293432e-314 182.07437 791.21356
-9.6783448e+13 -1.9709999e+22 1.6293381e-314 185.1313 790.73901
-9.5763125e+13 -1.9552085e+22 1.6293338e-314 187.68103 790.35669
-9.7759815e+13 -1.9742461e+22 1.629339e-314 189.51327 789.81842
-9.7839003e+13 -1.9668674e+22 1.629337e-314 191.5361 789.62598
-9.8736182e+13 -1.9752784e+22 1.6293393e-314 193.1828 789.1748
-9.906166e+13 -1.9754261e+22 1.6293393e-314 194.90697 788.8429
-1.0075931e+14 -1.9875282e+22 1.6293427e-314 196.43993 788.55182
-9.9184804e+13 -1.9664243e+22 1.6293369e-314 198.50766 788.31769
-1.0068012e+14 -1.9758692e+22 1.6293395e-314 200.32851 787.99811
-1.012431e+14 -1.9777878e+22 1.62934e-314 202.00836 787.68622
-1.012431e+14 -1.9740984e+22 1.629339e-314 203.80984 787.36786
-1.0008198e+14 -1.9572748e+22 1.6293344e-314 205.87862 787.10645
-1.0126068e+14 -1.9695228e+22 1.6293377e-314 207.70639 786.55621
-1.0245697e+14 -1.9771969e+22 1.6293398e-314 209.23241 786.27039
-1.0511334e+14 -1.999333e+22 1.6293459e-314 210.23984 786.05402
-1.0948501e+14 -2.0171889e+22 1.6293508e-314 214.05925 785.87482
-1.1074283e+14 -2.0261925e+22 1.6293533e-314 215.42128 785.60107
-1.1059331e+14 -2.0009561e+22 1.6293463e-314 218.35869 785.80963
-1.1335531e+14 -2.0285523e+22 1.6293539e-314 220.12744 785.20569
-1.1337289e+14 -2.0225031e+22 1.6293522e-314 222.12233 784.9419
-1.133641e+14 -2.0233876e+22 1.6293525e-314 224.04645 784.40753
-1.1177201e+14 -2.0047932e+22 1.6293474e-314 226.07625 784.07233
-1.124229e+14 -2.0064163e+22 1.6293478e-314 228.02945 783.73181
-4.6547203e+13 -1.3171721e+22 1.629002e-314 355.28696 771.67859
-4.6687058e+13 -1.3213775e+22 1.6290043e-314 357.17404 770.91406
-4.7483976e+13 -1.3189429e+22 1.629003e-314 362.93713 770.20813
-3.0184237e+13 -8.4043418e+21 1.6286834e-314 567.2962 743.37128
-2.9794587e+13 -8.348263e+21 1.6286773e-314 568.81622 742.90393
-3.0539394e+13 -8.4213114e+21 1.6286853e-314 570.56988 742.86725
-9.5965458e+13 -2.0338648e+22 1.6293554e-314 182.0179 788.71368
-9.4003866e+13 -2.0124673e+22 1.6293495e-314 184.53644 788.23267
-9.3352977e+13 -1.9968254e+22 1.6293452e-314 187.19488 787.95209
-9.3405792e+13 -1.993282e+22 1.6293442e-314 189.01596 787.64362
-9.5024256e+13 -2.0077457e+22 1.6293482e-314 190.62637 787.21698
-9.5323293e+13 -2.0042041e+22 1.6293472e-314 192.45599 786.99029
-9.6009414e+13 -2.0039086e+22 1.6293471e-314 194.11389 786.81903
-9.6501993e+13 -2.0039086e+22 1.6293471e-314 197.68227 786.07642
-9.5164983e+13 -1.9918066e+22 1.6293438e-314 199.4861 785.63019
-9.7909333e+13 -2.0092211e+22 1.6293486e-314 201.45062 785.38495
-9.5895061e+13 -1.9887081e+22 1.629343e-314 203.52702 784.97131
-9.9677383e+13 -2.0211736e+22 1.6293519e-314 206.51723 784.22601
-9.8938515e+13 -2.0040564e+22 1.6293472e-314 208.26035 784.20404
-9.8577872e+13 -1.9960868e+22 1.629345e-314 209.25439 784.14246
-1.0242173e+14 -2.0347511e+22 1.6293556e-314 209.72844 783.81342
-1.0401382e+14 -2.0469991e+22 1.629359e-314 210.73196 783.6203
-1.0427776e+14 -2.0523115e+22 1.6293604e-314 211.95447 783.18939
-1.0597535e+14 -2.0664799e+22 1.6293643e-314 213.07121 782.92786
-1.0221068e+14 -2.042573e+22 1.6293577e-314 216.44467 781.69958
-1.022898e+14 -2.035342e+22 1.6293558e-314 218.99078 781.35797
-1.0214907e+14 -2.035931e+22 1.6293559e-314 220.86174 780.80298
-1.0213149e+14 -2.0292909e+22 1.6293541e-314 222.91376 780.53143
-1.0184124e+14 -2.0272247e+22 1.6293535e-314 224.69548 780.05926
-1.0197318e+14 -2.0282569e+22 1.6293538e-314 226.65697 779.55762
-6.3147185e+13 -1.6019896e+22 1.6291582e-314 292.26431 775.57098
-4.427691e+13 -1.3212307e+22 1.6290042e-314 355.16721 769.65326
-4.4031963e+13 -1.3179836e+22 1.6290024e-314 357.11737 769.24835
-4.3503313e+13 -1.3165082e+22 1.6290016e-314 358.89154 768.5199
-4.4278689e+13 -1.3186475e+22 1.6290028e-314 360.72903 768.42877
-4.4264596e+13 -1.3204921e+22 1.6290038e-314 362.65686 767.74524
-1.3438673e+14 -2.0585103e+22 1.6293621e-314 341.25644 759.88928
-9.2746044e+13 -2.0725291e+22 1.629366e-314 179.35294 786.71924
-9.2719671e+13 -2.0623474e+22 1.6293632e-314 181.99452 786.43628
-9.1365078e+13 -2.0459669e+22 1.6293587e-314 184.25941 786.0304
-9.0599836e+13 -2.0312095e+22 1.6293546e-314 186.63719 785.74023
-9.0652583e+13 -2.0247153e+22 1.6293529e-314 190.15497 785.11578
-9.121556e+13 -2.0260447e+22 1.6293532e-314 191.80366 784.83826
-9.3300229e+13 -2.0382927e+22 1.6293566e-314 195.1994 784.21246
-9.2244674e+13 -2.0266338e+22 1.6293534e-314 197.09859 783.81488
-9.4030307e+13 -2.0382927e+22 1.6293566e-314 200.70921 783.052
-9.6255704e+13 -2.0582149e+22 1.629362e-314 202.27327 782.6355
-9.4646031e+13 -2.0313572e+22 1.6293547e-314 204.53497 782.5592
-9.6572323e+13 -2.04759e+22 1.6293591e-314 205.76108 782.27191
-9.6915384e+13 -2.0441961e+22 1.6293582e-314 207.73273 782.02161
-9.7144091e+13 -2.050393e+22 1.6293599e-314 208.62065 781.62811
-9.8252394e+13 -2.0620519e+22 1.6293631e-314 210.27975 781.11877
-9.9879717e+13 -2.0710537e+22 1.6293656e-314 211.9818 780.89539
-9.680103e+13 -2.0468514e+22 1.6293589e-314 215.15166 779.96637
-9.7108926e+13 -2.0415389e+22 1.6293575e-314 221.20305 778.72882
-9.7188114e+13 -2.0493608e+22 1.6293596e-314 222.57942 778.09296
-9.5068212e+13 -2.0306186e+22 1.6293545e-314 224.74438 777.54205
-6.1304409e+13 -1.6153455e+22 1.6291655e-314 291.54804 773.28705
-4.1261608e+13 -1.3211569e+22 1.6290042e-314 355.05298 767.44196
-4.10074e+13 -1.3140727e+22 1.6290003e-314 357.1156 767.33972
-4.1070751e+13 -1.3171721e+22 1.629002e-314 358.85553 766.65509
-4.0465563e+13 -1.3087602e+22 1.6289974e-314 360.98321 766.39337
-8.6245746e+13 -2.07312e+22 1.6293661e-314 176.92 785.03345
-8.6676719e+13 -2.0729723e+22 1.6293661e-314 179.58545 784.50836
-8.8963722e+13 -2.084188e+22 1.6293692e-314 181.8042 784.29626
-8.6764699e+13 -2.0582149e+22 1.629362e-314 184.22771 783.93329
-8.6676719e+13 -2.0468514e+22 1.6293589e-314 187.82065 783.43268
-8.8629453e+13 -2.0601334e+22 1.6293626e-314 189.56999 783.14331
-8.8550331e+13 -2.0596902e+22 1.6293624e-314 191.09901 782.74377
-8.9341947e+13 -2.0679552e+22 1.6293647e-314 192.84926 782.24182
-8.9139681e+13 -2.0595443e+22 1.6293624e-314 194.83435 781.99878
-8.9060493e+13 -2.0515747e+22 1.6293602e-314 196.74025 781.79749
-8.9737823e+13 -2.0534933e+22 1.6293607e-314 198.49429 781.50915
-9.0819685e+13 -2.063675e+22 1.6293635e-314 200.35712 781.00732
-8.9852109e+13 -2.0524593e+22 1.6293605e-314 202.19073 780.64276
-9.2112738e+13 -2.0697261e+22 1.6293652e-314 203.4897 780.41632
-9.4091846e+13 -2.0834512e+22 1.629369e-314 204.5034 780.30371
-9.387193e+13 -2.0806464e+22 1.6293682e-314 205.56755 780.05981
-9.3001125e+13 -2.0707583e+22 1.6293655e-314 206.74762 779.84582
-9.4725152e+13 -2.091419e+22 1.6293711e-314 207.87898 779.3418
-9.5912643e+13 -2.0778433e+22 1.6293674e-314 210.666 779.58002
-9.7900542e+13 -2.1038165e+22 1.6293745e-314 212.72809 778.7099
-5.8063051e+13 -1.6101799e+22 1.6291627e-314 291.28607 771.44507
-5.7939906e+13 -1.6050151e+22 1.6291599e-314 293.71814 771.15741
-3.8575308e+13 -1.3249201e+22 1.6290062e-314 352.43222 765.78699
-3.8922294e+13 -1.3228538e+22 1.6290051e-314 354.54684 765.67914
-3.8655335e+13 -1.319386e+22 1.6290032e-314 356.75424 765.20947
-3.8481188e+13 -1.3152535e+22 1.6290009e-314 358.77908 764.91125
-3.9357696e+13 -1.3213775e+22 1.6290043e-314 360.33093 764.62231
-2.6009177e+13 -8.2611949e+21 1.6286677e-314 569.46619 737.73694
-8.3255039e+13 -2.0985023e+22 1.6293731e-314 174.72098 783.53491
-8.2252299e+13 -2.0831558e+22 1.6293689e-314 177.5468 783.07239
-8.2041241e+13 -2.0825649e+22 1.6293687e-314 179.80041 782.44446
-8.3131894e+13 -2.0909758e+22 1.629371e-314 181.5369 782.04578
-8.4627281e+13 -2.0968792e+22 1.6293726e-314 183.37444 781.87067
-8.4943901e+13 -2.0987977e+22 1.6293732e-314 185.045 781.47424
-8.3290271e+13 -2.0756294e+22 1.6293668e-314 187.10277 781.28833
-8.59555e+13 -2.0977655e+22 1.6293729e-314 188.75992 780.92188
-8.5902685e+13 -2.0902391e+22 1.6293708e-314 190.62286 780.72131
-8.836558e+13 -2.112966e+22 1.6293771e-314 192.20815 780.27942
-8.7301301e+13 -2.09747e+22 1.6293728e-314 194.20203 780.01166
-8.8603079e+13 -2.1067673e+22 1.6293754e-314 196.03014 779.62927
-8.7019779e+13 -2.0893527e+22 1.6293706e-314 199.75052 778.81415
-8.8374372e+13 -2.0989454e+22 1.6293732e-314 201.23025 778.5304
-9.1057183e+13 -2.117983e+22 1.6293784e-314 202.31018 778.43671
-8.9122099e+13 -2.0982086e+22 1.629373e-314 203.42256 778.25769
-8.9975254e+13 -2.1094226e+22 1.6293761e-314 204.232 777.90637
-9.2385401e+13 -2.1299356e+22 1.6293817e-314 205.82136 777.52918
-9.22183e+13 -2.0992408e+22 1.6293733e-314 210.71533 777.4267
-5.4966816e+13 -1.6027273e+22 1.6291586e-314 293.35611 769.29645
-3.6527112e+13 -1.3276501e+22 1.6290077e-314 352.18979 764.08392
-3.6338871e+13 -1.3213775e+22 1.6290043e-314 354.54407 763.88
-3.670391e+13 -1.3220423e+22 1.6290047e-314 356.48389 763.58984
-3.6147141e+13 -1.3173936e+22 1.6290021e-314 358.32547 763.09985
-3.678132e+13 -1.3182052e+22 1.6290026e-314 360.3483 762.97259
-1.2464064e+14 -2.1449884e+22 1.6293858e-314 339.04517 753.758
-8.2568985e+13 -2.1508917e+22 1.6293875e-314 171.73695 781.99237
-7.9894965e+13 -2.1290511e+22 1.6293815e-314 174.7083 781.15778
-7.8513999e+13 -2.1103089e+22 1.6293763e-314 177.14499 780.78662
-7.8848201e+13 -2.1148846e+22 1.6293776e-314 179.31636 780.16907
