# .PCD v0.7 - Point Cloud Data file format
VERSION 0.7
FIELDS x y z p_x p_y
SIZE 8 8 8 8 8
TYPE F F F F F
COUNT 1 1 1 1 1
WIDTH 754
HEIGHT 1
VIEWPOINT 0 0 0 1 0 0 0
POINTS 754
DATA ascii
8.170536e+09 -9.6904427e+21 1.628811e-314 681.29645 381.72086
7.9723223e+09 -9.6653576e+21 1.6288097e-314 682.38806 381.41476
7.8181325e+09 -9.6454337e+21 1.6288086e-314 683.50464 381.17136
7.4622925e+09 -9.6137103e+21 1.6288068e-314 684.64404 380.93085
7.3173392e+09 -9.5915706e+21 1.6288056e-314 685.78607 380.62949
7.2166226e+09 -9.569431e+21 1.6288044e-314 686.87054 380.25552
7.0358047e+09 -9.5443459e+21 1.628803e-314 687.96228 379.9296
6.6221988e+09 -9.5111454e+21 1.6288012e-314 688.93469 379.73276
6.4579164e+09 -9.4890057e+21 1.6288e-314 689.91193 379.44879
6.5272781e+09 -9.4779358e+21 1.6287994e-314 690.95306 379.10693
6.1924874e+09 -9.4476896e+21 1.6287977e-314 691.89014 378.8757
5.7728686e+09 -9.4093178e+21 1.6287937e-314 692.81409 378.56399
5.49713e+09 -9.3790626e+21 1.6287903e-314 693.74316 378.25617
5.2890409e+09 -9.3547162e+21 1.6287877e-314 694.7085 377.98239
4.8610458e+09 -9.3170841e+21 1.6287835e-314 695.604 377.71735
4.5561027e+09 -9.2846176e+21 1.62878e-314 696.5246 377.38971
4.2549182e+09 -9.2528898e+21 1.6287765e-314 697.39001 377.13162
4.1001918e+09 -9.2211574e+21 1.628773e-314 698.19965 376.82184
3.9685504e+09 -9.1916453e+21 1.6287698e-314 698.98816 376.51968
3.7662592e+09 -9.1577017e+21 1.6287661e-314 699.71112 376.28616
3.5703004e+09 -9.1200696e+21 1.6287619e-314 700.40692 375.97623
3.2687939e+09 -9.0691564e+21 1.6287563e-314 701.02508 375.62976
3.0728351e+09 -9.0322629e+21 1.6287523e-314 701.69739 375.32178
57354600 -8.8780507e+21 1.6287354e-314 473.47473 404.21173
68860433 -8.9533148e+21 1.6287436e-314 478.54193 404.12994
97086417 -9.0544026e+21 1.6287547e-314 482.90964 404.05142
1.2987246e+08 -9.1613901e+21 1.6287665e-314 487.27881 403.70798
1.5663888e+08 -9.2152577e+21 1.6287724e-314 491.09445 403.61279
1.6576567e+08 -9.2189462e+21 1.6287728e-314 494.89752 403.31677
2.2158007e+08 -9.3126571e+21 1.6287831e-314 498.69287 403.08194
2.6553642e+08 -9.3938209e+21 1.628792e-314 502.09946 403.08017
2.9558765e+08 -9.4137449e+21 1.6287942e-314 505.1799 402.83273
3.9272122e+08 -9.4963826e+21 1.6288004e-314 508.41354 402.64401
4.1599443e+08 -9.5096682e+21 1.6288011e-314 511.50037 402.4736
4.6231303e+08 -9.5421301e+21 1.6288029e-314 514.5423 402.22418
4.9699488e+08 -9.5672242e+21 1.6288043e-314 517.55859 402.06305
5.7576717e+08 -9.6144489e+21 1.6288069e-314 520.57385 401.87244
6.557344e+08 -9.6387954e+21 1.6288082e-314 523.48602 401.57535
7.0917952e+08 -9.655765e+21 1.6288091e-314 526.31268 401.39789
8.1808397e+08 -9.6941356e+21 1.6288112e-314 529.12878 401.10532
9.1340557e+08 -9.7295519e+21 1.6288132e-314 531.7652 400.90845
1.0237057e+09 -9.7745609e+21 1.6288156e-314 534.37921 400.75473
1.0310069e+09 -9.7664454e+21 1.6288152e-314 536.80725 400.50192
1.0720508e+09 -9.7775153e+21 1.6288158e-314 539.28241 400.32016
1.2876854e+09 -9.8188313e+21 1.6288181e-314 541.95044 400.10113
1.4756969e+09 -9.8505637e+21 1.6288198e-314 544.42975 399.82169
1.5910167e+09 -9.8719648e+21 1.628821e-314 546.96887 399.69852
1.6588772e+09 -9.8771259e+21 1.6288213e-314 549.49554 399.45322
1.8281526e+09 -9.9059039e+21 1.6288228e-314 551.98077 399.19754
1.9096497e+09 -9.9125422e+21 1.6288232e-314 554.39325 398.91147
2.0288351e+09 -9.9295118e+21 1.6288241e-314 556.67792 398.66486
2.2576502e+09 -9.9582898e+21 1.6288257e-314 559.09839 398.39414
2.388755e+09 -9.9612441e+21 1.6288259e-314 561.29102 398.10629
2.5289856e+09 -9.968621e+21 1.6288263e-314 563.61267 397.90308
2.8111632e+09 -9.9944447e+21 1.6288277e-314 565.97003 397.74167
2.907585e+09 -9.9966604e+21 1.6288278e-314 568.25568 397.53674
3.2602035e+09 -1.0026177e+22 1.6288294e-314 570.74011 397.2525
3.4212644e+09 -1.0037247e+22 1.6288301e-314 572.99951 397.08936
3.4980357e+09 -1.0035031e+22 1.6288299e-314 575.23212 396.82321
3.7742024e+09 -1.0056432e+22 1.6288311e-314 577.43292 396.57996
3.8773888e+09 -1.0056432e+22 1.6288311e-314 579.5401 396.2995
4.0717379e+09 -1.0065286e+22 1.6288316e-314 581.47382 395.97214
4.2946463e+09 -1.0088894e+22 1.6288329e-314 583.53217 395.92953
4.6258965e+09 -1.0097748e+22 1.6288334e-314 585.55597 395.68997
4.8039209e+09 -1.0097748e+22 1.6288334e-314 587.58124 395.45166
5.1234663e+09 -1.0106602e+22 1.6288339e-314 589.6073 395.22308
5.3530348e+09 -1.010218e+22 1.6288336e-314 591.56372 394.80682
5.477373e+09 -1.0103657e+22 1.6288337e-314 593.49115 394.66855
6.1626338e+09 -1.0128003e+22 1.628835e-314 595.61774 394.29892
6.0032912e+09 -1.0109557e+22 1.628834e-314 597.54266 394.08884
6.3879056e+09 -1.0119149e+22 1.6288345e-314 599.51148 393.79748
6.9052345e+09 -1.013538e+22 1.6288354e-314 601.50421 393.4711
7.5584973e+09 -1.0161943e+22 1.6288369e-314 603.51508 393.19888
7.7446851e+09 -1.0158997e+22 1.6288367e-314 605.38104 392.86905
7.6416051e+09 -1.0138335e+22 1.6288356e-314 607.3977 392.53479
8.2325924e+09 -1.0159727e+22 1.6288368e-314 609.50147 392.22891
8.4445522e+09 -1.0167113e+22 1.6288372e-314 611.3548 392.12125
8.7462728e+09 -1.0178174e+22 1.6288378e-314 613.3844 391.97443
8.7123415e+09 -1.0170058e+22 1.6288373e-314 615.27741 391.84515
9.1968164e+09 -1.0187766e+22 1.6288383e-314 617.10406 391.59918
8.2755431e+09 -1.0125049e+22 1.6288349e-314 618.76392 391.40936
9.1792036e+09 -1.0169319e+22 1.6288373e-314 620.52728 391.2023
8.9635984e+09 -1.0145712e+22 1.628836e-314 622.23132 390.93991
9.3363999e+09 -1.0156781e+22 1.6288366e-314 623.94916 390.69357
9.7663243e+09 -1.0172274e+22 1.6288375e-314 625.69153 390.47424
9.2373996e+09 -1.0126526e+22 1.6288349e-314 627.41754 390.14063
1.0154805e+10 -1.0173751e+22 1.6288375e-314 629.14758 389.99338
9.4300345e+09 -1.0118411e+22 1.6288345e-314 630.8706 389.69458
1.0115295e+10 -1.0147927e+22 1.6288361e-314 632.63812 389.4502
1.0411436e+10 -1.0155304e+22 1.6288365e-314 634.29401 389.21732
9.8584515e+09 -1.0108079e+22 1.6288339e-314 635.8609 388.88504
1.039017e+10 -1.0131696e+22 1.6288352e-314 637.41962 388.70642
1.0100263e+10 -1.0105125e+22 1.6288338e-314 638.93567 388.49194
1.0378365e+10 -1.0109557e+22 1.628834e-314 640.44763 388.21487
1.0825034e+10 -1.0122833e+22 1.6288347e-314 642.07874 387.91211
1.0065684e+10 -1.0066025e+22 1.6288316e-314 643.60272 387.64999
1.1059546e+10 -1.0112511e+22 1.6288342e-314 645.19299 387.35751
1.0199476e+10 -1.0049046e+22 1.6288307e-314 646.73126 387.08496
1.0556385e+10 -1.0059378e+22 1.6288313e-314 648.31317 386.83685
1.0837281e+10 -1.0063809e+22 1.6288315e-314 649.81409 386.54657
1.0670422e+10 -1.0040192e+22 1.6288302e-314 651.31873 386.23142
1.0825898e+10 -1.003577e+22 1.62883e-314 652.685 385.92169
1.0729265e+10 -1.0023961e+22 1.6288293e-314 654.0581 385.78394
1.0770495e+10 -1.0012891e+22 1.6288287e-314 655.45062 385.4747
1.0601921e+10 -9.9892835e+21 1.6288274e-314 656.83527 385.16861
1.0476509e+10 -9.9730526e+21 1.6288265e-314 658.29877 384.97479
1.085833e+10 -9.9819066e+21 1.628827e-314 659.76013 384.66507
1.0558323e+10 -9.9553444e+21 1.6288256e-314 661.17224 384.45795
1.0601486e+10 -9.9472289e+21 1.6288251e-314 662.56873 384.21948
1.0507647e+10 -9.9258278e+21 1.6288239e-314 663.94446 383.8562
1.0588174e+10 -9.9177123e+21 1.6288235e-314 665.31708 383.55698
1.0573142e+10 -9.9066425e+21 1.6288229e-314 666.56067 383.33185
1.0372356e+10 -9.8837642e+21 1.6288216e-314 667.76068 383.07712
1.0189388e+10 -9.8586791e+21 1.6288203e-314 669.00403 382.75302
1.0285595e+10 -9.853518e+21 1.62882e-314 670.28381 382.49982
1.0048944e+10 -9.8276854e+21 1.6288186e-314 671.61603 382.24469
1.0330479e+10 -9.8321169e+21 1.6288188e-314 672.97583 381.96655
9.8021929e+09 -9.7871079e+21 1.6288163e-314 674.25317 381.64355
9.8182984e+09 -9.7767767e+21 1.6288158e-314 675.52893 381.38791
9.9486577e+09 -9.7738223e+21 1.6288156e-314 676.79675 381.15762
9.5384843e+09 -9.7347221e+21 1.6288135e-314 677.97119 380.81308
9.717586e+09 -9.7302905e+21 1.6288132e-314 679.08453 380.4798
9.3112791e+09 -9.69709e+21 1.6288114e-314 680.17804 380.27487
9.2236657e+09 -9.6793818e+21 1.6288104e-314 681.2865 379.98682
9.089874e+09 -9.6601965e+21 1.6288094e-314 682.42035 379.7305
8.9273119e+09 -9.6380568e+21 1.6288082e-314 683.51977 379.44916
8.7492834e+09 -9.6159171e+21 1.6288069e-314 684.66907 379.18442
8.4570102e+09 -9.581978e+21 1.6288051e-314 685.76044 378.80743
8.3137731e+09 -9.5605769e+21 1.6288039e-314 686.92664 378.51611
8.0979507e+09 -9.5347532e+21 1.6288025e-314 687.96411 378.22024
7.814909e+09 -9.5096682e+21 1.6288011e-314 688.98639 378.03183
7.6044565e+09 -9.4860603e+21 1.6287998e-314 689.97876 377.79764
7.3925008e+09 -9.4602277e+21 1.6287984e-314 690.95074 377.49588
7.1062395e+09 -9.4299758e+21 1.6287959e-314 691.92584 377.18811
6.8994366e+09 -9.4048908e+21 1.6287932e-314 692.89874 376.89368
6.532435e+09 -9.3709472e+21 1.6287895e-314 693.80548 376.63412
6.1426637e+09 -9.3347923e+21 1.6287855e-314 694.74652 376.34421
5.9723684e+09 -9.3111799e+21 1.6287829e-314 695.69055 376.03818
5.6311347e+09 -9.2772362e+21 1.6287792e-314 696.61493 375.71863
5.3060066e+09 -9.2440357e+21 1.6287755e-314 697.49817 375.41339
5.024042e+09 -9.2145191e+21 1.6287723e-314 698.32843 375.13083
4.661333e+09 -9.1813141e+21 1.6287687e-314 699.09869 374.86679
4.311936e+09 -9.1458978e+21 1.6287648e-314 699.82452 374.52628
4.082153e+09 -9.1097429e+21 1.6287608e-314 700.54773 374.30771
3.9091727e+09 -9.0772764e+21 1.6287572e-314 701.29437 374.04178
70726033 -8.8854276e+21 1.6287362e-314 477.42215 402.33102
1.2441986e+08 -9.0802263e+21 1.6287576e-314 482.2728 402.22656
1.4198903e+08 -9.1163812e+21 1.6287615e-314 486.37939 401.87457
1.9423991e+08 -9.2100921e+21 1.6287718e-314 490.6868 401.79959
1.99716e+08 -9.2182076e+21 1.6287727e-314 494.1759 401.76526
2.5979856e+08 -9.320034e+21 1.6287839e-314 498.21811 401.53857
3.2926291e+08 -9.3798012e+21 1.6287904e-314 501.50439 401.2464
3.6527367e+08 -9.4085792e+21 1.6287936e-314 504.70187 401.14188
4.1241095e+08 -9.4388299e+21 1.6287969e-314 507.87872 400.82471
4.6705082e+08 -9.4890057e+21 1.6288e-314 511.0614 400.81415
4.8770695e+08 -9.4934372e+21 1.6288002e-314 513.97437 400.46616
5.6505664e+08 -9.5443459e+21 1.628803e-314 516.9707 400.28207
6.5675431e+08 -9.5709081e+21 1.6288045e-314 520.00403 399.90918
6.6676698e+08 -9.5731239e+21 1.6288046e-314 522.77789 399.8743
8.168224e+08 -9.6306799e+21 1.6288077e-314 525.86627 399.58341
9.1692199e+08 -9.6705278e+21 1.6288099e-314 528.68616 399.43121
1.0147396e+09 -9.7081508e+21 1.628812e-314 531.26642 399.23953
1.0200014e+09 -9.7007739e+21 1.6288116e-314 533.7804 399.02536
1.1497096e+09 -9.7332449e+21 1.6288134e-314 536.29871 398.78055
1.3731013e+09 -9.7782539e+21 1.6288158e-314 539.00555 398.61383
1.4908367e+09 -9.7944848e+21 1.6288167e-314 541.55792 398.36536
1.6179684e+09 -9.8129316e+21 1.6288177e-314 544.10663 398.09662
1.8287977e+09 -9.8542566e+21 1.62882e-314 546.77777 397.9288
1.9383186e+09 -9.8667946e+21 1.6288207e-314 549.32349 397.62256
2.0682959e+09 -9.88598e+21 1.6288218e-314 551.96356 397.35586
2.2318802e+09 -9.9029495e+21 1.6288227e-314 554.42304 397.10446
2.2399329e+09 -9.8963112e+21 1.6288223e-314 556.77753 396.9296
2.722796e+09 -9.9413202e+21 1.6288248e-314 559.19794 396.67413
3.0134564e+09 -9.9678824e+21 1.6288262e-314 561.5022 396.48856
3.0191478e+09 -9.9582898e+21 1.6288257e-314 563.64111 396.26401
3.1804237e+09 -9.9708368e+21 1.6288264e-314 566.00836 396.11703
3.4224461e+09 -9.9922379e+21 1.6288276e-314 568.25055 395.96805
3.7884831e+09 -1.0020277e+22 1.6288291e-314 570.63702 395.62524
3.8172595e+09 -1.0015846e+22 1.6288289e-314 572.84564 395.45459
4.1070638e+09 -1.0036508e+22 1.62883e-314 575.10504 395.14868
4.3336223e+09 -1.0046101e+22 1.6288305e-314 577.27856 394.80194
4.3523042e+09 -1.0040192e+22 1.6288302e-314 579.36835 394.64477
4.8981945e+09 -1.0061593e+22 1.6288314e-314 581.3714 394.40045
4.9070009e+09 -1.0050523e+22 1.6288308e-314 583.19183 394.13293
5.8506046e+09 -1.0093326e+22 1.6288331e-314 585.42133 393.8457
6.2818192e+09 -1.0105125e+22 1.6288338e-314 587.56622 393.53717
6.6799626e+09 -1.0123572e+22 1.6288348e-314 589.70898 393.42831
6.6977884e+09 -1.0112511e+22 1.6288342e-314 591.90381 393.14029
7.0712371e+09 -1.012431e+22 1.6288348e-314 594.01587 392.91766
7.2054549e+09 -1.0123572e+22 1.6288348e-314 596.22375 392.73187
7.3418189e+09 -1.0119149e+22 1.6288345e-314 598.23187 392.44174
7.7586442e+09 -1.0132426e+22 1.6288353e-314 600.27161 392.18784
8.1883556e+09 -1.014645e+22 1.628836e-314 602.22284 391.92532
8.2076846e+09 -1.0137596e+22 1.6288356e-314 604.03345 391.69742
8.4144876e+09 -1.0139073e+22 1.6288356e-314 605.82489 391.44391
8.8094086e+09 -1.0150873e+22 1.6288363e-314 607.80048 391.18964
8.7393997e+09 -1.0133903e+22 1.6288354e-314 609.71112 390.89002
9.6988959e+09 -1.0179651e+22 1.6288379e-314 611.66278 390.6521
9.1255214e+09 -1.0136119e+22 1.6288355e-314 613.56384 390.43311
9.8799309e+09 -1.0171535e+22 1.6288374e-314 615.46332 390.22592
1.024672e+10 -1.0182605e+22 1.628838e-314 617.1673 389.98132
9.4553723e+09 -1.012431e+22 1.6288348e-314 618.94836 389.72006
1.0309208e+10 -1.0164158e+22 1.628837e-314 620.677 389.48724
9.7826509e+09 -1.0123572e+22 1.6288348e-314 622.28394 389.25482
1.0264971e+10 -1.014128e+22 1.6288358e-314 623.96472 389.01315
1.0799909e+10 -1.0162681e+22 1.6288369e-314 625.68304 388.78345
1.0160392e+10 -1.0113979e+22 1.6288343e-314 627.43591 388.5394
1.1369212e+10 -1.0173751e+22 1.6288375e-314 629.18762 388.27173
1.0416155e+10 -1.0107341e+22 1.6288339e-314 630.88373 388.0455
1.0894191e+10 -1.0121365e+22 1.6288347e-314 632.58844 387.70905
1.1782384e+10 -1.0161943e+22 1.6288369e-314 634.32068 387.44452
1.0664839e+10 -1.008521e+22 1.6288327e-314 635.83478 387.20966
1.1666418e+10 -1.0133165e+22 1.6288353e-314 637.40436 386.9534
1.0856393e+10 -1.0073402e+22 1.628832e-314 638.84424 386.6806
1.1522107e+10 -1.010218e+22 1.6288336e-314 640.40656 386.42319
1.1978025e+10 -1.0114718e+22 1.6288343e-314 642.00922 386.10297
1.1085531e+10 -1.0054955e+22 1.628831e-314 643.54987 385.94733
1.204438e+10 -1.0097748e+22 1.6288334e-314 645.0675 385.62988
1.1103996e+10 -1.0031338e+22 1.6288297e-314 646.66821 385.38599
1.1863779e+10 -1.0062332e+22 1.6288314e-314 648.31683 385.06451
1.2082391e+10 -1.0064548e+22 1.6288315e-314 649.82684 384.82028
1.1585468e+10 -1.0023223e+22 1.6288293e-314 651.20538 384.55002
1.1784321e+10 -1.0023223e+22 1.6288293e-314 652.63989 384.2785
1.1765209e+10 -1.0012153e+22 1.6288287e-314 653.97974 384.06149
1.1752536e+10 -9.9988762e+21 1.6288279e-314 655.35095 383.77277
1.1629058e+10 -9.9819066e+21 1.628827e-314 656.79498 383.54593
1.1518679e+10 -9.9649371e+21 1.6288261e-314 658.19592 383.31378
1.1966003e+10 -9.9759979e+21 1.6288267e-314 659.66663 382.95129
1.1409799e+10 -9.9332047e+21 1.6288243e-314 661.04474 382.73428
1.1641084e+10 -9.9324661e+21 1.6288243e-314 662.45233 382.40872
1.1660843e+10 -9.9221349e+21 1.6288237e-314 663.8855 382.14636
1.1383601e+10 -9.8963112e+21 1.6288223e-314 665.18762 381.93939
1.1487107e+10 -9.8918887e+21 1.6288221e-314 666.47266 381.69534
1.1425266e+10 -9.8734419e+21 1.6288211e-314 667.70203 381.35681
1.1419466e+10 -9.8586791e+21 1.6288203e-314 668.9773 381.02396
1.1225119e+10 -9.840971e+21 1.6288193e-314 670.26239 380.88837
1.0965056e+10 -9.8114544e+21 1.6288177e-314 671.53314 380.56683
1.1040864e+10 -9.8018617e+21 1.6288171e-314 672.8457 380.2496
1.0921032e+10 -9.7848922e+21 1.6288162e-314 674.13873 380.03671
1.080636e+10 -9.7649682e+21 1.6288151e-314 675.41779 379.73852
1.0555103e+10 -9.7376674e+21 1.6288136e-314 676.66071 379.45148
1.0493041e+10 -9.7206979e+21 1.6288127e-314 677.84625 379.14716
1.0310294e+10 -9.6948742e+21 1.6288113e-314 678.94812 378.80835
1.0189175e+10 -9.6764275e+21 1.6288103e-314 680.03632 378.55716
1.0211932e+10 -9.6690506e+21 1.6288099e-314 681.19843 378.3533
1.0024671e+10 -9.6439565e+21 1.6288085e-314 682.32855 378.05158
9.9673355e+09 -9.6299413e+21 1.6288077e-314 683.48254 377.79843
9.6318976e+09 -9.5989475e+21 1.628806e-314 684.60181 377.56461
9.5374111e+09 -9.5775554e+21 1.6288048e-314 685.7428 377.20071
9.3699093e+09 -9.5509842e+21 1.6288034e-314 686.87555 376.81372
9.1476439e+09 -9.5273763e+21 1.6288021e-314 687.94763 376.59463
8.8392643e+09 -9.5000755e+21 1.6288006e-314 688.95093 376.38238
8.5774818e+09 -9.4705589e+21 1.628799e-314 689.95398 376.07208
8.294014e+09 -9.4417843e+21 1.6287972e-314 690.90356 375.81134
8.1494907e+09 -9.4233375e+21 1.6287952e-314 691.8819 375.57901
7.919062e+09 -9.3952981e+21 1.6287921e-314 692.85248 375.25836
7.6214221e+09 -9.3643043e+21 1.6287887e-314 693.82068 374.95715
7.3209887e+09 -9.3355308e+21 1.6287856e-314 694.74664 374.71109
7.1133297e+09 -9.3060143e+21 1.6287823e-314 695.70563 374.33066
6.8412406e+09 -9.2742864e+21 1.6287789e-314 696.63251 373.9848
6.4168991e+09 -9.2359157e+21 1.6287746e-314 697.492 373.67841
6.0065168e+09 -9.1997608e+21 1.6287707e-314 698.31378 373.42926
5.6100895e+09 -9.1665558e+21 1.628767e-314 699.10455 373.21469
5.3407939e+09 -9.1377823e+21 1.6287639e-314 699.84332 372.91571
4.9615493e+09 -9.0994116e+21 1.6287597e-314 700.58118 372.57156
4.6445804e+09 -9.065468e+21 1.6287559e-314 701.32001 372.22864
4.2863795e+09 -9.0315289e+21 1.6287522e-314 702.06934 371.96658
4.056383e+09 -8.9924196e+21 1.6287479e-314 702.76556 371.69394
3.8885576e+09 -8.9562647e+21 1.628744e-314 703.45605 371.33313
3.6667223e+09 -8.913467e+21 1.6287393e-314 704.09827 370.95807
3.2074829e+09 -8.8308259e+21 1.6287302e-314 705.20508 370.34741
49866920 -8.6788249e+21 1.6287135e-314 465.51126 400.75363
60057416 -8.7481849e+21 1.6287211e-314 470.93118 400.60196
1.1444411e+08 -8.9739729e+21 1.6287459e-314 476.88971 400.53073
1.3181192e+08 -9.0300517e+21 1.6287521e-314 481.36661 400.34619
1.9410576e+08 -9.139255e+21 1.628764e-314 489.70831 400.09949
2.390888e+08 -9.2145191e+21 1.6287723e-314 493.73425 399.91019
2.5742967e+08 -9.2403428e+21 1.6287751e-314 497.41495 399.72647
3.2468615e+08 -9.3030644e+21 1.628782e-314 500.71323 399.49481
4.3089261e+08 -9.3908711e+21 1.6287916e-314 504.17047 399.23413
4.2904045e+08 -9.3827511e+21 1.6287908e-314 507.10394 399.10025
5.1578528e+08 -9.4543279e+21 1.6287981e-314 510.35553 398.87649
5.642784e+08 -9.4808902e+21 1.6287995e-314 513.51837 398.74701
6.732361e+08 -9.5185223e+21 1.6288016e-314 516.50366 398.44537
7.768521e+08 -9.5598473e+21 1.6288039e-314 519.59338 398.29498
8.4036416e+08 -9.581978e+21 1.6288051e-314 522.48383 398.12045
9.2806208e+08 -9.610756e+21 1.6288067e-314 525.35138 397.84714
1.1273751e+09 -9.684543e+21 1.6288107e-314 528.32129 397.68231
1.1590505e+09 -9.6838044e+21 1.6288107e-314 530.90216 397.50717
1.2601439e+09 -9.6992967e+21 1.6288115e-314 533.41559 397.32565
1.3524319e+09 -9.7103666e+21 1.6288121e-314 535.96936 397.0921
1.6889961e+09 -9.7775153e+21 1.6288158e-314 538.82379 396.81778
1.8211198e+09 -9.7952234e+21 1.6288168e-314 541.46558 396.51215
1.8721764e+09 -9.7937462e+21 1.6288167e-314 544.04871 396.20132
1.9420767e+09 -9.8040775e+21 1.6288173e-314 546.75128 396.07663
2.2115866e+09 -9.8527794e+21 1.6288199e-314 549.37659 395.91095
2.4215025e+09 -9.8667946e+21 1.6288207e-314 551.98364 395.68176
2.6585851e+09 -9.88598e+21 1.6288218e-314 554.48779 395.4895
2.9505357e+09 -9.9118036e+21 1.6288232e-314 556.80933 395.29538
3.3452426e+09 -9.9442746e+21 1.628825e-314 559.23761 394.98184
3.2498939e+09 -9.9228734e+21 1.6288238e-314 561.35571 394.74829
3.7969659e+09 -9.9759979e+21 1.6288267e-314 563.66779 394.48456
3.8781404e+09 -9.9789523e+21 1.6288269e-314 565.91968 394.34582
3.8972544e+09 -9.9730526e+21 1.6288265e-314 568.0813 394.16495
4.3731364e+09 -1.0010685e+22 1.6288286e-314 570.38977 393.84586
4.4491582e+09 -1.0004776e+22 1.6288283e-314 572.68756 393.62073
5.380093e+09 -1.0040931e+22 1.6288303e-314 575.00342 393.1716
5.7217567e+09 -1.0049785e+22 1.6288307e-314 577.33606 392.91834
5.2044278e+09 -1.0022484e+22 1.6288292e-314 579.47144 393.00867
5.9612007e+09 -1.0054216e+22 1.628831e-314 581.71442 392.71323
6.2189005e+09 -1.0058639e+22 1.6288312e-314 583.83423 392.48264
6.9237033e+09 -1.0089633e+22 1.6288329e-314 585.96082 392.23789
7.135229e+09 -1.0093326e+22 1.6288331e-314 588.13696 392.04239
7.0214134e+09 -1.0077824e+22 1.6288323e-314 590.16809 391.84036
8.0051743e+09 -1.0122833e+22 1.6288347e-314 592.39258 391.55499
8.287786e+09 -1.0130958e+22 1.6288352e-314 594.50079 391.36606
8.2706033e+09 -1.0117672e+22 1.6288345e-314 596.50207 391.08438
8.7005287e+09 -1.0129481e+22 1.6288351e-314 598.53412 390.76862
8.6827111e+09 -1.0119888e+22 1.6288346e-314 600.48785 390.58334
9.647999e+09 -1.0164158e+22 1.628837e-314 602.39716 390.27759
9.2028294e+09 -1.0128742e+22 1.6288351e-314 604.13641 390.07813
9.7135023e+09 -1.0147189e+22 1.6288361e-314 606.01508 389.80234
1.0257025e+10 -1.0169319e+22 1.6288373e-314 607.9035 389.59436
9.7021154e+09 -1.0128742e+22 1.6288351e-314 609.74866 389.41412
1.0741287e+10 -1.0177444e+22 1.6288377e-314 611.65106 389.11697
9.7755648e+09 -1.0110295e+22 1.6288341e-314 613.51288 388.90057
1.0754599e+10 -1.0156043e+22 1.6288366e-314 615.41455 388.62164
1.1525335e+10 -1.0189982e+22 1.6288384e-314 617.25269 388.35092
1.0321881e+10 -1.0109557e+22 1.628834e-314 618.92767 388.13925
1.1676297e+10 -1.0178174e+22 1.6288378e-314 620.63513 387.87747
1.0659252e+10 -1.0105864e+22 1.6288338e-314 622.27405 387.5968
1.1290397e+10 -1.0133903e+22 1.6288354e-314 624.00623 387.38834
1.2013029e+10 -1.0165635e+22 1.6288371e-314 625.685 387.14975
1.109519e+10 -1.0099964e+22 1.6288335e-314 627.35474 386.87564
1.2549466e+10 -1.017449e+22 1.6288376e-314 629.09631 386.62811
1.1219528e+10 -1.0082256e+22 1.6288325e-314 630.7926 386.31766
1.1920681e+10 -1.0112511e+22 1.6288342e-314 632.56433 386.0629
1.2820261e+10 -1.0154566e+22 1.6288365e-314 634.20489 385.79468
1.1806435e+10 -1.0082994e+22 1.6288326e-314 635.74023 385.53027
1.2709022e+10 -1.0122833e+22 1.6288347e-314 637.32581 385.23334
1.1730635e+10 -1.0053478e+22 1.6288309e-314 638.73712 384.96649
1.2447672e+10 -1.0086678e+22 1.6288328e-314 640.30395 384.75064
1.2826495e+10 -1.0095532e+22 1.6288332e-314 641.86243 384.44574
1.2109875e+10 -1.0044624e+22 1.6288305e-314 643.40381 384.25629
1.3010962e+10 -1.0082994e+22 1.6288326e-314 645.00134 383.91455
1.22282e+10 -1.0026916e+22 1.6288295e-314 646.50269 383.69653
1.2760353e+10 -1.0049046e+22 1.6288307e-314 648.16052 383.48007
1.2906375e+10 -1.0043147e+22 1.6288304e-314 649.64795 383.15579
1.2353624e+10 -9.997399e+21 1.6288279e-314 650.99829 382.85742
1.2626999e+10 -1.0004037e+22 1.6288282e-314 652.44952 382.6376
1.2602939e+10 -9.9922379e+21 1.6288276e-314 653.80225 382.41028
1.2545391e+10 -9.9774751e+21 1.6288268e-314 655.19537 382.13681
1.2612606e+10 -9.9708368e+21 1.6288264e-314 656.59546 381.89889
1.259564e+10 -9.956083e+21 1.6288256e-314 658.03687 381.59421
1.2572662e+10 -9.9420588e+21 1.6288248e-314 659.49304 381.2966
1.2314966e+10 -9.9169737e+21 1.6288235e-314 660.81964 381.08585
1.2326992e+10 -9.9051653e+21 1.6288228e-314 662.24982 380.78983
1.2380035e+10 -9.898527e+21 1.6288224e-314 663.67798 380.57156
1.2448537e+10 -9.8874571e+21 1.6288218e-314 664.99249 380.23615
1.235899e+10 -9.869749e+21 1.6288209e-314 666.26953 379.95218
1.2217039e+10 -9.8505637e+21 1.6288198e-314 667.50958 379.70044
1.2277815e+10 -9.8424482e+21 1.6288194e-314 668.8172 379.43543
1.2017539e+10 -9.8151474e+21 1.6288179e-314 670.0669 379.17654
1.1904367e+10 -9.795962e+21 1.6288168e-314 671.32703 378.88919
1.1958696e+10 -9.7848922e+21 1.6288162e-314 672.66577 378.56616
1.190888e+10 -9.7716156e+21 1.6288155e-314 673.95081 378.34232
1.1918973e+10 -9.7598071e+21 1.6288148e-314 675.27606 378.04797
1.1669215e+10 -9.7317677e+21 1.6288133e-314 676.49774 377.76056
1.1474442e+10 -9.7074212e+21 1.628812e-314 677.6496 377.46985
1.1332065e+10 -9.6860201e+21 1.6288108e-314 678.79065 377.17957
1.1248957e+10 -9.6727345e+21 1.6288101e-314 679.92078 376.98438
1.1096914e+10 -9.6498652e+21 1.6288088e-314 680.99933 376.6814
1.0648951e+10 -9.6122332e+21 1.6288067e-314 682.13403 376.4306
1.0754603e+10 -9.6048563e+21 1.6288063e-314 683.3288 376.12668
1.0624039e+10 -9.5856709e+21 1.6288053e-314 684.49463 375.858
1.0525899e+10 -9.5664856e+21 1.6288042e-314 685.61054 375.56802
1.035109e+10 -9.5436073e+21 1.628803e-314 686.75647 375.27579
1.0031757e+10 -9.5126225e+21 1.6288013e-314 687.83368 375.00385
9.8170123e+09 -9.4838445e+21 1.6287997e-314 688.86096 374.64969
9.4622495e+09 -9.4521122e+21 1.628798e-314 689.8454 374.40549
9.3583094e+09 -9.4344029e+21 1.6287964e-314 690.82275 374.15845
9.1104932e+09 -9.4056249e+21 1.6287933e-314 691.76056 373.8324
8.8381912e+09 -9.37759e+21 1.6287902e-314 692.7334 373.57132
8.5699656e+09 -9.3517618e+21 1.6287874e-314 693.71948 373.34647
8.1408973e+09 -9.3111799e+21 1.6287829e-314 694.64117 373.0184
7.9074663e+09 -9.2809292e+21 1.6287796e-314 695.60876 372.64972
7.6796181e+09 -9.2536239e+21 1.6287766e-314 696.56836 372.34326
7.4983701e+09 -9.2292774e+21 1.6287739e-314 697.44269 372.03589
7.0929275e+09 -9.1938566e+21 1.62877e-314 698.26331 371.78629
6.6868378e+09 -9.1613902e+21 1.6287665e-314 699.06494 371.59503
6.3864044e+09 -9.1281896e+21 1.6287628e-314 699.82092 371.25397
6.008233e+09 -9.0912961e+21 1.6287588e-314 700.52332 370.93393
5.5699323e+09 -9.0514483e+21 1.6287544e-314 701.23145 370.6283
5.1333479e+09 -9.0123435e+21 1.6287501e-314 701.97205 370.32959
4.9497365e+09 -8.9850427e+21 1.6287471e-314 702.76446 369.97098
4.5421476e+09 -8.946672e+21 1.6287429e-314 703.47919 369.64185
4.1225252e+09 -8.8979746e+21 1.6287376e-314 704.09857 369.35263
3.8661156e+09 -8.8551769e+21 1.6287329e-314 704.6781 369.07428
3.6806815e+09 -8.8204947e+21 1.6287291e-314 705.22778 368.80475
50447432 -8.6020881e+21 1.6287051e-314 463.34824 398.79684
73977489 -8.7437578e+21 1.6287207e-314 470.05618 398.61829
1.1520917e+08 -8.8935476e+21 1.6287371e-314 475.60654 398.54654
1.4429751e+08 -8.9769227e+21 1.6287462e-314 480.21243 398.39841
1.578065e+08 -8.996108e+21 1.6287483e-314 484.65753 398.27209
2.308881e+08 -9.1252353e+21 1.6287625e-314 489.11484 398.12421
2.5359095e+08 -9.1621287e+21 1.6287665e-314 492.87201 397.99881
3.2673978e+08 -9.2351771e+21 1.6287746e-314 496.71063 397.7894
3.3090055e+08 -9.234443e+21 1.6287745e-314 499.95157 397.71249
4.3291936e+08 -9.3229838e+21 1.6287842e-314 503.37128 397.54813
5.1430893e+08 -9.3893939e+21 1.6287915e-314 506.61163 397.3335
5.5058804e+08 -9.4085792e+21 1.6287936e-314 509.7395 397.142
6.5863335e+08 -9.4462125e+21 1.6287976e-314 512.88031 396.8523
7.9322688e+08 -9.5022913e+21 1.6288007e-314 516.01123 396.69415
8.6653658e+08 -9.5251606e+21 1.628802e-314 519.052 396.44797
9.5023476e+08 -9.5598473e+21 1.6288039e-314 521.95386 396.3501
9.7399156e+08 -9.5598473e+21 1.6288039e-314 524.83344 396.09152
1.2629896e+09 -9.6432179e+21 1.6288084e-314 527.85352 395.92722
1.3838922e+09 -9.6572421e+21 1.6288092e-314 530.58295 395.58884
1.5307267e+09 -9.6823272e+21 1.6288106e-314 533.40356 395.3894
1.7384952e+09 -9.722175e+21 1.6288128e-314 536.03259 395.18579
1.9432584e+09 -9.7605457e+21 1.6288149e-314 538.78931 394.96176
1.9985564e+09 -9.7649682e+21 1.6288151e-314 541.51111 394.77374
2.0842939e+09 -9.7716156e+21 1.6288155e-314 544.01477 394.47275
2.4999941e+09 -9.8210471e+21 1.6288182e-314 546.84143 394.32465
2.6050053e+09 -9.828424e+21 1.6288186e-314 549.26312 394.21564
2.8732257e+09 -9.8505637e+21 1.6288198e-314 551.82452 394.0094
3.0776673e+09 -9.8586791e+21 1.6288203e-314 554.25684 393.6503
3.4000041e+09 -9.8881957e+21 1.6288219e-314 556.53137 393.44998
3.7079537e+09 -9.9162351e+21 1.6288234e-314 558.92676 393.27502
4.2263557e+09 -9.9656757e+21 1.6288261e-314 561.3169 393.01279
4.2626483e+09 -9.9627213e+21 1.628826e-314 563.33423 392.8508
4.2781107e+09 -9.9509129e+21 1.6288253e-314 565.73321 392.53037
5.334996e+09 -9.9988762e+21 1.6288279e-314 568.24512 392.19199
5.2828089e+09 -9.9900221e+21 1.6288275e-314 570.77832 392.06952
5.9852524e+09 -1.0021016e+22 1.6288292e-314 573.23157 391.8259
6.0915518e+09 -1.0022484e+22 1.6288292e-314 575.617 391.73694
6.3533312e+09 -1.0029131e+22 1.6288296e-314 577.88452 391.53485
6.8167568e+09 -1.0043885e+22 1.6288304e-314 580.01434 391.25986
7.5009485e+09 -1.0071925e+22 1.628832e-314 582.20123 390.96906
7.8932921e+09 -1.008594e+22 1.6288327e-314 584.21387 390.77075
8.158721e+09 -1.0091849e+22 1.628833e-314 586.19781 390.53949
8.617642e+09 -1.0107341e+22 1.6288339e-314 588.27808 390.28693
8.5194967e+09 -1.009111e+22 1.628833e-314 590.34955 390.04733
9.006762e+09 -1.0110295e+22 1.6288341e-314 592.3783 389.82416
9.0344674e+09 -1.0096271e+22 1.6288333e-314 594.49683 389.47195
9.5144285e+09 -1.0116934e+22 1.6288344e-314 596.62494 389.30627
1.0258098e+10 -1.0148666e+22 1.6288362e-314 598.59131 389.01596
9.7858704e+09 -1.0113979e+22 1.6288343e-314 600.47321 388.87143
1.0691897e+10 -1.0153827e+22 1.6288364e-314 602.36969 388.55899
1.0062465e+10 -1.0110295e+22 1.6288341e-314 604.10352 388.4194
1.0636061e+10 -1.0128003e+22 1.628835e-314 605.9762 388.04697
1.1647527e+10 -1.0181866e+22 1.628838e-314 607.88599 387.91647
1.0647652e+10 -1.0115456e+22 1.6288343e-314 609.83337 387.76135
1.1715168e+10 -1.0166374e+22 1.6288371e-314 611.51654 387.48105
1.1395623e+10 -1.0136857e+22 1.6288355e-314 613.55542 387.23117
1.133678e+10 -1.0110295e+22 1.6288341e-314 617.08227 386.70685
1.2354693e+10 -1.0122104e+22 1.6288347e-314 623.87097 385.60614
1.2062632e+10 -1.0095532e+22 1.6288332e-314 625.60834 385.39252
1.1924122e+10 -1.0073402e+22 1.628832e-314 627.21368 385.07703
1.3028788e+10 -1.0127265e+22 1.628835e-314 628.90045 384.81699
1.2202437e+10 -1.0065286e+22 1.6288316e-314 630.62103 384.52487
1.2892424e+10 -1.0095532e+22 1.6288332e-314 632.32544 384.27615
1.3701589e+10 -1.0133165e+22 1.6288353e-314 633.99274 384.04215
1.2776458e+10 -1.0066763e+22 1.6288317e-314 635.52496 383.78171
1.3413181e+10 -1.0092587e+22 1.6288331e-314 637.04761 383.50751
1.2790417e+10 -1.0043885e+22 1.6288304e-314 638.56781 383.2475
1.3514549e+10 -1.0072663e+22 1.628832e-314 640.09021 382.92349
1.3906029e+10 -1.0084472e+22 1.6288326e-314 641.63464 382.66354
1.3185124e+10 -1.0035031e+22 1.6288299e-314 643.1673 382.50684
1.3762152e+10 -1.0057909e+22 1.6288312e-314 644.729 382.25977
1.3271878e+10 -1.0016584e+22 1.6288289e-314 646.25873 381.97705
1.3499517e+10 -1.0017323e+22 1.628829e-314 647.88867 381.68027
1.3885204e+10 -1.0028393e+22 1.6288296e-314 649.39288 381.4137
1.3259643e+10 -9.9789523e+21 1.6288269e-314 650.75537 381.14499
1.3655857e+10 -9.9914993e+21 1.6288275e-314 652.20349 380.88119
1.356201e+10 -9.9752593e+21 1.6288267e-314 653.54962 380.64441
1.3443037e+10 -9.9568126e+21 1.6288256e-314 654.94196 380.38458
1.3323639e+10 -9.9376363e+21 1.6288246e-314 656.32111 380.11218
1.3380114e+10 -9.9287822e+21 1.6288241e-314 657.79205 379.83166
1.3680769e+10 -9.9354205e+21 1.6288245e-314 659.23785 379.58221
1.3579188e+10 -9.9162351e+21 1.6288234e-314 660.65704 379.28717
1.3403527e+10 -9.8926183e+21 1.6288221e-314 662.05426 378.97967
1.3280262e+10 -9.8756487e+21 1.6288212e-314 663.42932 378.78076
1.34046e+10 -9.8712262e+21 1.6288209e-314 664.75189 378.50546
1.3254064e+10 -9.8490865e+21 1.6288197e-314 666.0484 378.20087
1.3114907e+10 -9.8306397e+21 1.6288187e-314 667.24731 377.98395
1.3252344e+10 -9.8276854e+21 1.6288186e-314 668.57733 377.72086
1.3195434e+10 -9.8092386e+21 1.6288175e-314 669.81879 377.37753
1.3059496e+10 -9.7907919e+21 1.6288165e-314 671.10309 377.142
1.299636e+10 -9.7745609e+21 1.6288156e-314 672.44147 376.87527
1.2713966e+10 -9.7457829e+21 1.6288141e-314 673.72015 376.59463
1.2689488e+10 -9.7295519e+21 1.6288132e-314 674.98926 376.25696
1.2591135e+10 -9.7103666e+21 1.6288121e-314 676.22949 375.95944
1.2428565e+10 -9.6889745e+21 1.6288109e-314 677.45294 375.69156
1.2250757e+10 -9.668312e+21 1.6288098e-314 678.58954 375.47144
1.2178389e+10 -9.6506038e+21 1.6288088e-314 679.66913 375.17004
1.2019685e+10 -9.6314185e+21 1.6288078e-314 680.79755 374.95624
1.1806013e+10 -9.607063e+21 1.6288065e-314 681.95123 374.6832
1.1692407e+10 -9.5886163e+21 1.6288054e-314 683.08227 374.43008
1.164989e+10 -9.5716467e+21 1.6288045e-314 684.26215 374.10803
1.1233491e+10 -9.5347532e+21 1.6288025e-314 685.35907 373.82422
1.1050097e+10 -9.5111454e+21 1.6288012e-314 686.49402 373.54321
1.0916313e+10 -9.4890057e+21 1.6288e-314 687.60187 373.22446
1.0653669e+10 -9.4594891e+21 1.6287984e-314 688.63385 372.9122
1.0548443e+10 -9.4425184e+21 1.6287973e-314 689.64642 372.66806
1.0348943e+10 -9.4196446e+21 1.6287948e-314 690.58545 372.4303
1.0137418e+10 -9.3952981e+21 1.6287921e-314 691.53296 372.15735
9.6941732e+09 -9.3561889e+21 1.6287878e-314 692.50751 371.87866
9.6082801e+09 -9.3384807e+21 1.6287859e-314 693.49957 371.59036
9.3784945e+09 -9.3104413e+21 1.6287828e-314 694.46674 371.28159
9.0342585e+09 -9.2772362e+21 1.6287792e-314 695.44592 370.9986
8.7074059e+09 -9.2455084e+21 1.6287757e-314 696.41119 370.71191
8.5517138e+09 -9.2189462e+21 1.6287728e-314 697.32007 370.33096
8.1557166e+09 -9.1820527e+21 1.6287687e-314 698.14996 370.03217
7.8585068e+09 -9.1540133e+21 1.6287657e-314 698.95496 369.8064
7.5769682e+09 -9.1244967e+21 1.6287624e-314 699.71588 369.51623
7.05105e+09 -9.0817035e+21 1.6287577e-314 700.45068 369.26364
6.6780314e+09 -9.0462827e+21 1.6287538e-314 701.21631 368.96371
6.3602064e+09 -9.0108663e+21 1.62875e-314 701.97833 368.60989
5.8778819e+09 -8.9688072e+21 1.6287453e-314 702.70605 368.30774
5.0128722e+09 -8.8905932e+21 1.6287368e-314 704.05988 367.71188
4.5777951e+09 -8.8507499e+21 1.6287324e-314 704.65137 367.40118
4.1929641e+09 -8.8057409e+21 1.6287274e-314 705.19165 367.05783
3.6654341e+09 -8.7149798e+21 1.6287175e-314 706.14862 366.43823
63731624 -8.6153692e+21 1.6287066e-314 461.2001 396.73138
1.1205166e+08 -8.8123792e+21 1.6287282e-314 474.16016 396.86707
1.3451971e+08 -8.8795279e+21 1.6287355e-314 479.06003 396.49902
1.9769603e+08 -8.9975852e+21 1.6287485e-314 483.87579 396.51868
2.4980611e+08 -9.0846533e+21 1.628758e-314 488.14505 396.29547
2.8816544e+08 -9.1289237e+21 1.6287629e-314 492.24954 396.10062
3.1463328e+08 -9.1466364e+21 1.6287648e-314 495.83762 395.94547
4.3450323e+08 -9.2528898e+21 1.6287765e-314 499.49847 395.81003
4.838416e+08 -9.2927331e+21 1.6287809e-314 502.82794 395.68051
5.2842861e+08 -9.3237224e+21 1.6287843e-314 505.93051 395.43771
6.7688717e+08 -9.3886553e+21 1.6287914e-314 509.14496 395.23523
8.0554816e+08 -9.4462125e+21 1.6287976e-314 512.33429 395.18588
8.950176e+08 -9.4779358e+21 1.6287994e-314 515.42505 394.95959
9.8322548e+08 -9.5111454e+21 1.6288012e-314 518.5932 394.78568
1.0455564e+09 -9.524422e+21 1.6288019e-314 521.56226 394.426
1.3058317e+09 -9.5805008e+21 1.628805e-314 524.81537 394.15271
1.3739605e+09 -9.5908321e+21 1.6288056e-314 527.69623 394.03098
1.5885478e+09 -9.6314185e+21 1.6288078e-314 530.70459 393.81226
1.6903918e+09 -9.6491266e+21 1.6288088e-314 533.32398 393.68979
1.8854372e+09 -9.6852815e+21 1.6288107e-314 535.99799 393.4642
2.1364247e+09 -9.7347221e+21 1.6288135e-314 538.78156 393.26108
2.3456978e+09 -9.7487373e+21 1.6288142e-314 541.38751 392.99603
2.703467e+09 -9.7775153e+21 1.6288158e-314 543.99274 392.68466
2.9647099e+09 -9.8011231e+21 1.6288171e-314 546.56268 392.52383
3.2238024e+09 -9.8225242e+21 1.6288183e-314 548.9848 392.33044
3.5183294e+09 -9.8439253e+21 1.6288194e-314 551.62677 392.02466
3.8821136e+09 -9.8608949e+21 1.6288204e-314 554.10071 391.41339
4.428756e+09 -9.9036881e+21 1.6288227e-314 556.59912 391.1026
4.2597484e+09 -9.894834e+21 1.6288222e-314 559.06036 391.19067
4.72017e+09 -9.9317275e+21 1.6288243e-314 561.53192 391.39908
4.7959747e+09 -9.9250892e+21 1.6288239e-314 563.92755 391.14801
5.438932e+09 -9.9501743e+21 1.6288253e-314 566.38117 390.86185
6.2487481e+09 -9.984852e+21 1.6288272e-314 568.828 390.56396
6.7370855e+09 -1.000773e+22 1.6288284e-314 571.22052 390.42746
7.1655107e+09 -1.00188e+22 1.628829e-314 573.52466 390.10599
7.2947886e+09 -1.0017323e+22 1.628829e-314 575.76312 389.90024
7.6398889e+09 -1.0025438e+22 1.6288294e-314 577.95984 389.62372
8.5360323e+09 -1.0069709e+22 1.6288318e-314 580.17645 389.42847
8.3919391e+09 -1.0051262e+22 1.6288308e-314 582.15411 389.216
8.8117679e+09 -1.0068232e+22 1.6288318e-314 584.17773 389.03388
9.2741243e+09 -1.0083733e+22 1.6288326e-314 586.16095 388.77072
9.6443536e+09 -1.0095532e+22 1.6288332e-314 588.22498 388.54559
9.2547994e+09 -1.0060116e+22 1.6288313e-314 590.24426 388.2529
1.0515155e+10 -1.0122104e+22 1.6288347e-314 592.39319 387.97894
1.0109495e+10 -1.008594e+22 1.6288327e-314 594.44385 387.70334
1.0611575e+10 -1.0105125e+22 1.6288338e-314 596.49023 387.4686
1.1404642e+10 -1.0142019e+22 1.6288358e-314 598.47693 387.24472
1.0704136e+10 -1.0090371e+22 1.628833e-314 600.38617 387.00668
1.174416e+10 -1.0142757e+22 1.6288358e-314 602.21271 386.80057
1.1404216e+10 -1.0114718e+22 1.6288343e-314 604.17346 386.63409
1.224646e+10 -1.0151611e+22 1.6288363e-314 606.02856 386.32596
1.2518115e+10 -1.0171535e+22 1.6288374e-314 607.81512 386.43259
1.3952846e+10 -1.0226137e+22 1.6288404e-314 612.38202 385.74899
1.4102956e+10 -1.0151611e+22 1.6288363e-314 623.70563 383.8417
1.3802957e+10 -1.0119888e+22 1.6288346e-314 625.29895 383.52508
1.2972952e+10 -1.0059378e+22 1.6288313e-314 627.00079 383.27002
1.4419708e+10 -1.0132426e+22 1.6288353e-314 628.69958 382.97116
1.3295929e+10 -1.0057909e+22 1.6288312e-314 630.36932 382.79269
1.3959293e+10 -1.008521e+22 1.6288327e-314 632.09168 382.53174
1.4568098e+10 -1.0110295e+22 1.6288341e-314 633.70935 382.26779
1.3586483e+10 -1.0040931e+22 1.6288303e-314 635.26215 382.01617
1.4393723e+10 -1.007414e+22 1.6288321e-314 636.77179 381.67685
1.378985e+10 -1.0026177e+22 1.6288294e-314 638.27362 381.41403
1.4246406e+10 -1.0043147e+22 1.6288304e-314 639.81616 381.17957
1.4368172e+10 -1.0040192e+22 1.6288302e-314 641.3371 380.94815
1.4184778e+10 -1.0021016e+22 1.6288292e-314 642.88452 380.76352
1.4643694e+10 -1.0034293e+22 1.6288299e-314 644.48273 380.44052
1.4383852e+10 -1.0008469e+22 1.6288285e-314 646.03204 380.21414
1.4370744e+10 -9.9959218e+21 1.6288278e-314 647.60614 379.95239
1.4839761e+10 -1.0010685e+22 1.6288286e-314 649.14172 379.65176
1.4456224e+10 -9.9782137e+21 1.6288268e-314 650.57965 379.43955
1.4492727e+10 -9.9678824e+21 1.6288262e-314 651.90735 379.14261
1.4532024e+10 -9.9582898e+21 1.6288257e-314 653.3468 378.87723
1.446245e+10 -9.943536e+21 1.6288249e-314 654.70435 378.64279
1.4716066e+10 -9.9486971e+21 1.6288252e-314 656.13678 378.41885
1.419852e+10 -9.9059039e+21 1.6288228e-314 657.54889 378.1503
1.4636177e+10 -9.9177123e+21 1.6288235e-314 659.01501 377.82047
1.4355077e+10 -9.8904115e+21 1.628822e-314 660.41821 377.57617
1.4359583e+10 -9.8800803e+21 1.6288214e-314 661.86664 377.34051
1.4471469e+10 -9.8704876e+21 1.6288209e-314 663.26318 376.97104
1.4579489e+10 -9.8675332e+21 1.6288207e-314 664.56976 376.76682
1.416159e+10 -9.828424e+21 1.6288186e-314 665.76514 376.44488
1.4064089e+10 -9.8129316e+21 1.6288177e-314 667.03058 376.22604
1.4006327e+10 -9.7989164e+21 1.628817e-314 668.3031 375.98962
1.3866736e+10 -9.7782539e+21 1.6288158e-314 669.56976 375.70749
1.4100601e+10 -9.7767767e+21 1.6288158e-314 670.89716 375.3591
1.375335e+10 -9.7465215e+21 1.6288141e-314 672.1604 375.15216
1.3793507e+10 -9.7361902e+21 1.6288135e-314 673.46252 374.86246
1.3582842e+10 -9.7111052e+21 1.6288122e-314 674.76294 374.57037
1.3545691e+10 -9.6985582e+21 1.6288115e-314 676.00653 374.35025
1.3490067e+10 -9.6823272e+21 1.6288106e-314 677.198 374.05072
1.3173103e+10 -9.6506038e+21 1.6288088e-314 678.32989 373.75925
1.3162363e+10 -9.6387954e+21 1.6288082e-314 679.45245 373.5101
1.3074962e+10 -9.6196101e+21 1.6288071e-314 680.57147 373.19318
1.2694641e+10 -9.5856709e+21 1.6288053e-314 681.68036 372.94138
1.2547537e+10 -9.5620541e+21 1.628804e-314 682.82428 372.61548
1.2287482e+10 -9.5384462e+21 1.6288027e-314 683.98199 372.43344
1.2319046e+10 -9.524422e+21 1.6288019e-314 685.15942 372.07312
1.2068223e+10 -9.4978598e+21 1.6288005e-314 686.26514 371.82022
1.1817826e+10 -9.4705589e+21 1.628799e-314 687.36035 371.54224
1.1522112e+10 -9.4395685e+21 1.628797e-314 688.37494 371.23694
1.1340651e+10 -9.4122677e+21 1.628794e-314 689.37396 370.86642
1.1283741e+10 -9.3967708e+21 1.6287923e-314 690.34143 370.59296
1.1088755e+10 -9.3761128e+21 1.62879e-314 691.31219 370.39294
1.0782095e+10 -9.3436463e+21 1.6287865e-314 692.29498 370.07828
1.0680089e+10 -9.3222497e+21 1.6287841e-314 693.26825 369.72363
1.0231478e+10 -9.2831405e+21 1.6287798e-314 694.21277 369.4613
9.7951069e+09 -9.2432971e+21 1.6287755e-314 695.13818 369.1543
9.5949599e+09 -9.217469e+21 1.6287726e-314 696.12073 368.83627
9.3160059e+09 -9.1872183e+21 1.6287693e-314 697.03204 368.52502
9.0656093e+09 -9.1621287e+21 1.6287665e-314 697.87256 368.30045
8.714279e+09 -9.127451e+21 1.6287627e-314 698.66418 368.00861
8.4875008e+09 -9.1008888e+21 1.6287598e-314 699.44727 367.70206
8.1666693e+09 -9.0669452e+21 1.6287561e-314 700.21564 367.37985
7.6654459e+09 -9.0256246e+21 1.6287516e-314 700.96948 367.12164
7.2937175e+09 -8.9887312e+21 1.6287475e-314 701.7262 366.79144
6.8751719e+09 -8.9488878e+21 1.6287432e-314 702.46826 366.46188
6.4546929e+09 -8.90904e+21 1.6287388e-314 703.19531 366.14096
6.0565494e+09 -8.8706693e+21 1.6287346e-314 703.88818 365.81564
5.6087993e+09 -8.8315645e+21 1.6287303e-314 704.51001 365.53683
5.0450873e+09 -8.7850784e+21 1.6287252e-314 705.06836 365.2619
4.1963986e+09 -8.7068644e+21 1.6287166e-314 706.10706 364.79031
3.9306481e+09 -8.6611168e+21 1.6287116e-314 706.56329 364.4798
3.8112476e+09 -8.6308616e+21 1.6287083e-314 707.05664 364.11993
53898504 -8.4582026e+21 1.6286893e-314 459.0842 394.74603
1.5710864e+08 -8.8492727e+21 1.6287322e-314 478.34226 394.76254
2.0848042e+08 -8.9400292e+21 1.6287422e-314 482.75287 394.66147
2.289553e+08 -8.9673345e+21 1.6287452e-314 487.01288 394.41907
3.1950547e+08 -9.078015e+21 1.6287573e-314 491.40179 394.1571
3.9715027e+08 -9.1473704e+21 1.6287649e-314 495.2243 394.09561
4.2620858e+08 -9.1665558e+21 1.628767e-314 498.56271 393.92456
5.5187674e+08 -9.2691208e+21 1.6287783e-314 502.31189 393.74445
6.8918132e+08 -9.3281494e+21 1.6287848e-314 505.48941 393.63556
7.8831476e+08 -9.3679973e+21 1.6287891e-314 508.63055 393.48587
8.4779994e+08 -9.3857054e+21 1.6287911e-314 511.71341 393.25391
9.7144128e+08 -9.431453e+21 1.6287961e-314 515.05408 392.98328
1.1907259e+09 -9.4963826e+21 1.6288004e-314 518.51739 392.74921
1.3211855e+09 -9.520738e+21 1.6288017e-314 521.62695 392.61401
1.5425918e+09 -9.5635312e+21 1.6288041e-314 524.83875 392.4209
1.7699566e+09 -9.6063244e+21 1.6288064e-314 527.87439 392.17563
1.90514e+09 -9.6343638e+21 1.628808e-314 530.5343 392.09506
1.9881946e+09 -9.6424883e+21 1.6288084e-314 533.22516 391.8381
2.4139863e+09 -9.7007739e+21 1.6288116e-314 535.83209 391.6026
2.5711826e+09 -9.7111052e+21 1.6288122e-314 538.44379 391.43131
3.38916e+09 -9.7848922e+21 1.6288162e-314 541.38824 390.9068
3.415358e+09 -9.7871079e+21 1.6288163e-314 543.8092 390.90491
3.4331817e+09 -9.7804696e+21 1.628816e-314 546.38989 390.71283
4.2718828e+09 -9.8520408e+21 1.6288199e-314 549.6203 390.06625
4.2563139e+09 -9.8313783e+21 1.6288188e-314 554.64838 389.65729
4.1157596e+09 -9.8254786e+21 1.6288184e-314 556.98053 389.93552
5.2658473e+09 -9.894834e+21 1.6288222e-314 559.29718 389.72815
6.2105242e+09 -9.9420588e+21 1.6288248e-314 561.95093 389.53232
6.4894823e+09 -9.9472289e+21 1.6288251e-314 564.29425 389.28744
6.9041613e+09 -9.9597669e+21 1.6288258e-314 566.59216 389.01639
7.5073874e+09 -9.9863292e+21 1.6288273e-314 568.91418 388.81326
7.7451152e+09 -9.9863292e+21 1.6288273e-314 571.1936 388.49506
8.2577214e+09 -1.0006992e+22 1.6288284e-314 573.53015 388.28131
8.7922299e+09 -1.0028393e+22 1.6288296e-314 575.83637 388.05609
8.844413e+09 -1.0022484e+22 1.6288292e-314 577.93231 387.84805
9.174698e+09 -1.00306e+22 1.6288297e-314 580.06909 387.59201
9.582717e+09 -1.004684e+22 1.6288306e-314 582.13251 387.41132
9.9868775e+09 -1.0060855e+22 1.6288313e-314 584.13568 387.20035
1.0101762e+10 -1.0056432e+22 1.6288311e-314 586.11035 386.9487
1.0579798e+10 -1.007414e+22 1.6288321e-314 588.15643 386.69754
1.0572491e+10 -1.0063071e+22 1.6288315e-314 590.17529 386.45639
1.1334421e+10 -1.0098487e+22 1.6288334e-314 592.26971 386.24676
1.0969565e+10 -1.0059378e+22 1.6288313e-314 594.28863 385.85098
1.150257e+10 -1.008521e+22 1.6288327e-314 596.3714 385.71747
1.2128127e+10 -1.0111034e+22 1.6288341e-314 598.32733 385.46976
1.209635e+10 -1.0096271e+22 1.6288333e-314 600.37421 385.17621
1.2015176e+10 -1.008004e+22 1.6288324e-314 601.90442 384.90784
1.1965999e+10 -1.0067493e+22 1.6288317e-314 603.94055 384.70196
1.348319e+10 -1.0147927e+22 1.6288361e-314 605.88708 384.49609
1.3588204e+10 -1.014128e+22 1.6288358e-314 607.56354 384.19165
1.4476831e+10 -1.0159727e+22 1.6288368e-314 612.29523 383.41797
1.4271752e+10 -1.0145712e+22 1.628836e-314 613.13586 383.38061
1.3522274e+10 -1.0061593e+22 1.6288314e-314 620.0437 382.48819
1.3953059e+10 -1.0075618e+22 1.6288322e-314 621.70502 382.2208
1.4147627e+10 -1.0076356e+22 1.6288322e-314 623.32764 381.98074
1.4771038e+10 -1.0102918e+22 1.6288337e-314 625.01794 381.74646
1.4188644e+10 -1.0055694e+22 1.6288311e-314 626.6745 381.45282
1.5272692e+10 -1.0109557e+22 1.628834e-314 628.40338 381.20862
1.4096296e+10 -1.0029131e+22 1.6288296e-314 630.04089 380.97522
1.4835247e+10 -1.0058639e+22 1.6288312e-314 631.75855 380.64676
1.5957092e+10 -1.0114718e+22 1.6288343e-314 633.4729 380.40903
1.4866819e+10 -1.0043147e+22 1.6288304e-314 635.01312 380.26572
1.5388436e+10 -1.0062332e+22 1.6288314e-314 636.55279 379.99164
1.4919428e+10 -1.0021016e+22 1.6288292e-314 638.07068 379.68326
1.5214283e+10 -1.0026177e+22 1.6288294e-314 639.55127 379.40155
1.5280204e+10 -1.0019539e+22 1.6288291e-314 641.0835 379.17349
1.5202257e+10 -1.0001831e+22 1.6288281e-314 642.60547 378.88132
1.533518e+10 -1.0001831e+22 1.6288281e-314 644.19855 378.69186
1.5135468e+10 -9.9782137e+21 1.6288268e-314 645.724 378.42914
1.5318649e+10 -9.9752593e+21 1.6288267e-314 647.30926 378.12836
1.554134e+10 -9.9774751e+21 1.6288268e-314 648.85364 377.87646
1.5400253e+10 -9.9553444e+21 1.6288256e-314 650.29468 377.56766
1.5495174e+10 -9.9509129e+21 1.6288253e-314 651.68335 377.33585
1.5456737e+10 -9.9383658e+21 1.6288246e-314 653.10211 377.10117
1.5460604e+10 -9.9287822e+21 1.6288241e-314 654.50659 376.88138
1.5692102e+10 -9.9280436e+21 1.6288241e-314 655.93005 376.5473
1.5378348e+10 -9.9022109e+21 1.6288226e-314 657.37909 376.40195
1.5635831e+10 -9.9029495e+21 1.6288227e-314 658.78168 376.06564
1.5502907e+10 -9.8830256e+21 1.6288216e-314 660.18829 375.79584
1.5358163e+10 -9.8623721e+21 1.6288205e-314 661.59741 375.51901
1.5278922e+10 -9.8439254e+21 1.6288194e-314 662.9812 375.20682
1.5156304e+10 -9.82474e+21 1.6288184e-314 664.24744 374.93857
1.5264324e+10 -9.8188313e+21 1.6288181e-314 665.58362 374.66498
1.4953576e+10 -9.7922691e+21 1.6288166e-314 666.82129 374.48181
1.5056869e+10 -9.7871079e+21 1.6288163e-314 668.10138 374.24142
1.4842337e+10 -9.7590685e+21 1.6288148e-314 669.34467 373.89261
1.480884e+10 -9.7457829e+21 1.6288141e-314 670.62592 373.62756
1.4730025e+10 -9.725868e+21 1.628813e-314 671.93451 373.28384
1.4707046e+10 -9.713321e+21 1.6288123e-314 673.23975 373.04611
1.4523005e+10 -9.6926584e+21 1.6288111e-314 674.51361 372.82693
1.4264449e+10 -9.6616647e+21 1.6288094e-314 675.74469 372.47525
1.4396733e+10 -9.6587193e+21 1.6288093e-314 676.979 372.22504
1.4295161e+10 -9.6439565e+21 1.6288085e-314 678.1275 372.04205
1.420346e+10 -9.6255098e+21 1.6288075e-314 679.22363 371.73889
1.3898308e+10 -9.5952636e+21 1.6288058e-314 680.34412 371.48013
1.3802961e+10 -9.5768169e+21 1.6288048e-314 681.48987 371.19498
1.3623212e+10 -9.5517228e+21 1.6288034e-314 682.61273 370.85523
1.3547403e+10 -9.5347532e+21 1.6288025e-314 683.78876 370.58975
1.3346404e+10 -9.5096682e+21 1.6288011e-314 684.92151 370.29633
1.3101586e+10 -9.4845831e+21 1.6287997e-314 686.03571 370.06058
1.2878682e+10 -9.4558051e+21 1.6287982e-314 687.13397 369.70303
1.255441e+10 -9.4225989e+21 1.6287951e-314 688.14075 369.4006
1.2331719e+10 -9.3989866e+21 1.6287925e-314 689.14368 369.17572
1.2158196e+10 -9.37759e+21 1.6287902e-314 690.07513 368.92822
1.206135e+10 -9.3569274e+21 1.6287879e-314 691.06018 368.59528
1.1567856e+10 -9.3156069e+21 1.6287834e-314 691.99719 368.32367
