# .PCD v0.7 - Point Cloud Data file format
VERSION 0.7
FIELDS x y z p_x p_y
SIZE 8 8 8 8 8
TYPE F F F F F
COUNT 1 1 1 1 1
WIDTH 742
HEIGHT 1
VIEWPOINT 0 0 0 1 0 0 0
POINTS 742
DATA ascii
-4.9480788e+11 -1.1059199e+22 1.6288861e-314 627.27313 676.9704
-4.8653409e+11 -1.1085023e+22 1.6288875e-314 628.91577 676.60437
-4.7498219e+11 -1.1110108e+22 1.6288889e-314 630.51611 676.19312
-4.6815832e+11 -1.1133725e+22 1.6288902e-314 632.09338 675.80493
-4.5475123e+11 -1.1162503e+22 1.6288918e-314 633.66467 675.55023
-4.4142645e+11 -1.1187588e+22 1.6288931e-314 635.23431 675.10449
-4.3514548e+11 -1.1209728e+22 1.6288944e-314 636.70892 674.77216
-4.2631516e+11 -1.1234813e+22 1.6288957e-314 638.25806 674.46558
-4.1257121e+11 -1.1262113e+22 1.6288972e-314 639.8526 674.07147
-4.0359645e+11 -1.1285721e+22 1.6288985e-314 641.37286 673.71289
-3.9319221e+11 -1.1310815e+22 1.6288999e-314 642.86292 673.39911
-3.8257512e+11 -1.1333685e+22 1.6289012e-314 644.3241 673.00177
-3.7709814e+11 -1.1354347e+22 1.6289023e-314 645.70081 672.66699
-3.6802036e+11 -1.1377216e+22 1.6289036e-314 647.151 672.31592
-3.6128588e+11 -1.1398617e+22 1.6289047e-314 648.56763 671.93665
-3.5701162e+11 -1.1418541e+22 1.6289058e-314 649.93603 671.61969
-3.4267654e+11 -1.1442149e+22 1.6289071e-314 651.34131 671.24225
-3.3854646e+11 -1.1462073e+22 1.6289082e-314 652.67578 670.92877
-3.3324827e+11 -1.1482736e+22 1.6289093e-314 654.06311 670.57172
-3.2508432e+11 -1.1503398e+22 1.6289105e-314 655.42877 670.18408
-3.2262436e+11 -1.1521845e+22 1.6289115e-314 656.75299 669.86414
-3.1424047e+11 -1.1542508e+22 1.6289126e-314 658.06085 669.51038
-3.1221331e+11 -1.1560216e+22 1.6289136e-314 659.36462 669.14209
-3.0592552e+11 -1.1579401e+22 1.6289146e-314 660.65381 668.79718
-3.0167171e+11 -1.1597109e+22 1.6289156e-314 661.84815 668.51477
-2.9671011e+11 -1.1615556e+22 1.6289166e-314 663.06488 668.2096
-2.8839517e+11 -1.1634741e+22 1.6289177e-314 664.37146 667.81256
-2.8281517e+11 -1.1653188e+22 1.6289187e-314 665.59381 667.47046
-2.8090466e+11 -1.1670158e+22 1.6289196e-314 666.80457 667.17529
-2.7457215e+11 -1.1687127e+22 1.6289206e-314 667.99939 666.77594
-2.7322185e+11 -1.1703358e+22 1.6289214e-314 669.14661 666.46649
-2.7208794e+11 -1.171885e+22 1.6289223e-314 670.27808 666.12793
-2.7325959e+11 -1.1732136e+22 1.628923e-314 671.37762 665.815
-2.7125983e+11 -1.174689e+22 1.6289238e-314 672.44556 665.47492
-2.6858321e+11 -1.1762391e+22 1.6289247e-314 673.53906 665.10016
-2.6850076e+11 -1.1774929e+22 1.6289254e-314 674.60663 664.74988
-2.6828082e+11 -1.1788215e+22 1.6289261e-314 675.60645 664.44488
-2.6969994e+11 -1.1800762e+22 1.6289268e-314 676.63013 664.16925
-2.6924289e+11 -1.1814039e+22 1.6289275e-314 677.646 663.88257
-2.6814346e+11 -1.1827324e+22 1.6289282e-314 678.63593 663.54358
-2.6897144e+11 -1.1836917e+22 1.6289288e-314 679.59021 663.14746
-2.690299e+11 -1.1847248e+22 1.6289293e-314 680.50464 662.79871
-2.7087841e+11 -1.1856832e+22 1.6289299e-314 681.36212 662.54956
-2.7144883e+11 -1.1867163e+22 1.6289304e-314 682.20618 662.26556
-2.7407394e+11 -1.187381e+22 1.6289308e-314 682.99518 661.94232
-2.7462025e+11 -1.1881187e+22 1.6289312e-314 683.81244 661.50104
-2.8095971e+11 -1.1887826e+22 1.6289316e-314 684.56677 661.27289
-2.9345297e+11 -1.1899634e+22 1.6289322e-314 686.00745 660.69367
-1.7782193e+15 -2.6270752e+21 1.6278198e-314 151.74846 739.35162
-1.7493678e+15 -2.6468888e+21 1.6278241e-314 153.85736 738.70062
-1.7388827e+15 -2.6657409e+21 1.6278282e-314 156.10309 738.40564
-1.6210857e+15 -2.7365757e+21 1.6278438e-314 159.77707 738.5575
-1.3598761e+14 -4.8674354e+21 1.6282954e-314 332.35742 716.58691
-1.4314767e+14 -4.858802e+21 1.6282945e-314 333.88019 716.24603
-4.6496723e+12 -8.8551792e+21 1.6287329e-314 508.62106 696.39172
-4.2212446e+12 -8.9466743e+21 1.6287429e-314 512.69934 695.64453
-4.1434822e+12 -9.005703e+21 1.6287494e-314 516.11023 695.27161
-3.9063446e+12 -9.0853942e+21 1.6287581e-314 519.68091 694.81335
-3.6699494e+12 -9.1628696e+21 1.6287666e-314 523.14722 694.30585
-3.5589556e+12 -9.2182098e+21 1.6287727e-314 526.23572 693.79492
-3.417035e+12 -9.2772385e+21 1.6287792e-314 529.18762 693.39679
-3.1963349e+12 -9.3451258e+21 1.6287866e-314 532.17712 692.92615
-3.1494132e+12 -9.3893962e+21 1.6287915e-314 534.90131 692.51886
-3.0445766e+12 -9.4388322e+21 1.6287969e-314 537.63135 692.05072
-2.8816006e+12 -9.4986029e+21 1.6288005e-314 540.53497 691.59033
-2.7875371e+12 -9.548782e+21 1.6288033e-314 543.31769 691.16559
-2.5817079e+12 -9.6122377e+21 1.6288067e-314 546.18829 690.71222
-2.5446009e+12 -9.6520855e+21 1.6288089e-314 548.67859 690.3631
-2.4388814e+12 -9.6993013e+21 1.6288115e-314 551.22278 689.90497
-2.2969902e+12 -9.7509576e+21 1.6288143e-314 553.76685 689.47278
-2.2096899e+12 -9.7944894e+21 1.6288167e-314 556.1925 689.05878
-2.0448724e+12 -9.8476138e+21 1.6288196e-314 558.67194 688.62824
-1.9509189e+12 -9.8896774e+21 1.628822e-314 560.98212 688.20325
-1.8766472e+12 -9.9302549e+21 1.6288242e-314 563.2995 687.81018
-1.7713408e+12 -9.976741e+21 1.6288267e-314 565.7345 687.44354
-1.6861839e+12 -1.0016589e+22 1.6288289e-314 567.97388 687.00525
-1.5730436e+12 -1.0061598e+22 1.6288314e-314 570.3761 686.55377
-1.5107288e+12 -1.009923e+22 1.6288335e-314 572.55359 686.1842
-1.4341754e+12 -1.0138339e+22 1.6288356e-314 574.7821 685.77289
-1.3367312e+12 -1.0178917e+22 1.6288378e-314 576.9967 685.34918
-1.2635039e+12 -1.0216549e+22 1.6288399e-314 579.1181 684.98621
-1.1837346e+12 -1.0253442e+22 1.6288419e-314 581.14911 684.58844
-1.096268e+12 -1.0291074e+22 1.628844e-314 583.24182 684.13745
-1.0545556e+12 -1.0328706e+22 1.628846e-314 585.35101 683.72815
-1.0254598e+12 -1.0364861e+22 1.628848e-314 587.39832 683.42682
-9.8116318e+11 -1.0402493e+22 1.6288501e-314 589.46655 683.00372
-9.4875485e+11 -1.043791e+22 1.628852e-314 591.51013 682.63599
-9.0908984e+11 -1.0474065e+22 1.628854e-314 593.51953 682.25012
-8.8046162e+11 -1.0507274e+22 1.6288558e-314 595.48383 681.87598
-8.4258338e+11 -1.0541952e+22 1.6288577e-314 597.4884 681.42517
-8.0202498e+11 -1.057663e+22 1.6288596e-314 599.35706 681.08472
-7.696308e+11 -1.06091e+22 1.6288614e-314 601.2641 680.68524
-7.4134599e+11 -1.0640085e+22 1.6288631e-314 603.07452 680.32056
-7.0776954e+11 -1.0672556e+22 1.6288649e-314 604.92853 679.95599
-6.8690602e+11 -1.0702073e+22 1.6288665e-314 606.77441 679.59815
-6.4109793e+11 -1.0736012e+22 1.6288684e-314 608.66547 679.10565
-6.3066617e+11 -1.076479e+22 1.62887e-314 610.47156 678.84357
-5.929253e+11 -1.079799e+22 1.6288718e-314 612.27576 678.50293
-5.6895642e+11 -1.0825291e+22 1.6288733e-314 614.03027 678.07983
-5.47983e+11 -1.0854808e+22 1.6288749e-314 615.83545 677.6853
-5.2786869e+11 -1.0885802e+22 1.6288766e-314 617.56555 677.28375
-5.1464012e+11 -1.091458e+22 1.6288782e-314 619.26294 676.92895
-5.0061463e+11 -1.0943358e+22 1.6288798e-314 620.95264 676.53509
-4.901349e+11 -1.0971388e+22 1.6288813e-314 622.62628 676.27069
-4.790504e+11 -1.0997959e+22 1.6288827e-314 624.31738 675.85516
-4.6307325e+11 -1.1027467e+22 1.6288844e-314 625.99323 675.50043
-4.5039439e+11 -1.1056983e+22 1.628886e-314 627.68085 675.19092
-4.4182517e+11 -1.10806e+22 1.6288873e-314 629.28888 674.74103
-4.3576414e+11 -1.1104208e+22 1.6288886e-314 630.87024 674.38983
-4.1719595e+11 -1.1134463e+22 1.6288902e-314 632.51794 674.03113
-4.05713e+11 -1.1160287e+22 1.6288917e-314 634.11572 673.6474
-3.944429e+11 -1.1184633e+22 1.628893e-314 635.63293 673.27856
-3.8905532e+11 -1.1208989e+22 1.6288943e-314 637.14319 673.01221
-3.818398e+11 -1.1230381e+22 1.6288955e-314 638.63446 672.57739
-3.6955285e+11 -1.1256214e+22 1.6288969e-314 640.19012 672.23956
-3.5827594e+11 -1.1281299e+22 1.6288983e-314 641.73944 671.82562
-3.4939739e+11 -1.1306384e+22 1.6288997e-314 643.25311 671.57703
-3.3838157e+11 -1.1328523e+22 1.6289009e-314 644.73669 671.08508
-3.3401792e+11 -1.1349916e+22 1.6289021e-314 646.14691 670.7948
-3.2674736e+11 -1.1372794e+22 1.6289033e-314 647.56445 670.4917
-3.1514067e+11 -1.1394934e+22 1.6289045e-314 648.97705 670.08661
-3.0720374e+11 -1.1417064e+22 1.6289057e-314 650.38062 669.76764
-3.0151364e+11 -1.1436988e+22 1.6289068e-314 651.73212 669.40314
-3.020222e+11 -1.1454696e+22 1.6289078e-314 653.03125 669.09198
-2.8820957e+11 -1.1479781e+22 1.6289092e-314 654.48395 668.78326
-2.8051984e+11 -1.1499705e+22 1.6289103e-314 655.84088 668.37494
-2.7483325e+11 -1.1519629e+22 1.6289114e-314 657.18634 668.00543
-2.7288512e+11 -1.1539553e+22 1.6289125e-314 658.49994 667.71509
-2.6782732e+11 -1.1560954e+22 1.6289136e-314 659.83398 667.35645
-2.7021872e+11 -1.1574969e+22 1.6289144e-314 661.0332 667.08423
-2.649377e+11 -1.1594893e+22 1.6289155e-314 662.29633 666.69214
-2.6160821e+11 -1.161334e+22 1.6289165e-314 663.55267 666.28204
-2.5968067e+11 -1.1631048e+22 1.6289175e-314 664.76904 666.01074
-2.5717575e+11 -1.1648756e+22 1.6289184e-314 665.97803 665.64874
-2.5538216e+11 -1.1665726e+22 1.6289194e-314 667.216 665.2981
-2.5242046e+11 -1.1684173e+22 1.6289204e-314 668.43213 664.95093
-2.5007021e+11 -1.1701142e+22 1.6289213e-314 669.61395 664.62787
-2.5256818e+11 -1.1715167e+22 1.6289221e-314 670.70142 664.43665
-2.4936242e+11 -1.1731397e+22 1.628923e-314 671.81238 664.08929
-2.4818041e+11 -1.1744683e+22 1.6289237e-314 672.91223 663.62781
-2.4676824e+11 -1.1758698e+22 1.6289245e-314 673.98395 663.2973
-2.466892e+11 -1.1772723e+22 1.6289252e-314 675.0191 663.03137
-2.4580276e+11 -1.1785999e+22 1.628926e-314 676.07221 662.66229
-2.4435271e+11 -1.1800023e+22 1.6289267e-314 677.10895 662.3175
-2.45198e+11 -1.1811823e+22 1.6289274e-314 678.09918 662.02649
-2.4434249e+11 -1.1825108e+22 1.6289281e-314 679.11255 661.67285
-2.4548321e+11 -1.183544e+22 1.6289287e-314 680.09241 661.31232
-2.4737301e+11 -1.1845032e+22 1.6289292e-314 681.00745 660.99286
-2.5080211e+11 -1.1853886e+22 1.6289297e-314 681.84619 660.80621
-2.4747262e+11 -1.1865695e+22 1.6289303e-314 682.76563 660.33728
-2.4940017e+11 -1.187381e+22 1.6289308e-314 683.58246 660.04852
-2.5141369e+11 -1.1881926e+22 1.6289312e-314 684.38074 659.78442
-2.5243422e+11 -1.1890041e+22 1.6289317e-314 685.16577 659.46289
-2.5576017e+11 -1.1895941e+22 1.628932e-314 685.88129 659.20776
-2.599761e+11 -1.190185e+22 1.6289323e-314 686.61017 658.96826
-2.6935981e+11 -1.1921035e+22 1.6289334e-314 689.24487 657.69342
-2.7125983e+11 -1.1928412e+22 1.6289338e-314 689.89526 657.47778
-1.7582337e+15 -2.605825e+21 1.6278151e-314 151.1544 737.2948
-1.724879e+15 -2.6294013e+21 1.6278203e-314 153.41551 736.73663
-1.6955358e+15 -2.6522368e+21 1.6278253e-314 155.56494 736.31006
-1.6048304e+15 -2.7083157e+21 1.6278376e-314 158.6483 736.36786
-1.3467697e+14 -4.8185893e+21 1.62829e-314 331.65408 714.39203
-4.4959594e+12 -8.7917234e+21 1.6287259e-314 505.91763 694.75677
-4.126879e+12 -8.8883842e+21 1.6287365e-314 510.00879 694.19611
-4.0187163e+12 -8.9525785e+21 1.6287436e-314 513.47821 693.78821
-3.8155799e+12 -9.0300539e+21 1.6287521e-314 517.31726 693.2074
-3.6382027e+12 -9.0986753e+21 1.6287596e-314 520.62335 692.73724
-3.4636002e+12 -9.1643468e+21 1.6287668e-314 523.86762 692.22253
-3.3662378e+12 -9.2189484e+21 1.6287728e-314 526.85931 691.83826
-3.2012842e+12 -9.2794543e+21 1.6287794e-314 529.79999 691.39166
-3.0497167e+12 -9.3406987e+21 1.6287861e-314 532.85284 690.9632
-2.9612882e+12 -9.3901347e+21 1.6287916e-314 535.58289 690.5669
-2.8166749e+12 -9.4439978e+21 1.6287975e-314 538.34674 690.03723
-2.6757442e+12 -9.5008186e+21 1.6288006e-314 541.14661 689.67517
-2.5199447e+12 -9.557636e+21 1.6288037e-314 543.98529 689.17596
-2.4019652e+12 -9.6100219e+21 1.6288066e-314 546.7619 688.72467
-2.3264027e+12 -9.6557695e+21 1.6288091e-314 549.25787 688.43939
-2.1808811e+12 -9.7059486e+21 1.6288119e-314 551.82813 687.90533
-2.0826672e+12 -9.7539029e+21 1.6288145e-314 554.39813 687.50848
-2.0120236e+12 -9.7937508e+21 1.6288167e-314 556.72717 687.10791
-1.8914898e+12 -9.8394983e+21 1.6288192e-314 559.13611 686.60541
-1.7807969e+12 -9.8859845e+21 1.6288218e-314 561.51837 686.25183
-1.7040233e+12 -9.9265709e+21 1.628824e-314 563.81427 685.87817
-1.6143858e+12 -9.9678869e+21 1.6288262e-314 566.13086 685.40301
-1.4719986e+12 -1.0017327e+22 1.628829e-314 568.56329 684.99811
-1.4241972e+12 -1.0053482e+22 1.6288309e-314 570.7572 684.64179
-1.3330759e+12 -1.0094069e+22 1.6288332e-314 573.01794 684.17548
-1.2419263e+12 -1.0135385e+22 1.6288354e-314 575.25952 683.77777
-1.1338444e+12 -1.0179655e+22 1.6288379e-314 577.50977 683.44781
-1.080284e+12 -1.0215072e+22 1.6288398e-314 579.58557 682.99127
-1.0455945e+12 -1.0251235e+22 1.6288418e-314 581.59985 682.68048
-9.9871425e+11 -1.0290336e+22 1.6288439e-314 583.71045 682.25995
-9.7080011e+11 -1.0323545e+22 1.6288458e-314 585.68243 681.89294
-9.2952711e+11 -1.0362645e+22 1.6288479e-314 587.84528 681.50757
-8.9771017e+11 -1.0397332e+22 1.6288498e-314 589.88495 681.13824
-8.5999708e+11 -1.0432748e+22 1.6288517e-314 591.8941 680.729
-8.1906749e+11 -1.0470381e+22 1.6288538e-314 593.979 680.30609
-7.9237704e+11 -1.0502104e+22 1.6288555e-314 595.88025 679.97632
-7.4831378e+11 -1.0538259e+22 1.6288575e-314 597.86395 679.55512
-7.0840183e+11 -1.0573684e+22 1.6288595e-314 599.75702 679.24127
-6.9710447e+11 -1.0599508e+22 1.6288609e-314 601.57214 678.77466
-6.5431942e+11 -1.0634924e+22 1.6288628e-314 603.47357 678.39642
-6.1803555e+11 -1.0667386e+22 1.6288646e-314 605.30725 678.00623
-5.8177946e+11 -1.0699857e+22 1.6288664e-314 607.22797 677.56397
-5.5603692e+11 -1.073158e+22 1.6288681e-314 609.06097 677.27472
-5.3457565e+11 -1.0763313e+22 1.6288699e-314 610.92993 676.802
-5.2975849e+11 -1.0789136e+22 1.6288713e-314 612.62598 676.48059
-5.0587167e+11 -1.0825291e+22 1.6288733e-314 614.46863 676.16315
-4.8671942e+11 -1.0859239e+22 1.6288751e-314 616.36816 675.74445
-4.7786158e+11 -1.0884324e+22 1.6288765e-314 618.00977 675.36554
-4.6544408e+11 -1.0913841e+22 1.6288781e-314 619.7088 675.09113
-4.5752759e+11 -1.0938187e+22 1.6288795e-314 621.32947 674.6687
-4.5293011e+11 -1.0963273e+22 1.6288808e-314 622.9602 674.388
-4.3587397e+11 -1.0992789e+22 1.6288825e-314 624.66486 673.98456
-4.2096873e+11 -1.1021567e+22 1.628884e-314 626.36859 673.57709
-4.0674375e+11 -1.1049607e+22 1.6288856e-314 628.04016 673.21014
-3.9340534e+11 -1.1077646e+22 1.6288871e-314 629.68787 672.82715
-3.8029368e+11 -1.1104208e+22 1.6288886e-314 631.33466 672.39429
-3.7357965e+11 -1.1129293e+22 1.62889e-314 632.90924 672.12353
-3.5990464e+11 -1.1155855e+22 1.6288914e-314 634.50647 671.71063
-3.549087e+11 -1.1177995e+22 1.6288926e-314 635.979 671.41864
-3.4532917e+11 -1.120308e+22 1.628894e-314 637.48425 671.12671
-3.3954313e+11 -1.1225958e+22 1.6288953e-314 638.99512 670.80627
-3.1615779e+11 -1.1254736e+22 1.6288968e-314 640.6261 670.27484
-3.1736024e+11 -1.1275399e+22 1.628898e-314 642.1084 670.00574
-3.022078e+11 -1.1301223e+22 1.6288994e-314 643.66687 669.53418
-2.9824942e+11 -1.1323353e+22 1.6289006e-314 645.09338 669.31598
-2.8469107e+11 -1.1347709e+22 1.6289019e-314 646.58569 668.8833
-2.7414957e+11 -1.1371317e+22 1.6289032e-314 648.02454 668.49701
-2.70473e+11 -1.1391979e+22 1.6289044e-314 649.40393 668.15924
-2.6814005e+11 -1.1414848e+22 1.6289056e-314 650.8172 667.92987
-2.6621932e+11 -1.1432557e+22 1.6289066e-314 652.11029 667.56213
-2.6471436e+11 -1.1452481e+22 1.6289077e-314 653.44385 667.28406
-2.6039186e+11 -1.147462e+22 1.6289089e-314 654.87366 666.89105
-2.5737852e+11 -1.1495283e+22 1.62891e-314 656.24725 666.54932
-2.5055465e+11 -1.1518891e+22 1.6289113e-314 657.67249 666.16699
-2.4658959e+11 -1.1538815e+22 1.6289124e-314 658.97986 665.77716
-2.4386146e+11 -1.1558e+22 1.6289135e-314 660.31763 665.42352
-2.4125011e+11 -1.1577185e+22 1.6289145e-314 661.57507 665.1059
-2.3943935e+11 -1.1593416e+22 1.6289154e-314 662.78284 664.7511
-2.3662864e+11 -1.1612602e+22 1.6289165e-314 664.0448 664.45123
-2.3627475e+11 -1.1628832e+22 1.6289174e-314 665.22412 664.12665
-2.3268075e+11 -1.1647279e+22 1.6289184e-314 666.46515 663.75366
-2.325502e+11 -1.166351e+22 1.6289193e-314 667.6496 663.48755
-2.3087681e+11 -1.167975e+22 1.6289201e-314 668.83661 663.11475
-2.2917261e+11 -1.1695243e+22 1.628921e-314 669.97064 662.77142
-2.2745465e+11 -1.1711474e+22 1.6289219e-314 671.1485 662.43366
-2.2566788e+11 -1.1726975e+22 1.6289227e-314 672.26495 662.10809
-2.238503e+11 -1.1741729e+22 1.6289235e-314 673.34332 661.72656
-2.2384348e+11 -1.1755014e+22 1.6289243e-314 674.40778 661.38727
-2.207785e+11 -1.1770507e+22 1.6289251e-314 675.52472 661.0022
-2.2179221e+11 -1.1783045e+22 1.6289258e-314 676.53143 660.73401
-2.216787e+11 -1.179633e+22 1.6289265e-314 677.52075 660.48401
-2.2092281e+11 -1.1809616e+22 1.6289273e-314 678.58948 660.12024
-2.2154474e+11 -1.1821415e+22 1.6289279e-314 679.58112 659.78735
-2.227198e+11 -1.1832485e+22 1.6289285e-314 680.54321 659.47949
-2.2329705e+11 -1.1842817e+22 1.6289291e-314 681.49207 659.11194
-2.2437944e+11 -1.1853148e+22 1.6289297e-314 682.40594 658.80579
-2.2404271e+11 -1.1864218e+22 1.6289303e-314 683.29871 658.4953
-2.2320084e+11 -1.1874549e+22 1.6289308e-314 684.14209 658.13892
-2.26472e+11 -1.1880449e+22 1.6289312e-314 684.92426 657.79785
-2.2916579e+11 -1.1887087e+22 1.6289315e-314 685.66492 657.54236
-2.3055385e+11 -1.1895202e+22 1.628932e-314 686.44891 657.24383
-2.3429228e+11 -1.1901111e+22 1.6289323e-314 687.18964 656.98346
-2.3929504e+11 -1.1904795e+22 1.6289325e-314 687.85406 656.71246
-2.4143217e+11 -1.1909965e+22 1.6289328e-314 688.56561 656.33997
-2.4299205e+11 -1.1915865e+22 1.6289331e-314 689.23926 656.04028
-2.4632495e+11 -1.1920296e+22 1.6289333e-314 689.85315 655.80719
-1.6865282e+15 -2.6170412e+21 1.6278176e-314 153.04433 734.7663
-1.6459257e+15 -2.6412436e+21 1.6278229e-314 155.01239 734.26654
-1.6281928e+15 -2.6607959e+21 1.6278272e-314 157.31256 733.78125
-1.5253842e+15 -2.7316691e+21 1.6278427e-314 161.20197 734.2052
-4.4506022e+12 -8.7230976e+21 1.6287184e-314 503.17932 693.23871
-4.1652254e+12 -8.8123815e+21 1.6287282e-314 507.16122 692.73621
-3.961678e+12 -8.8920727e+21 1.6287369e-314 510.95099 692.31146
-3.8261076e+12 -8.9577441e+21 1.6287441e-314 514.46619 691.7934
-3.6096144e+12 -9.0352196e+21 1.6287526e-314 518.11285 691.25824
-3.500185e+12 -9.0935097e+21 1.628759e-314 521.31555 690.78699
-3.3063704e+12 -9.1636082e+21 1.6287667e-314 524.55866 690.38586
-3.1673921e+12 -9.2226369e+21 1.6287732e-314 527.66327 689.85004
-2.9783297e+12 -9.2868312e+21 1.6287802e-314 530.58051 689.46521
-2.8247552e+12 -9.3458599e+21 1.6287867e-314 533.48871 689.0293
-2.7668675e+12 -9.3908733e+21 1.6287916e-314 536.21539 688.6416
-2.6179383e+12 -9.4476942e+21 1.6287977e-314 538.96198 688.2594
-2.5206304e+12 -9.4986029e+21 1.6288005e-314 541.77747 687.83661
-2.4004552e+12 -9.5502591e+21 1.6288033e-314 544.45453 687.4021
-2.2341532e+12 -9.606329e+21 1.6288064e-314 547.20386 686.90234
-2.1018813e+12 -9.6579853e+21 1.6288092e-314 549.88336 686.37598
-1.9997375e+12 -9.7066872e+21 1.6288119e-314 552.41315 686.07636
-1.8863224e+12 -9.7539029e+21 1.6288145e-314 554.94818 685.61511
-1.8222754e+12 -9.7930122e+21 1.6288167e-314 557.2486 685.2002
-1.7133693e+12 -9.8380211e+21 1.6288191e-314 559.65259 684.75861
-1.6213127e+12 -9.8800848e+21 1.6288214e-314 561.89075 684.42261
-1.5005859e+12 -9.9265709e+21 1.628824e-314 564.27759 684.00128
-1.4290626e+12 -9.9671484e+21 1.6288262e-314 566.66321 683.53656
-1.2888753e+12 -1.0015112e+22 1.6288288e-314 569.02899 683.11505
-1.2610304e+12 -1.0050528e+22 1.6288308e-314 571.25696 682.78503
-1.1407157e+12 -1.0094807e+22 1.6288332e-314 573.55505 682.33612
-1.0845171e+12 -1.0131701e+22 1.6288352e-314 575.69214 681.92139
-1.0377055e+12 -1.0172278e+22 1.6288375e-314 577.87054 681.55188
-1.0009682e+12 -1.020991e+22 1.6288395e-314 579.95331 681.19379
-9.5627314e+11 -1.0247542e+22 1.6288416e-314 582.04785 680.76569
-9.2100586e+11 -1.0283697e+22 1.6288436e-314 584.09125 680.3916
-8.7732795e+11 -1.0322068e+22 1.6288457e-314 586.22113 679.95483
-8.4354545e+11 -1.0357484e+22 1.6288476e-314 588.21838 679.62561
-8.0984526e+11 -1.0392901e+22 1.6288496e-314 590.25183 679.27216
-7.6029848e+11 -1.043201e+22 1.6288517e-314 592.34528 678.83551
-7.2527918e+11 -1.0465949e+22 1.6288536e-314 594.33728 678.40418
-6.8344257e+11 -1.0502843e+22 1.6288556e-314 596.39929 677.97778
-6.5815407e+11 -1.0536052e+22 1.6288574e-314 598.32959 677.68103
-6.2953948e+11 -1.0567037e+22 1.6288591e-314 600.16168 677.32825
-5.8194409e+11 -1.0603192e+22 1.6288611e-314 602.08734 676.89313
-5.5834588e+11 -1.0633447e+22 1.6288628e-314 603.9436 676.52557
-5.437499e+11 -1.0662225e+22 1.6288643e-314 605.66669 676.22315
-5.3017084e+11 -1.0693957e+22 1.6288661e-314 607.59338 675.82367
-5.0770641e+11 -1.0727158e+22 1.6288679e-314 609.46155 675.349
-4.9993437e+11 -1.0756674e+22 1.6288695e-314 611.21649 675.11023
-4.750029e+11 -1.0791352e+22 1.6288714e-314 613.10443 674.62103
-4.6485976e+11 -1.0819392e+22 1.628873e-314 614.83069 674.30872
-4.5527342e+11 -1.0848908e+22 1.6288746e-314 616.60651 674.01446
-4.4423715e+11 -1.087547e+22 1.628876e-314 618.3078 673.57306
-4.2492003e+11 -1.0907194e+22 1.6288778e-314 620.06439 673.17932
-4.1496275e+11 -1.0933026e+22 1.6288792e-314 621.67389 672.82599
-4.0523878e+11 -1.0959589e+22 1.6288806e-314 623.35925 672.48926
-3.8963937e+11 -1.0988367e+22 1.6288822e-314 625.02679 672.08752
-3.7946897e+11 -1.1016406e+22 1.6288838e-314 626.67877 671.80469
-3.6674215e+11 -1.1043707e+22 1.6288853e-314 628.38995 671.37244
-3.572313e+11 -1.1070269e+22 1.6288867e-314 630.039 671.03272
-3.3908936e+11 -1.1099786e+22 1.6288883e-314 631.69507 670.63892
-3.2843793e+11 -1.1125609e+22 1.6288898e-314 633.32056 670.26001
-3.1710597e+11 -1.1151433e+22 1.6288912e-314 634.86371 669.92126
-3.123027e+11 -1.1172834e+22 1.6288923e-314 636.32422 669.61011
-3.0235198e+11 -1.1198658e+22 1.6288938e-314 637.88648 669.26746
-2.905804e+11 -1.1223004e+22 1.6288951e-314 639.46051 668.80341
-2.7821769e+11 -1.1248828e+22 1.6288965e-314 641.01831 668.44348
-2.6779297e+11 -1.1276129e+22 1.628898e-314 642.60107 668.02216
-2.6473834e+11 -1.1299745e+22 1.6288993e-314 644.11957 667.72943
-2.630926e+11 -1.1321876e+22 1.6289005e-314 645.58875 667.43262
-2.5492524e+11 -1.1348447e+22 1.628902e-314 647.11737 667.05908
-2.5188778e+11 -1.1369839e+22 1.6289031e-314 648.51007 666.72528
-2.4849655e+11 -1.1390502e+22 1.6289043e-314 649.91022 666.35254
-2.4754825e+11 -1.140821e+22 1.6289053e-314 651.20947 666.01819
-2.4287868e+11 -1.1431088e+22 1.6289065e-314 652.56494 665.7254
-2.3963517e+11 -1.1451003e+22 1.6289076e-314 653.88586 665.42572
-2.3732621e+11 -1.1470927e+22 1.6289087e-314 655.29834 665.03406
-2.3211033e+11 -1.1493806e+22 1.6289099e-314 656.70459 664.67706
-2.2835144e+11 -1.1514468e+22 1.6289111e-314 658.06439 664.2821
-2.2590499e+11 -1.1534383e+22 1.6289122e-314 659.40436 663.98425
-2.2293293e+11 -1.1553568e+22 1.6289132e-314 660.72272 663.59515
-2.190743e+11 -1.1572754e+22 1.6289143e-314 662.00256 663.22443
-2.160059e+11 -1.1591939e+22 1.6289153e-314 663.22784 662.92102
-2.1255622e+11 -1.1611124e+22 1.6289164e-314 664.47949 662.59582
-2.1189653e+11 -1.1625887e+22 1.6289172e-314 665.67633 662.18695
-2.1050494e+11 -1.1642857e+22 1.6289181e-314 666.87305 661.91522
-2.0921991e+11 -1.1659088e+22 1.628919e-314 668.0611 661.56384
-2.0648143e+11 -1.1676796e+22 1.62892e-314 669.25269 661.23877
-2.0361934e+11 -1.1694504e+22 1.628921e-314 670.43964 660.90436
-2.044852e+11 -1.170779e+22 1.6289217e-314 671.56781 660.53992
-2.0205932e+11 -1.1724759e+22 1.6289226e-314 672.68115 660.26288
-2.0268807e+11 -1.1737297e+22 1.6289233e-314 673.77063 659.91773
-2.0041358e+11 -1.1752799e+22 1.6289242e-314 674.86523 659.5733
-2.0070901e+11 -1.1765337e+22 1.6289248e-314 675.89746 659.23071
-1.987162e+11 -1.1778622e+22 1.6289256e-314 676.91522 658.85657
-1.9839664e+11 -1.1791908e+22 1.6289263e-314 677.96668 658.5047
-1.9904256e+11 -1.1804446e+22 1.628927e-314 678.98309 658.23199
-2.0124851e+11 -1.1815516e+22 1.6289276e-314 679.97284 657.94605
-1.9738988e+11 -1.1831008e+22 1.6289284e-314 681.01807 657.58057
-2.0080522e+11 -1.1839862e+22 1.6289289e-314 681.91168 657.32178
-2.0402474e+11 -1.1849455e+22 1.6289295e-314 682.81653 657.08417
-2.0399722e+11 -1.1859786e+22 1.62893e-314 683.71564 656.71844
-2.0387349e+11 -1.1870117e+22 1.6289306e-314 684.58289 656.39368
-2.0398686e+11 -1.1878971e+22 1.6289311e-314 685.41895 656.0426
-2.0630618e+11 -1.188561e+22 1.6289314e-314 686.20178 655.71881
-2.101133e+11 -1.1892257e+22 1.6289318e-314 686.93927 655.48181
-2.1027478e+11 -1.1899634e+22 1.6289322e-314 687.71808 655.06763
-2.1354581e+11 -1.1904795e+22 1.6289325e-314 688.44995 654.77008
-2.1505419e+11 -1.1912172e+22 1.6289329e-314 689.15656 654.51593
-2.2534151e+11 -1.1932834e+22 1.628934e-314 691.67566 653.50073
-1.6971539e+15 -2.585534e+21 1.6278106e-314 152.29407 732.81763
-1.6200303e+15 -2.6209143e+21 1.6278184e-314 154.52583 732.03943
-1.5947673e+15 -2.6427928e+21 1.6278232e-314 156.81615 731.54541
-1.5474797e+15 -2.6822331e+21 1.6278319e-314 159.58052 731.62207
-1.4921702e+15 -2.7330719e+21 1.627843e-314 163.33516 731.74963
-4.9327962e+12 -8.5526499e+21 1.6286997e-314 495.43207 692.47528
-4.4786411e+12 -8.6441495e+21 1.6287097e-314 499.88632 691.87921
-4.1684697e+12 -8.7415443e+21 1.6287204e-314 504.1991 691.47955
-3.993454e+12 -8.8145972e+21 1.6287284e-314 507.96942 690.85992
-3.7638767e+12 -8.8979769e+21 1.6287376e-314 511.85501 690.3587
-3.6142596e+12 -8.9658596e+21 1.628745e-314 515.30676 689.92578
-3.4248133e+12 -9.0374308e+21 1.6287529e-314 518.81189 689.38428
-3.354089e+12 -9.0920325e+21 1.6287589e-314 521.86798 689.11841
-3.1498809e+12 -9.1606583e+21 1.6287664e-314 525.11212 688.54681
-2.9047721e+12 -9.2351794e+21 1.6287746e-314 528.39795 688.03516
-2.7669766e+12 -9.293474e+21 1.628781e-314 531.30768 687.64392
-2.6914665e+12 -9.338483e+21 1.6287859e-314 534.02313 687.10504
-2.51747e+12 -9.3989888e+21 1.6287925e-314 536.84308 686.73505
-2.4466891e+12 -9.4454784e+21 1.6287976e-314 539.5379 686.35382
-2.3173871e+12 -9.4986029e+21 1.6288005e-314 542.28088 685.90338
-2.172223e+12 -9.5546817e+21 1.6288036e-314 545.04376 685.48688
-2.0370385e+12 -9.606329e+21 1.6288064e-314 547.7558 684.94147
-1.9597427e+12 -9.6528151e+21 1.628809e-314 550.30701 684.64777
-1.7862673e+12 -9.7066872e+21 1.6288119e-314 552.9339 684.0387
-1.7053707e+12 -9.7509576e+21 1.6288143e-314 555.39081 683.72888
-1.610785e+12 -9.7944894e+21 1.6288167e-314 557.71918 683.35022
-1.510042e+12 -9.8387597e+21 1.6288192e-314 560.13904 682.91235
-1.4386015e+12 -9.877869e+21 1.6288213e-314 562.39929 682.50641
-1.3096832e+12 -9.9258323e+21 1.6288239e-314 564.75128 682.12616
-1.2347793e+12 -9.9664098e+21 1.6288262e-314 567.15985 681.66009
-1.1329646e+12 -1.0009951e+22 1.6288286e-314 569.43964 681.26959
-1.0587887e+12 -1.0054221e+22 1.628831e-314 571.76398 680.823
-1.0204019e+12 -1.0094069e+22 1.6288332e-314 573.99445 680.45288
-9.7877138e+11 -1.0133908e+22 1.6288354e-314 576.18121 680.09216
-9.495245e+11 -1.0170063e+22 1.6288373e-314 578.31946 679.72382
-8.8608303e+11 -1.0212126e+22 1.6288396e-314 580.46551 679.22357
-8.693703e+11 -1.0243111e+22 1.6288413e-314 582.4353 678.89044
-8.1642875e+11 -1.0284436e+22 1.6288436e-314 584.5448 678.53931
-7.867142e+11 -1.0319852e+22 1.6288456e-314 586.60626 678.20618
-7.5511746e+11 -1.035453e+22 1.6288475e-314 588.62622 677.80151
-7.1306118e+11 -1.0391423e+22 1.6288495e-314 590.68109 677.40808
-6.8994374e+11 -1.0424633e+22 1.6288513e-314 592.7085 677.06165
-6.4519367e+11 -1.0460788e+22 1.6288533e-314 594.7309 676.5896
-5.9381869e+11 -1.049842e+22 1.6288553e-314 596.73383 676.1377
-5.6204316e+11 -1.0533836e+22 1.6288573e-314 598.73639 675.80676
-5.4429962e+11 -1.0563353e+22 1.6288589e-314 600.51459 675.47668
-5.2711975e+11 -1.0595815e+22 1.6288607e-314 602.41071 675.0517
-5.0655874e+11 -1.0631231e+22 1.6288626e-314 604.31641 674.70245
-4.9752919e+11 -1.0657064e+22 1.628864e-314 606.04791 674.25256
-4.8221841e+11 -1.0690264e+22 1.6288659e-314 607.98242 673.9021
-4.6535469e+11 -1.0724203e+22 1.6288677e-314 609.83978 673.58661
-4.5522544e+11 -1.0752981e+22 1.6288693e-314 611.61725 673.25281
-4.3829278e+11 -1.0783237e+22 1.628871e-314 613.44824 672.77667
-4.2826682e+11 -1.0811276e+22 1.6288725e-314 615.18103 672.45123
-4.0565113e+11 -1.0845215e+22 1.6288744e-314 617.02808 671.98792
-3.9515069e+11 -1.0873993e+22 1.6288759e-314 618.71466 671.74097
-3.8049972e+11 -1.0902771e+22 1.6288775e-314 620.41498 671.3429
-3.6437813e+11 -1.0933026e+22 1.6288792e-314 622.13818 671.00971
-3.6126517e+11 -1.0955157e+22 1.6288804e-314 623.69922 670.64301
-3.4314394e+11 -1.0985412e+22 1.6288821e-314 625.45374 670.18457
-3.3726143e+11 -1.1009759e+22 1.6288834e-314 627.06915 669.84119
-3.1952503e+11 -1.1040752e+22 1.6288851e-314 628.80005 669.50568
-3.0611086e+11 -1.1068053e+22 1.6288866e-314 630.43304 669.13641
-2.9961703e+11 -1.10924e+22 1.6288879e-314 632.03302 668.78229
-2.8215535e+11 -1.1121178e+22 1.6288895e-314 633.67035 668.39325
-2.7493302e+11 -1.1145533e+22 1.6288908e-314 635.19739 668.09424
-2.6935286e+11 -1.1170618e+22 1.6288922e-314 636.75617 667.71143
-2.6526066e+11 -1.1194965e+22 1.6288936e-314 638.27441 667.37671
-2.6144673e+11 -1.1218582e+22 1.6288948e-314 639.80792 667.03314
-2.5237235e+11 -1.1246621e+22 1.6288964e-314 641.46649 666.55798
-2.4692972e+11 -1.1273922e+22 1.6288979e-314 643.06268 666.26257
-2.4282376e+11 -1.1298268e+22 1.6288992e-314 644.58325 665.95984
-2.3684517e+11 -1.1324831e+22 1.6289007e-314 646.21326 665.58179
-2.3250551e+11 -1.1348447e+22 1.628902e-314 647.7027 665.21527
-2.3308957e+11 -1.1366894e+22 1.628903e-314 649.07111 664.96997
-2.2576408e+11 -1.1389025e+22 1.6289042e-314 650.38025 664.55371
-2.2342772e+11 -1.140821e+22 1.6289053e-314 651.74414 664.1795
-2.2014293e+11 -1.1427395e+22 1.6289063e-314 653.02747 663.83289
-2.1620867e+11 -1.1447319e+22 1.6289074e-314 654.32117 663.47229
-2.1453541e+11 -1.1467243e+22 1.6289085e-314 655.65894 663.21411
-2.0965966e+11 -1.1488635e+22 1.6289097e-314 657.07941 662.76501
-2.0683191e+11 -1.1509298e+22 1.6289108e-314 658.44006 662.46106
-2.0158523e+11 -1.1532176e+22 1.6289121e-314 659.86163 662.08551
-1.9820764e+11 -1.1551362e+22 1.6289131e-314 661.14874 661.71216
-1.9541069e+11 -1.1570547e+22 1.6289142e-314 662.42816 661.38336
-1.9438676e+11 -1.1587516e+22 1.6289151e-314 663.65308 661.07654
-1.9325298e+11 -1.1604486e+22 1.628916e-314 664.83929 660.82056
-1.9263445e+11 -1.1620717e+22 1.6289169e-314 666.03094 660.47461
-1.8771074e+11 -1.1639164e+22 1.6289179e-314 667.29224 660.02154
-1.8584846e+11 -1.1656133e+22 1.6289189e-314 668.47723 659.71851
-1.8599959e+11 -1.1670896e+22 1.6289197e-314 669.62189 659.40894
-1.8416131e+11 -1.1686389e+22 1.6289205e-314 670.77765 659.02191
-1.8140224e+11 -1.1704097e+22 1.6289215e-314 671.95196 658.70538
-1.8237126e+11 -1.1717382e+22 1.6289222e-314 673.05048 658.409
-1.7853661e+11 -1.1734352e+22 1.6289231e-314 674.19812 658.02087
-1.7683936e+11 -1.1750583e+22 1.628924e-314 675.30389 657.75995
-1.7805912e+11 -1.176313e+22 1.6289247e-314 676.33978 657.45569
-1.767775e+11 -1.1777884e+22 1.6289255e-314 677.38177 657.16876
-1.7637196e+11 -1.1790431e+22 1.6289262e-314 678.41217 656.79437
-1.7822401e+11 -1.1800023e+22 1.6289267e-314 679.40344 656.42749
-1.7767075e+11 -1.1812561e+22 1.6289274e-314 680.39966 656.08685
-1.7537896e+11 -1.1826586e+22 1.6289282e-314 681.43329 655.72461
-1.7531722e+11 -1.1839124e+22 1.6289289e-314 682.39685 655.41943
-1.7430705e+11 -1.1850193e+22 1.6289295e-314 683.34168 655.04559
-1.7551304e+11 -1.1860525e+22 1.6289301e-314 684.26276 654.70837
-1.7746471e+11 -1.1869379e+22 1.6289305e-314 685.09857 654.44818
-1.8015496e+11 -1.1877494e+22 1.628931e-314 685.89661 654.18884
-1.8429539e+11 -1.1892257e+22 1.6289318e-314 687.50275 653.57794
-1.8459424e+11 -1.1900373e+22 1.6289322e-314 688.29242 653.19305
-1.863295e+11 -1.1907011e+22 1.6289326e-314 689.03174 652.89838
-1.8836701e+11 -1.1912911e+22 1.6289329e-314 689.75085 652.54511
-1.9501564e+11 -1.1921765e+22 1.6289334e-314 691.04266 651.97278
-2.0463973e+11 -1.1927673e+22 1.6289337e-314 692.22406 651.53265
-1.6331181e+15 -2.586714e+21 1.6278109e-314 153.78578 729.91827
-1.5697169e+15 -2.6267082e+21 1.6278197e-314 156.35098 729.7066
-1.531788e+15 -2.6486227e+21 1.6278245e-314 158.49222 728.9527
-1.4538193e+15 -2.7119321e+21 1.6278384e-314 162.33734 729.45636
-5.2354907e+12 -8.4463964e+21 1.628688e-314 491.52191 691.14203
-4.3878759e+12 -8.574051e+21 1.628702e-314 496.8349 690.36883
-4.154121e+12 -8.6677574e+21 1.6287123e-314 501.181 689.98755
-3.9959286e+12 -8.7437601e+21 1.6287207e-314 505.09476 689.50958
-3.8101923e+12 -8.8197629e+21 1.628729e-314 508.89465 688.9762
-3.5956243e+12 -8.8979769e+21 1.6287376e-314 512.56744 688.46527
-3.3632682e+12 -8.9761909e+21 1.6287461e-314 516.20514 687.86694
-3.2335824e+12 -9.0381694e+21 1.6287529e-314 519.4632 687.41974
-3.0646694e+12 -9.1060522e+21 1.6287604e-314 522.84912 686.9469
-2.8743445e+12 -9.1732009e+21 1.6287678e-314 525.94922 686.53973
-2.7403407e+12 -9.2329681e+21 1.6287743e-314 529.00659 686.09845
-2.6224451e+12 -9.2875698e+21 1.6287803e-314 531.7829 685.78662
-2.4564744e+12 -9.347337e+21 1.6287869e-314 534.74335 685.28699
-2.3605423e+12 -9.3938232e+21 1.628792e-314 537.42053 684.74634
-2.1865717e+12 -9.4558097e+21 1.6287982e-314 540.27972 684.35748
-2.102651e+12 -9.5015572e+21 1.6288007e-314 542.9248 683.92963
-1.9615295e+12 -9.5568975e+21 1.6288037e-314 545.64954 683.51398
-1.8500658e+12 -9.6070676e+21 1.6288065e-314 548.31061 683.09412
-1.7279099e+12 -9.6557695e+21 1.6288091e-314 550.89594 682.59753
-1.6882454e+12 -9.6948787e+21 1.6288113e-314 553.28796 682.32385
-1.5521538e+12 -9.746526e+21 1.6288141e-314 555.84332 681.93109
-1.4626254e+12 -9.7893282e+21 1.6288165e-314 558.18573 681.5069
-1.324142e+12 -9.8380211e+21 1.6288191e-314 560.61676 681.0567
-1.2599031e+12 -9.8763918e+21 1.6288212e-314 562.86585 680.67853
-1.1226571e+12 -9.9250937e+21 1.6288239e-314 565.2207 680.2876
-1.0668701e+12 -9.9678869e+21 1.6288262e-314 567.64862 679.83374
-1.0295141e+12 -1.0005519e+22 1.6288283e-314 569.79755 679.45178
-9.9397259e+11 -1.0044628e+22 1.6288305e-314 572.07562 679.02838
-9.4092093e+11 -1.0087421e+22 1.6288328e-314 574.35297 678.6062
-8.8980757e+11 -1.0129485e+22 1.6288351e-314 576.56128 678.21033
-8.5312471e+11 -1.0169324e+22 1.6288373e-314 578.72632 677.91663
-8.1054624e+11 -1.0204749e+22 1.6288392e-314 580.83136 677.37238
-7.7202208e+11 -1.0242381e+22 1.6288413e-314 582.8811 677.04755
-7.2989711e+11 -1.0278536e+22 1.6288433e-314 584.88934 676.64941
-6.9772261e+11 -1.0316168e+22 1.6288454e-314 586.99182 676.34369
-6.5984437e+11 -1.0351585e+22 1.6288473e-314 589.05115 675.86639
-6.2231007e+11 -1.0388478e+22 1.6288493e-314 591.1366 675.50128
-5.889124e+11 -1.0423894e+22 1.6288513e-314 593.15253 675.13531
-5.5837315e+11 -1.0457095e+22 1.6288531e-314 595.13568 674.72931
-5.1830987e+11 -1.049842e+22 1.6288553e-314 597.17346 674.18994
-5.23299e+11 -1.0522766e+22 1.6288567e-314 599.00085 673.94049
-4.9692443e+11 -1.0561137e+22 1.6288588e-314 600.9433 673.60101
-4.8601164e+11 -1.0591392e+22 1.6288604e-314 602.81226 673.23499
-4.690656e+11 -1.0622377e+22 1.6288621e-314 604.62347 672.83319
-4.5262078e+11 -1.0654848e+22 1.6288639e-314 606.49518 672.42755
-4.3017706e+11 -1.0690264e+22 1.6288659e-314 608.41516 672.04797
-4.2332567e+11 -1.0718304e+22 1.6288674e-314 610.18829 671.75153
-4.1303153e+11 -1.0746343e+22 1.6288689e-314 611.96551 671.34705
-3.9438104e+11 -1.0780282e+22 1.6288708e-314 613.81628 671.0304
-3.8602493e+11 -1.0806106e+22 1.6288722e-314 615.51617 670.6294
-3.6165681e+11 -1.0841531e+22 1.6288742e-314 617.38507 670.22681
-3.5181619e+11 -1.0868093e+22 1.6288756e-314 618.9986 669.90332
-3.4573471e+11 -1.0893917e+22 1.628877e-314 620.69519 669.56873
-3.2698801e+11 -1.0924911e+22 1.6288787e-314 622.4314 669.15643
-3.0892157e+11 -1.0954418e+22 1.6288804e-314 624.1532 668.70203
-3.0044855e+11 -1.0980251e+22 1.6288818e-314 625.80658 668.36554
-2.8612054e+11 -1.100902e+22 1.6288834e-314 627.48566 667.98773
-2.7345201e+11 -1.1037798e+22 1.6288849e-314 629.18347 667.6308
-2.7028059e+11 -1.1062154e+22 1.6288863e-314 630.77252 667.2995
-2.6426766e+11 -1.1088716e+22 1.6288877e-314 632.36572 666.9613
-2.6032659e+11 -1.1112324e+22 1.628889e-314 633.94031 666.56244
-2.5424144e+11 -1.1138886e+22 1.6288905e-314 635.51062 666.21057
-2.4666862e+11 -1.1166187e+22 1.628892e-314 637.09985 665.86975
-2.4256607e+11 -1.1190542e+22 1.6288933e-314 638.61853 665.53449
-2.37419e+11 -1.1215627e+22 1.6288947e-314 640.2334 665.14081
-2.3159154e+11 -1.1243667e+22 1.6288962e-314 641.87537 664.82306
-2.2467147e+11 -1.1271706e+22 1.6288978e-314 643.52441 664.46088
-2.2096069e+11 -1.1296053e+22 1.6288991e-314 645.10486 664.12891
-2.1184161e+11 -1.1324092e+22 1.6289006e-314 646.67755 663.70587
-2.1066302e+11 -1.1344754e+22 1.6289018e-314 648.12189 663.41339
-2.0769777e+11 -1.1366894e+22 1.628903e-314 649.55457 663.08838
-2.0300422e+11 -1.1387548e+22 1.6289041e-314 650.92609 662.67957
-2.002829e+11 -1.1407472e+22 1.6289052e-314 652.2431 662.38672
-1.9691566e+11 -1.1426657e+22 1.6289063e-314 653.52673 662.00427
-1.947476e+11 -1.1443626e+22 1.6289072e-314 654.74188 661.65015
-1.92174e+11 -1.1462812e+22 1.6289082e-314 656.0614 661.29492
-1.8692732e+11 -1.148569e+22 1.6289095e-314 657.47583 660.97308
-1.8362876e+11 -1.1506344e+22 1.6289106e-314 658.84662 660.60315
-1.8223035e+11 -1.1524061e+22 1.6289116e-314 660.16931 660.23407
-1.8003136e+11 -1.1545453e+22 1.6289128e-314 661.4798 660.02869
-1.7781506e+11 -1.1563161e+22 1.6289138e-314 662.72327 659.67065
-1.7288112e+11 -1.1583085e+22 1.6289148e-314 663.9859 659.30493
-1.7081254e+11 -1.1600054e+22 1.6289158e-314 665.19171 658.95374
-1.6734909e+11 -1.1617763e+22 1.6289167e-314 666.4184 658.55011
-1.6472411e+11 -1.1635471e+22 1.6289177e-314 667.6377 658.24268
-1.6428764e+11 -1.1651711e+22 1.6289186e-314 668.84033 657.91125
-1.6456945e+11 -1.1666465e+22 1.6289194e-314 670.0155 657.57538
-1.6253194e+11 -1.1684173e+22 1.6289204e-314 671.17413 657.30652
-1.5883479e+11 -1.1701142e+22 1.6289213e-314 672.36719 656.91626
-1.5937087e+11 -1.1714428e+22 1.628922e-314 673.46045 656.57544
-1.569003e+11 -1.1730659e+22 1.6289229e-314 674.58197 656.25696
-1.5683161e+11 -1.1743945e+22 1.6289237e-314 675.64105 655.91449
-1.5537134e+11 -1.1758698e+22 1.6289245e-314 676.74878 655.56457
-1.5646055e+11 -1.1772723e+22 1.6289252e-314 677.7912 655.3385
-1.567801e+11 -1.1784522e+22 1.6289259e-314 678.78662 655.03253
-1.5467378e+11 -1.1798546e+22 1.6289267e-314 679.82843 654.62488
-1.5144403e+11 -1.1814039e+22 1.6289275e-314 680.89789 654.26508
-1.5143368e+11 -1.1825108e+22 1.6289281e-314 681.88544 653.90241
-1.525744e+11 -1.183544e+22 1.6289287e-314 682.80597 653.5766
-1.5212089e+11 -1.1847248e+22 1.6289293e-314 683.75922 653.23663
-1.5586614e+11 -1.1856102e+22 1.6289298e-314 684.65363 653.00195
-1.5481127e+11 -1.1866424e+22 1.6289304e-314 685.55457 652.61639
-1.5620286e+11 -1.1874549e+22 1.6289308e-314 686.39941 652.26666
-1.5653264e+11 -1.1884871e+22 1.6289314e-314 687.21576 651.99603
-1.5948071e+11 -1.1891518e+22 1.6289318e-314 687.98456 651.71912
-1.6283078e+11 -1.1898157e+22 1.6289321e-314 688.76855 651.42071
-1.6127089e+11 -1.1907011e+22 1.6289326e-314 689.55359 651.04425
-1.656002e+11 -1.1910704e+22 1.6289328e-314 690.24573 650.72839
-1.6948976e+11 -1.1915865e+22 1.6289331e-314 690.91669 650.4978
-1.7442724e+11 -1.1929151e+22 1.6289338e-314 692.84656 649.4234
-1.5161661e+15 -2.6155663e+21 1.6278172e-314 155.8584 727.48523
-1.5130695e+15 -2.6283317e+21 1.62782e-314 157.90498 727.01605
-1.483796e+15 -2.6565175e+21 1.6278262e-314 160.48645 726.74866
-4.446647e+12 -8.4921485e+21 1.628693e-314 493.48438 689.08935
-4.2608283e+12 -8.5733124e+21 1.628702e-314 497.78271 688.51422
-3.9231407e+12 -8.6803044e+21 1.6287137e-314 502.20352 688.04175
-3.7385871e+12 -8.759257e+21 1.6287224e-314 506.02594 687.66363
-3.583832e+12 -8.8278783e+21 1.6287299e-314 509.66592 687.0658
-3.3441107e+12 -8.9119966e+21 1.6287391e-314 513.43219 686.62268
-3.1932018e+12 -8.9784022e+21 1.6287464e-314 516.91779 686.09766
-2.9812154e+12 -9.0536663e+21 1.6287546e-314 520.284 685.74268
-2.8726668e+12 -9.1097451e+21 1.6287608e-314 523.38336 685.24738
-2.5505107e+12 -9.2329681e+21 1.6287743e-314 529.51679 684.27374
-2.4416307e+12 -9.2860926e+21 1.6287801e-314 532.37537 683.83502
-2.277667e+12 -9.3451258e+21 1.6287866e-314 535.28125 683.36133
-2.1984185e+12 -9.3938232e+21 1.628792e-314 537.93133 683.05518
-2.062932e+12 -9.4454784e+21 1.6287976e-314 540.58447 682.60223
-1.9448435e+12 -9.50008e+21 1.6288006e-314 543.42029 682.19177
-1.8182898e+12 -9.5517273e+21 1.6288034e-314 546.052 681.78986
-1.6919018e+12 -9.6055994e+21 1.6288064e-314 548.79987 681.43048
-1.5646057e+12 -9.6542923e+21 1.628809e-314 551.35358 680.93231
-1.4661161e+12 -9.7000399e+21 1.6288116e-314 553.84412 680.48785
-1.3708991e+12 -9.7450488e+21 1.628814e-314 556.31043 680.09509
-1.2393972e+12 -9.7922736e+21 1.6288166e-314 558.64789 679.69226
-1.1377744e+12 -9.836553e+21 1.628819e-314 561.06903 679.19012
-1.091788e+12 -9.8734465e+21 1.6288211e-314 563.27051 678.86346
-1.0431204e+12 -9.9177168e+21 1.6288235e-314 565.60742 678.49219
-9.9702342e+11 -9.9605101e+21 1.6288258e-314 567.97058 678.09637
-9.3962909e+11 -1.0005519e+22 1.6288283e-314 570.26453 677.72009
-8.9516737e+11 -1.0045367e+22 1.6288305e-314 572.51666 677.2533
-8.6181112e+11 -1.008226e+22 1.6288325e-314 574.69946 676.82806
-8.150268e+11 -1.0124315e+22 1.6288348e-314 576.88568 676.50647
-7.7026309e+11 -1.0162686e+22 1.6288369e-314 579.07483 676.02521
-7.2820681e+11 -1.0202533e+22 1.6288391e-314 581.23321 675.6626
-6.9229413e+11 -1.0238688e+22 1.6288411e-314 583.26465 675.33252
-6.5254628e+11 -1.0274843e+22 1.6288431e-314 585.29688 674.92389
-6.084285e+11 -1.0313214e+22 1.6288452e-314 587.38495 674.53168
-5.7013817e+11 -1.0349369e+22 1.6288472e-314 589.47876 674.06219
-5.5174877e+11 -1.0381092e+22 1.6288489e-314 591.39044 673.80926
-5.2406865e+11 -1.0421679e+22 1.6288511e-314 593.54059 673.37561
-5.1694908e+11 -1.0451195e+22 1.6288528e-314 595.45636 673.02863
-4.9482833e+11 -1.0486612e+22 1.6288547e-314 597.4104 672.59125
-4.7863805e+11 -1.0519812e+22 1.6288565e-314 599.414 672.14386
-4.5897751e+11 -1.0555237e+22 1.6288585e-314 601.31976 671.78565
-4.3941292e+11 -1.0589177e+22 1.6288603e-314 603.17133 671.47565
-4.2893319e+11 -1.0618693e+22 1.6288619e-314 604.96112 671.14124
-4.1229622e+11 -1.0651155e+22 1.6288637e-314 606.82336 670.75818
-3.9901967e+11 -1.068141e+22 1.6288654e-314 608.67322 670.35382
-3.7806021e+11 -1.0714611e+22 1.6288672e-314 610.5404 669.92139
-3.6875567e+11 -1.0744866e+22 1.6288689e-314 612.33838 669.65381
-3.5321132e+11 -1.0775121e+22 1.6288705e-314 614.13019 669.255
-3.3649178e+11 -1.0806106e+22 1.6288722e-314 615.92719 668.83844
-3.2576484e+11 -1.0834145e+22 1.6288738e-314 617.63593 668.52698
-3.135395e+11 -1.0861446e+22 1.6288753e-314 619.34973 668.09992
-2.9433247e+11 -1.0893179e+22 1.628877e-314 621.09906 667.70605
-2.8574935e+11 -1.0919002e+22 1.6288784e-314 622.71045 667.41565
-2.7647233e+11 -1.0947042e+22 1.62888e-314 624.39081 667.11029
-2.6431917e+11 -1.0978035e+22 1.6288817e-314 626.13281 666.63977
-2.5805537e+11 -1.1007552e+22 1.6288833e-314 627.8468 666.34027
-2.5255782e+11 -1.1034114e+22 1.6288847e-314 629.51923 665.92572
-2.5077799e+11 -1.1056983e+22 1.628886e-314 631.06397 665.63599
-2.4479259e+11 -1.1083546e+22 1.6288874e-314 632.71429 665.22559
-2.3755637e+11 -1.1110108e+22 1.6288889e-314 634.32465 664.8031
-2.3453962e+11 -1.1133725e+22 1.6288902e-314 635.8125 664.52972
-2.2969834e+11 -1.115881e+22 1.6288916e-314 637.38611 664.19067
-2.2193298e+11 -1.1186111e+22 1.6288931e-314 638.97668 663.77319
-2.1905713e+11 -1.1210466e+22 1.6288944e-314 640.58032 663.4425
-2.0650554e+11 -1.1242928e+22 1.6288962e-314 642.2821 663.02454
-2.0581833e+11 -1.1266536e+22 1.6288975e-314 643.87488 662.74231
-2.0042721e+11 -1.129163e+22 1.6288989e-314 645.41937 662.39111
-1.9214661e+11 -1.1317454e+22 1.6289003e-314 646.90253 661.9986
-1.8964169e+11 -1.1340323e+22 1.6289015e-314 648.41254 661.69965
-1.8412015e+11 -1.136394e+22 1.6289028e-314 649.87415 661.30908
-1.8295872e+11 -1.1383864e+22 1.6289039e-314 651.27374 661.01654
-1.802821e+11 -1.1403788e+22 1.628905e-314 652.61102 660.70489
-1.7409052e+11 -1.1424441e+22 1.6289061e-314 653.90887 660.28192
-1.7372968e+11 -1.144142e+22 1.6289071e-314 655.14032 659.98138
-1.7125923e+11 -1.1459866e+22 1.6289081e-314 656.44678 659.5954
-1.6766865e+11 -1.148052e+22 1.6289092e-314 657.79877 659.24805
-1.6107848e+11 -1.1504137e+22 1.6289105e-314 659.20288 658.88117
-1.6217804e+11 -1.1521106e+22 1.6289114e-314 660.48395 658.61426
-1.5703438e+11 -1.1540292e+22 1.6289125e-314 661.80786 658.15527
-1.5581803e+11 -1.1559477e+22 1.6289135e-314 663.08227 657.93262
-1.5348836e+11 -1.1577185e+22 1.6289145e-314 664.32294 657.55926
-1.5137181e+11 -1.1594155e+22 1.6289155e-314 665.51953 657.20557
-1.4772971e+11 -1.1612602e+22 1.6289165e-314 666.771 656.86047
-1.4598763e+11 -1.1628832e+22 1.6289174e-314 667.94977 656.5083
-1.4221499e+11 -1.1647279e+22 1.6289184e-314 669.18152 656.12421
-1.4298464e+11 -1.1664249e+22 1.6289193e-314 670.36426 655.95087
-1.4134913e+11 -1.167975e+22 1.6289201e-314 671.5329 655.57465
-1.3764176e+11 -1.169672e+22 1.6289211e-314 672.72797 655.11896
-1.3689096e+11 -1.1712212e+22 1.6289219e-314 673.84699 654.82751
-1.3700263e+11 -1.1726975e+22 1.6289227e-314 674.94653 654.55096
-1.3679128e+11 -1.1740252e+22 1.6289235e-314 676.03058 654.17688
-1.3593747e+11 -1.1756483e+22 1.6289244e-314 677.14087 653.89722
-1.3492383e+11 -1.1770507e+22 1.6289251e-314 678.20831 653.49853
-1.3550277e+11 -1.1782315e+22 1.6289258e-314 679.22034 653.22333
-1.3381227e+11 -1.1798546e+22 1.6289267e-314 680.31738 652.88251
-1.3321786e+11 -1.1811084e+22 1.6289273e-314 681.3266 652.48291
-1.3415077e+11 -1.1822154e+22 1.628928e-314 682.2727 652.22583
-1.3477264e+11 -1.1832485e+22 1.6289285e-314 683.2146 651.91791
-1.3358722e+11 -1.1845032e+22 1.6289292e-314 684.17767 651.50971
-1.3426755e+11 -1.1855364e+22 1.6289298e-314 685.10266 651.2265
-1.3539975e+11 -1.1864218e+22 1.6289303e-314 685.98059 650.92871
-1.3546673e+11 -1.1873072e+22 1.6289308e-314 686.81439 650.56763
-1.3665385e+11 -1.1880449e+22 1.6289312e-314 687.63031 650.23547
-1.3902299e+11 -1.1887087e+22 1.6289315e-314 688.40198 649.92023
-1.4233177e+11 -1.1893725e+22 1.6289319e-314 689.16443 649.66254
-1.4120141e+11 -1.1902588e+22 1.6289324e-314 690.0072 649.26135
-1.4332477e+11 -1.1909965e+22 1.6289328e-314 690.7439 649.01178
-1.4653053e+11 -1.1915126e+22 1.6289331e-314 691.43225 648.7265
-1.5172914e+15 -2.5895557e+21 1.6278115e-314 155.31264 725.60187
-1.4840774e+15 -2.6124656e+21 1.6278166e-314 157.53191 725.01593
-1.4448826e+15 -2.6380347e+21 1.6278222e-314 159.68747 724.53748
-1.3608623e+15 -2.7033347e+21 1.6278365e-314 163.55931 725.01178
-4.6513752e+12 -8.3925334e+21 1.6286821e-314 489.4689 687.86261
-4.1399631e+12 -8.5150223e+21 1.6286956e-314 494.76682 687.12006
-4.0152518e+12 -8.5895434e+21 1.6287037e-314 498.85977 686.65314
-3.8002979e+12 -8.6758774e+21 1.6287132e-314 502.87274 686.2608
-3.531659e+12 -8.7658953e+21 1.6287231e-314 506.948 685.68768
-3.3278641e+12 -8.8426366e+21 1.6287315e-314 510.53857 685.23895
-3.1370715e+12 -8.9164236e+21 1.6287396e-314 514.16077 684.70196
-2.9966651e+12 -8.985045e+21 1.6287471e-314 517.66028 684.32599
-2.8029574e+12 -9.0514505e+21 1.6287544e-314 520.92786 683.72058
-2.6921271e+12 -9.1097451e+21 1.6287608e-314 523.97034 683.37116
-2.5497683e+12 -9.1709851e+21 1.6287675e-314 527.099 682.92859
-2.3718669e+12 -9.2329681e+21 1.6287743e-314 530.17841 682.3352
-2.1812942e+12 -9.2964238e+21 1.6287813e-314 533.06097 681.93176
-2.1079841e+12 -9.34291e+21 1.6287864e-314 535.71179 681.59137
-2.005922e+12 -9.3938232e+21 1.628792e-314 538.46051 681.17267
-1.850588e+12 -9.4506395e+21 1.6287979e-314 541.18402 680.78552
-1.7349741e+12 -9.50008e+21 1.6288006e-314 543.90247 680.26471
-1.5944849e+12 -9.5568975e+21 1.6288037e-314 546.66455 679.92035
-1.5066886e+12 -9.602645e+21 1.6288062e-314 549.2345 679.50989
-1.3990188e+12 -9.6491312e+21 1.6288088e-314 551.79895 679.00568
-1.2947305e+12 -9.6963559e+21 1.6288114e-314 554.24768 678.66998
-1.1880505e+12 -9.7443193e+21 1.628814e-314 556.72351 678.31207
