# .PCD v0.7 - Point Cloud Data file format
VERSION 0.7
FIELDS x y z p_x p_y
SIZE 8 8 8 8 8
TYPE F F F F F
COUNT 1 1 1 1 1
WIDTH 741
HEIGHT 1
VIEWPOINT 0 0 0 1 0 0 0
POINTS 741
DATA ascii
-3.818773e+15 -4.1383076e+21 1.6281513e-314 884.54889 866.66516
-3.9285481e+15 -4.1001959e+21 1.628143e-314 886.67035 867.08563
-3.8501563e+15 -4.1146209e+21 1.6281461e-314 888.82111 867.40344
-3.8746462e+15 -4.0920804e+21 1.6281412e-314 893.10761 868.09503
-3.8329872e+15 -4.0955842e+21 1.628142e-314 895.40497 868.44873
-3.8692969e+15 -4.0758089e+21 1.6281376e-314 897.77771 868.78827
-3.939526e+15 -4.0475871e+21 1.6281314e-314 900.40387 869.30902
-4.0158046e+15 -4.0153053e+21 1.6281243e-314 903.29968 869.79553
-4.2840511e+15 -3.9343599e+21 1.6281066e-314 906.04718 870.64502
-4.180609e+15 -3.9434729e+21 1.6281086e-314 911.09967 871.29871
-2.8445875e+15 -7.6599013e+21 1.6286017e-314 411.1676 789.87396
-2.8322008e+15 -7.6621171e+21 1.628602e-314 412.3327 790.20587
-2.766477e+15 -7.6863915e+21 1.6286047e-314 413.73206 790.42895
-2.7678858e+15 -7.672669e+21 1.6286031e-314 415.30798 790.66571
-2.780833e+15 -7.6556995e+21 1.6286013e-314 416.79419 790.95978
-2.6782348e+15 -7.6937729e+21 1.6286055e-314 418.58423 791.13605
-2.7062423e+15 -7.6696426e+21 1.6286028e-314 420.05338 791.46344
-2.7053983e+15 -7.6585773e+21 1.6286016e-314 421.71155 791.77808
-2.6987819e+15 -7.6513445e+21 1.6286008e-314 423.44855 792.1463
-2.7046939e+15 -7.6376941e+21 1.6285993e-314 425.06149 792.47363
-3.5035203e+15 -4.5454263e+21 1.6282407e-314 787.47241 848.76794
-3.3703827e+15 -4.5549086e+21 1.6282427e-314 796.55621 850.51404
-3.3885376e+15 -4.5367208e+21 1.6282388e-314 800.00293 851.04871
-3.4137297e+15 -4.5240657e+21 1.628236e-314 801.92621 851.45453
-3.4345603e+15 -4.5098253e+21 1.6282329e-314 804.11255 851.78986
-3.4355438e+15 -4.500084e+21 1.6282307e-314 806.42297 852.10187
-3.4804391e+15 -4.4802727e+21 1.6282264e-314 808.45343 852.45703
-3.4231593e+15 -4.490345e+21 1.6282286e-314 810.47125 852.84662
-3.5000027e+15 -4.4607563e+21 1.6282221e-314 812.57703 853.19385
-3.544898e+15 -4.4181455e+21 1.6282127e-314 819.09863 853.88782
-3.5541859e+15 -4.4041619e+21 1.6282097e-314 821.35657 854.06665
-3.8695782e+15 -4.1705151e+21 1.6281584e-314 861.24243 860.64227
-3.7797876e+15 -4.1906957e+21 1.6281628e-314 863.42389 861.12372
-3.9306591e+15 -4.1415164e+21 1.628152e-314 865.2904 861.4964
-3.7571295e+15 -4.1825059e+21 1.628161e-314 867.73145 861.87183
-3.9056087e+15 -4.1280146e+21 1.6281491e-314 871.71118 862.68481
-3.8529717e+15 -4.1359838e+21 1.6281508e-314 873.88556 863.07471
-3.9956806e+15 -4.0711612e+21 1.6281366e-314 880.16803 864.03925
-4.0062355e+15 -4.0588394e+21 1.6281339e-314 882.3147 864.29718
-3.8235576e+15 -4.1024094e+21 1.6281435e-314 884.74316 864.65503
-4.0145376e+15 -4.0431601e+21 1.6281305e-314 886.60413 865.12476
-4.0122871e+15 -4.0336395e+21 1.6281284e-314 888.74268 865.32367
-3.9320657e+15 -4.0457046e+21 1.628131e-314 891.24274 865.59723
-4.0932107e+15 -3.9833185e+21 1.6281173e-314 897.2843 866.94086
-4.0270639e+15 -3.9909543e+21 1.628119e-314 900.10681 867.3158
-3.9889246e+15 -3.9892205e+21 1.6281186e-314 902.77484 867.55408
-2.7699968e+15 -7.6396126e+21 1.6285995e-314 411.08136 787.99506
-2.740441e+15 -7.6496466e+21 1.6286006e-314 412.43173 788.35638
-2.7127148e+15 -7.649498e+21 1.6286006e-314 413.86743 788.47211
-2.6745755e+15 -7.653263e+21 1.628601e-314 415.41489 788.57867
-2.6301032e+15 -7.6677241e+21 1.6286026e-314 417.00165 788.92456
-2.5821113e+15 -7.6760647e+21 1.6286035e-314 418.67612 789.05164
-2.5581862e+15 -7.6753261e+21 1.6286034e-314 420.2543 789.28021
-2.5897112e+15 -7.6534116e+21 1.628601e-314 421.84638 789.76501
-2.6056155e+15 -7.6311999e+21 1.6285986e-314 423.44592 789.99219
-2.5823926e+15 -7.6243364e+21 1.6285978e-314 425.22092 790.10986
-2.9119991e+15 -7.1906172e+21 1.6285503e-314 458.44208 795.6441
-3.5111202e+15 -4.4722293e+21 1.6282246e-314 797.21765 848.20673
-3.5630528e+15 -4.4437845e+21 1.6282184e-314 802.08099 849.24884
-3.5651638e+15 -4.4352998e+21 1.6282165e-314 804.16992 849.57446
-3.430901e+15 -4.4620466e+21 1.6282224e-314 806.81397 849.87042
-3.5606605e+15 -4.4192512e+21 1.628213e-314 808.54828 850.19849
-3.5170322e+15 -4.4253018e+21 1.6282143e-314 810.69873 850.63025
-3.6080877e+15 -4.3932406e+21 1.6282073e-314 812.76422 851.06085
-3.5999251e+15 -4.3852355e+21 1.6282055e-314 814.96881 851.27771
-4.014398e+15 -4.0896823e+21 1.6281407e-314 863.15772 859.0257
-3.9123625e+15 -4.1029634e+21 1.6281436e-314 867.87244 859.83795
-3.9089845e+15 -4.0966921e+21 1.6281422e-314 869.84747 860.15185
-3.9640138e+15 -4.0708302e+21 1.6281365e-314 872.22589 860.45752
-3.8715496e+15 -4.0919701e+21 1.6281412e-314 874.23529 860.87976
-3.9132065e+15 -4.0702762e+21 1.6281364e-314 876.50031 861.16016
-4.0758998e+15 -4.0181448e+21 1.628125e-314 878.42004 861.58887
-3.9289711e+15 -4.0495056e+21 1.6281319e-314 880.82074 861.82245
-3.9707698e+15 -4.0334571e+21 1.6281283e-314 882.59308 862.25867
-4.1285368e+15 -3.9751264e+21 1.6281155e-314 886.73865 863.07477
-4.0272056e+15 -3.9945707e+21 1.6281198e-314 889.17847 863.401
-4.0674559e+15 -3.9726562e+21 1.628115e-314 891.5058 863.6654
-4.0412781e+15 -3.9635792e+21 1.628113e-314 895.80066 864.29047
-4.1423279e+15 -3.9308921e+21 1.6281058e-314 897.70935 864.81122
-4.0422638e+15 -3.951147e+21 1.6281103e-314 900.19055 865.21997
-4.2746215e+15 -3.878835e+21 1.6280944e-314 902.23645 865.70917
-4.0595747e+15 -3.9298225e+21 1.6281056e-314 905.04327 866.07587
-4.2235329e+15 -3.8746669e+21 1.6280935e-314 908.03046 866.75604
-4.1694915e+15 -3.8789836e+21 1.6280944e-314 911.78143 867.48761
-2.6804875e+15 -7.6191708e+21 1.6285973e-314 411.18802 785.94415
-2.6433317e+15 -7.6267728e+21 1.6285981e-314 412.71365 786.17493
-2.6012518e+15 -7.6407925e+21 1.6285996e-314 414.13333 786.47559
-2.5980155e+15 -7.6330464e+21 1.6285988e-314 415.5723 786.76416
-2.5600158e+15 -7.6443324e+21 1.6286e-314 417.15637 787.11652
-2.5487566e+15 -7.6336363e+21 1.6285989e-314 418.73566 787.23846
-2.5170898e+15 -7.6379868e+21 1.6285993e-314 420.30197 787.47473
-2.5275051e+15 -7.6224944e+21 1.6285976e-314 421.95059 787.83612
-2.5235644e+15 -7.610686e+21 1.6285963e-314 423.59894 788.06982
-2.5099129e+15 -7.595117e+21 1.6285946e-314 425.52597 788.14465
-2.7501519e+15 -7.2156302e+21 1.628553e-314 458.99133 793.94312
-9.8364966e+14 -9.0920325e+21 1.6287589e-314 441.9906 789.24872
-3.4213296e+15 -4.4892394e+21 1.6282283e-314 793.12201 846.11371
-3.7595218e+15 -4.3834656e+21 1.6282051e-314 796.14105 846.73901
-3.8130027e+15 -4.3496706e+21 1.6281977e-314 799.01166 846.72809
-3.7319374e+15 -4.3676377e+21 1.6282017e-314 800.9646 847.15619
-3.5410969e+15 -4.412095e+21 1.6282114e-314 802.74573 847.2132
-3.5332157e+15 -4.4102868e+21 1.628211e-314 804.38031 847.59241
-3.4639744e+15 -4.4204694e+21 1.6282132e-314 806.55096 847.83563
-3.6291996e+15 -4.368302e+21 1.6282018e-314 808.54626 848.31299
-3.6514368e+15 -4.3529537e+21 1.6281984e-314 810.75397 848.61865
-3.5168905e+15 -4.382173e+21 1.6282048e-314 812.99036 848.90051
-3.4674919e+15 -4.3840555e+21 1.6282053e-314 815.59894 849.15308
-4.0635153e+15 -4.0323492e+21 1.6281281e-314 865.0282 857.15082
-4.0891283e+15 -4.0204687e+21 1.6281255e-314 867.49506 857.81757
-4.0698482e+15 -4.0204687e+21 1.6281255e-314 868.76263 857.96313
-3.9676731e+15 -4.0442297e+21 1.6281307e-314 870.32605 858.20251
-3.9459985e+15 -4.040244e+21 1.6281298e-314 872.57013 858.43829
-4.1475356e+15 -3.9812896e+21 1.6281169e-314 874.1156 858.99512
-3.943748e+15 -4.0281068e+21 1.6281272e-314 876.54913 859.17841
-4.2343712e+15 -3.9404104e+21 1.6281079e-314 878.46191 859.6991
-4.006375e+15 -3.9933525e+21 1.6281195e-314 881.02069 859.87701
-4.0060937e+15 -3.9857527e+21 1.6281179e-314 883.1004 860.20459
-3.9975102e+15 -3.9812153e+21 1.6281169e-314 885.26654 860.60254
-4.1337423e+15 -3.9288632e+21 1.6281054e-314 889.44781 861.41791
-4.0697086e+15 -3.9396358e+21 1.6281077e-314 891.55994 861.74713
-4.0758998e+15 -3.9290096e+21 1.6281054e-314 893.76019 862.04804
-4.1420466e+15 -3.9019677e+21 1.6280995e-314 895.9115 862.39331
-4.1071436e+15 -3.9031116e+21 1.6280997e-314 898.17572 862.7096
-4.1452829e+15 -3.8844442e+21 1.6280956e-314 900.37091 863.086
-4.2630809e+15 -3.8275525e+21 1.6280832e-314 907.50415 864.42694
-4.3217674e+15 -3.799995e+21 1.6280771e-314 910.59625 864.96747
-4.416626e+15 -3.7654253e+21 1.6280695e-314 914.2854 865.94348
-2.6247539e+15 -7.5878122e+21 1.6285938e-314 411.29495 784.11389
-2.5490379e+15 -7.6158516e+21 1.6285969e-314 412.81375 784.32721
-2.5056909e+15 -7.6255163e+21 1.628598e-314 414.35797 784.52606
-2.5054096e+15 -7.6148203e+21 1.6285968e-314 415.77799 784.7644
-2.4976679e+15 -7.615041e+21 1.6285968e-314 417.23721 785.22699
-2.4727593e+15 -7.614451e+21 1.6285968e-314 418.87216 785.45337
-2.4379958e+15 -7.6186574e+21 1.6285972e-314 420.5076 785.66144
-2.4423595e+15 -7.6067769e+21 1.6285959e-314 422.05539 785.99152
-2.4302563e+15 -7.6002106e+21 1.6285952e-314 423.91022 786.33435
-2.4683956e+15 -7.5602907e+21 1.6285908e-314 425.7724 786.49225
-3.6532643e+15 -4.3515148e+21 1.6281981e-314 801.94568 845.2041
-3.7296868e+15 -4.3266482e+21 1.6281927e-314 803.11212 845.47485
-3.7161748e+15 -4.3221468e+21 1.6281917e-314 804.67657 845.57013
-3.6341259e+15 -4.3409268e+21 1.6281958e-314 806.36499 845.92224
-3.5823329e+15 -4.3464978e+21 1.628197e-314 808.68323 846.24487
-3.7416483e+15 -4.2959156e+21 1.6281859e-314 810.65997 846.71582
-3.7196924e+15 -4.2906036e+21 1.6281848e-314 813.24713 847.00177
-4.2366218e+15 -3.9481206e+21 1.6281096e-314 866.77057 855.77502
-4.174697e+15 -3.9621786e+21 1.6281127e-314 868.40216 856.15729
-4.1782167e+15 -3.9595575e+21 1.6281121e-314 869.54523 856.49371
-4.0675955e+15 -3.976455e+21 1.6281158e-314 871.43121 856.29932
-4.132617e+15 -3.9551687e+21 1.6281112e-314 872.88501 856.70685
-4.1117886e+15 -3.9487849e+21 1.6281098e-314 875.0835 856.79382
-4.0825141e+15 -3.9563487e+21 1.6281114e-314 876.80359 857.38794
-3.8971626e+15 -3.9797764e+21 1.6281166e-314 883.84454 858.22961
-4.0877217e+15 -3.9215944e+21 1.6281038e-314 885.69836 858.76343
-4.1700541e+15 -3.8928547e+21 1.6280975e-314 887.56531 859.18378
-4.1551355e+15 -3.8875787e+21 1.6280963e-314 889.79291 859.45148
-4.2647689e+15 -3.8503542e+21 1.6280882e-314 891.78778 859.88422
-4.0889887e+15 -3.8854035e+21 1.6280958e-314 894.46442 859.93323
-4.2286009e+15 -3.8334927e+21 1.6280845e-314 898.52741 860.79407
-4.1907408e+15 -3.8355599e+21 1.6280849e-314 900.66565 861.06457
-4.2939016e+15 -3.7940907e+21 1.6280758e-314 904.99793 862.01807
-4.2342295e+15 -3.7992203e+21 1.6280769e-314 907.53192 862.24145
-4.4841794e+15 -3.7073176e+21 1.6280568e-314 913.01129 863.17438
-2.5258171e+15 -7.5780754e+21 1.6285928e-314 411.54965 782.28851
-2.4809218e+15 -7.5928292e+21 1.6285944e-314 413.0022 782.5777
-2.4779648e+15 -7.5833852e+21 1.6285934e-314 414.50687 782.84644
-2.4060477e+15 -7.6058896e+21 1.6285958e-314 415.9773 782.93347
-2.4063311e+15 -7.5979948e+21 1.628595e-314 417.41556 783.27222
-2.3901456e+15 -7.5972562e+21 1.6285949e-314 419.03116 783.6283
-2.3994334e+15 -7.5830924e+21 1.6285933e-314 420.63153 783.99029
-2.3491909e+15 -7.5978462e+21 1.6285949e-314 422.41986 784.32605
-2.3646721e+15 -7.5748283e+21 1.6285924e-314 424.12537 784.56335
-2.4432034e+15 -7.5257571e+21 1.628587e-314 425.83005 785.05023
-3.8743649e+15 -4.2509066e+21 1.628176e-314 803.68567 843.64972
-3.7818986e+15 -4.2733008e+21 1.628181e-314 805.15832 843.95868
-3.7606471e+15 -4.2728572e+21 1.6281809e-314 806.55884 844.0993
-3.6235689e+15 -4.3023738e+21 1.6281873e-314 808.7196 844.32245
-3.7144869e+15 -4.2686148e+21 1.6281799e-314 810.86627 844.68774
-3.667762e+15 -4.2743704e+21 1.6281812e-314 813.19281 845.10986
-3.6324359e+15 -4.2759939e+21 1.6281815e-314 816.24188 845.75684
-4.2187483e+15 -3.9086826e+21 1.628101e-314 870.54303 854.53937
-4.0970096e+15 -3.9357988e+21 1.6281069e-314 872.21204 854.67895
-4.1116468e+15 -3.9252851e+21 1.6281046e-314 873.59296 854.82446
-4.0616856e+15 -3.9308561e+21 1.6281058e-314 875.38196 854.96655
-4.1552751e+15 -3.9025217e+21 1.6280996e-314 876.82477 855.44605
-4.1779354e+15 -3.8857345e+21 1.6280959e-314 879.02704 855.66962
-4.2293032e+15 -3.8649256e+21 1.6280914e-314 881.17621 856.13037
-4.2342295e+15 -3.8552226e+21 1.6280892e-314 883.40802 856.48071
-4.1003876e+15 -3.8855859e+21 1.6280959e-314 885.82153 856.87891
-4.1205138e+15 -3.8706092e+21 1.6280926e-314 887.9574 857.14301
-4.2115714e+15 -3.8386584e+21 1.6280856e-314 889.97736 857.57971
-4.2525261e+15 -3.8185881e+21 1.6280812e-314 892.32751 857.98285
-4.2682886e+15 -3.8073719e+21 1.6280787e-314 894.08734 858.25201
-4.254214e+15 -3.8019495e+21 1.6280775e-314 896.54828 858.61114
-4.3993152e+15 -3.7539884e+21 1.628067e-314 898.36975 858.96027
-4.3372486e+15 -3.7620679e+21 1.6280688e-314 900.71112 859.24768
-4.2788435e+15 -3.7625836e+21 1.6280689e-314 905.2323 859.9657
-4.4399885e+15 -3.701562e+21 1.6280555e-314 909.80072 860.85346
-4.4204249e+15 -3.6998642e+21 1.6280551e-314 912.42596 861.40125
-2.4949943e+15 -7.5342419e+21 1.628588e-314 411.63699 780.48645
-2.4381375e+15 -7.5523959e+21 1.62859e-314 413.25516 780.74719
-2.4084421e+15 -7.556233e+21 1.6285904e-314 414.75937 780.97473
-2.3422953e+15 -7.5823538e+21 1.6285932e-314 416.18655 781.24719
-2.3366646e+15 -7.5731305e+21 1.6285922e-314 417.62631 781.44891
-2.3277977e+15 -7.5678928e+21 1.6285917e-314 419.26532 781.79944
-2.3103472e+15 -7.5633171e+21 1.6285912e-314 420.94815 782.04382
-2.2885331e+15 -7.5588901e+21 1.6285907e-314 422.68012 782.24133
-2.3521458e+15 -7.5225866e+21 1.6285867e-314 424.13675 782.77081
-2.3862049e+15 -7.4975736e+21 1.6285839e-314 425.94348 783.29669
-3.9084219e+15 -4.2064876e+21 1.6281663e-314 805.68329 842.3443
-3.7899216e+15 -4.2312417e+21 1.6281717e-314 807.35583 842.41681
-3.8169434e+15 -4.2181069e+21 1.6281688e-314 808.6673 842.59857
-3.7723294e+15 -4.221649e+21 1.6281696e-314 810.69971 842.81427
-3.7450263e+15 -4.2218719e+21 1.6281697e-314 812.91846 843.19757
-3.8777408e+15 -4.1817313e+21 1.6281609e-314 815.35352 844.01471
-4.0937733e+15 -4.112815e+21 1.6281457e-314 818.17602 844.69781
-3.8222906e+15 -4.1786329e+21 1.6281602e-314 821.69202 845.2821
-4.3742626e+15 -3.8467018e+21 1.6280874e-314 868.26233 852.67706
-4.3351376e+15 -3.848546e+21 1.6280878e-314 870.33624 852.89404
-4.2331042e+15 -3.8675827e+21 1.6280919e-314 872.29993 853.00366
-4.2875687e+15 -3.8469968e+21 1.6280874e-314 873.75464 853.27234
-4.2727919e+15 -3.8422365e+21 1.6280864e-314 875.45984 853.37659
-4.2812358e+15 -3.8310946e+21 1.6280839e-314 877.2959 853.55157
-4.1946814e+15 -3.8431237e+21 1.6280866e-314 881.35339 854.29889
-4.3112125e+15 -3.7965272e+21 1.6280763e-314 883.7392 854.44721
-4.2685699e+15 -3.8036474e+21 1.6280779e-314 885.96381 854.97082
-4.3693384e+15 -3.7681928e+21 1.6280701e-314 887.89746 855.33972
-4.337953e+15 -3.7673439e+21 1.6280699e-314 890.28552 855.64594
-4.342598e+15 -3.7460936e+21 1.6280653e-314 896.62824 856.85083
-4.3273981e+15 -3.7413694e+21 1.6280642e-314 898.81378 857.13031
-4.3638495e+15 -3.7173156e+21 1.628059e-314 901.33032 857.28033
-4.3268354e+15 -3.7232199e+21 1.6280603e-314 903.40729 857.76935
-4.3856636e+15 -3.6970247e+21 1.6280545e-314 905.47101 858.01215
-4.4190183e+15 -3.6814174e+21 1.6280511e-314 907.66168 858.48993
-4.6527843e+15 -3.6137193e+21 1.6280362e-314 914.81903 859.92426
-4.7901459e+15 -3.5863442e+21 1.6280302e-314 917.96118 860.67566
-5.0643023e+15 -3.5367596e+21 1.6280194e-314 922.15692 861.68988
-2.3665018e+15 -7.5264236e+21 1.6285871e-314 413.48041 778.86597
-2.3106285e+15 -7.5487795e+21 1.6285896e-314 415.06946 779.25732
-2.2843111e+15 -7.5510673e+21 1.6285898e-314 416.513 779.46942
-2.2402595e+15 -7.5666363e+21 1.6285915e-314 418.06393 779.64246
-2.2672816e+15 -7.5346877e+21 1.628588e-314 419.72028 779.97247
-2.2506737e+15 -7.5267164e+21 1.6285871e-314 421.37668 780.09759
-2.2561641e+15 -7.5120346e+21 1.6285855e-314 422.88501 780.36267
-2.2626366e+15 -7.5004514e+21 1.6285843e-314 424.51184 780.76868
-2.5698663e+15 -7.0677635e+21 1.6285368e-314 459.22436 786.55951
-3.9103933e+15 -4.1603708e+21 1.6281562e-314 808.12006 840.55194
-3.9210877e+15 -4.1545769e+21 1.6281549e-314 809.25958 840.82605
-3.6947838e+15 -4.2090682e+21 1.6281669e-314 811.14905 840.89276
-3.8918154e+15 -4.1398929e+21 1.6281517e-314 817.74597 842.67102
-4.0335386e+15 -4.0862145e+21 1.6281399e-314 820.65961 843.02032
-4.2675842e+15 -4.0136818e+21 1.628124e-314 823.37018 843.75934
-4.4647576e+15 -3.7930211e+21 1.6280756e-314 867.79993 850.87653
-4.4215523e+15 -3.789997e+21 1.6280749e-314 870.25195 850.87769
-4.3849592e+15 -3.7921362e+21 1.6280754e-314 872.08783 851.06598
-4.2186087e+15 -3.8278497e+21 1.6280832e-314 874.19226 851.10425
-4.2395767e+15 -3.8175545e+21 1.628081e-314 875.89532 851.49829
-4.3158575e+15 -3.7875245e+21 1.6280744e-314 877.88202 851.78583
-4.2633623e+15 -3.7977432e+21 1.6280766e-314 879.72675 852.17664
-4.2502733e+15 -3.7938318e+21 1.6280758e-314 881.88922 852.53381
-4.3745439e+15 -3.7466093e+21 1.6280654e-314 884.04804 852.69586
-4.3433002e+15 -3.750667e+21 1.6280663e-314 885.98108 853.12494
-4.4012844e+15 -3.7263926e+21 1.628061e-314 887.9848 853.44171
-4.2315559e+15 -3.7661256e+21 1.6280697e-314 890.48254 853.79919
-4.4601126e+15 -3.6945522e+21 1.628054e-314 892.39716 854.23578
-4.4976892e+15 -3.6772854e+21 1.6280502e-314 894.5221 854.66242
-4.3870702e+15 -3.6978353e+21 1.6280547e-314 897.00507 854.89728
-4.4564533e+15 -3.6693545e+21 1.6280484e-314 899.18768 855.23492
-4.6257646e+15 -3.6343796e+21 1.6280408e-314 901.16071 855.77783
-4.4900914e+15 -3.6448932e+21 1.6280431e-314 903.58917 856.02234
-4.5511739e+15 -3.6250819e+21 1.6280387e-314 905.74652 856.30646
-4.5911429e+15 -3.6136811e+21 1.6280362e-314 907.89087 856.78485
-4.6643249e+15 -3.5967858e+21 1.6280325e-314 909.74988 857.11566
-4.4218337e+15 -3.6302093e+21 1.6280399e-314 912.86285 857.45166
-4.8087217e+15 -3.5580458e+21 1.628024e-314 914.75384 857.95404
-4.8208249e+15 -3.5434362e+21 1.6280208e-314 917.65155 858.28314
-4.9570569e+15 -3.5179796e+21 1.6280152e-314 920.64368 859.08215
-2.3027473e+15 -7.4963171e+21 1.6285838e-314 413.90079 777.07153
-2.2577124e+15 -7.5095261e+21 1.6285852e-314 415.41663 777.3313
-2.2470853e+15 -7.511224e+21 1.6285854e-314 416.86099 777.70532
-2.2380079e+15 -7.5048784e+21 1.6285847e-314 418.48117 777.86127
-2.2092273e+15 -7.5197088e+21 1.6285864e-314 420.28607 778.07843
-2.2445523e+15 -7.4741819e+21 1.6285814e-314 421.80545 778.47162
-2.2312519e+15 -7.4778703e+21 1.6285818e-314 423.33838 778.75427
-2.2123229e+15 -7.4845131e+21 1.6285825e-314 425.02112 779.00049
-4.6556431e+13 -1.1169141e+22 1.6288921e-314 537.62268 790.42267
-4.5162244e+13 -1.1176518e+22 1.6288925e-314 539.69067 790.6499
-5.2718534e+13 -1.103116e+22 1.6288846e-314 541.27448 790.91168
-5.3102028e+13 -1.1009759e+22 1.6288834e-314 542.99622 791.10113
-3.9811829e+15 -4.1008985e+21 1.6281431e-314 810.27588 839.04871
-3.9250305e+15 -4.1116328e+21 1.6281455e-314 811.63751 839.23987
-3.9177119e+15 -4.0983877e+21 1.6281426e-314 814.94794 839.58099
-4.0744932e+15 -4.0480667e+21 1.6281315e-314 819.70648 841.0918
-3.97485e+15 -4.05965e+21 1.6281341e-314 822.7301 841.21442
-4.1254401e+15 -4.0123532e+21 1.6281237e-314 825.35284 841.98938
-4.3596275e+15 -3.7844621e+21 1.6280737e-314 868.14844 848.68854
-4.3545594e+15 -3.7732841e+21 1.6280712e-314 870.18298 848.70532
-4.3245827e+15 -3.7719173e+21 1.6280709e-314 872.17175 848.85693
-4.3320431e+15 -3.7621039e+21 1.6280688e-314 874.07941 849.12311
-4.367367e+15 -3.7466093e+21 1.6280654e-314 876.15588 849.59827
-4.2653337e+15 -3.7698163e+21 1.6280705e-314 878.15393 849.96204
-4.3814416e+15 -3.7288268e+21 1.6280615e-314 880.1192 850.28143
-4.5278093e+15 -3.6863264e+21 1.6280522e-314 881.79974 850.72034
-4.5672156e+15 -3.6654432e+21 1.6280476e-314 886.12073 851.45117
-4.4564533e+15 -3.6782086e+21 1.6280504e-314 888.4693 851.72705
-4.4309798e+15 -3.6755155e+21 1.6280498e-314 890.80182 852.00262
-4.4003009e+15 -3.6723787e+21 1.6280491e-314 895.05096 852.88245
-4.6418063e+15 -3.6105083e+21 1.6280355e-314 897.25787 853.03857
-4.4981123e+15 -3.6267415e+21 1.6280391e-314 899.41638 853.51929
-4.8565719e+15 -3.5647607e+21 1.6280255e-314 901.54224 853.80157
-4.5016299e+15 -3.6069302e+21 1.6280347e-314 904.02063 854.13727
-4.6795247e+15 -3.5781161e+21 1.6280284e-314 905.86963 854.68591
-4.8253303e+15 -3.5475682e+21 1.6280217e-314 907.94202 854.92212
-4.6924741e+15 -3.5574941e+21 1.6280239e-314 910.37848 855.27252
-4.8562927e+15 -3.5265769e+21 1.6280171e-314 912.51031 855.6648
-4.7028851e+15 -3.5372009e+21 1.6280194e-314 915.02722 855.90826
-4.93989e+15 -3.4984272e+21 1.6280109e-314 917.10718 856.45136
-4.6924741e+15 -3.5225192e+21 1.6280162e-314 920.33051 856.93787
-4.9818303e+15 -3.4686899e+21 1.6280044e-314 923.80267 857.57172
-5.4932707e+15 -3.3929123e+21 1.6279878e-314 927.52429 858.92487
-2.2799474e+15 -7.4507902e+21 1.6285788e-314 412.82443 774.88715
-2.2639036e+15 -7.4508667e+21 1.6285788e-314 414.40915 775.25574
-2.2396969e+15 -7.4594956e+21 1.6285798e-314 415.85843 775.49548
-2.2431447e+15 -7.444296e+21 1.6285781e-314 417.43851 775.77783
-2.2154894e+15 -7.4576537e+21 1.6285796e-314 419.08514 775.9259
-2.188328e+15 -7.4726326e+21 1.6285812e-314 420.77078 776.15234
-2.1875538e+15 -7.4662871e+21 1.6285805e-314 422.36118 776.56799
-2.2121124e+15 -7.4304249e+21 1.6285766e-314 423.80261 776.86755
-2.2333639e+15 -7.3966299e+21 1.6285729e-314 425.48047 777.21686
-4.5915642e+13 -1.1114539e+22 1.6288891e-314 539.6413 789.02051
-4.0612626e+15 -4.0372559e+21 1.6281292e-314 812.41766 837.45837
-3.9343184e+15 -4.0682091e+21 1.628136e-314 813.92969 837.68573
-4.0760416e+15 -4.0209123e+21 1.6281256e-314 815.3172 837.84473
-3.8412915e+15 -4.0797946e+21 1.6281385e-314 817.51837 838.13422
-3.9918795e+15 -4.0304306e+21 1.6281277e-314 819.51318 838.54944
-4.063234e+15 -4.0038684e+21 1.6281218e-314 821.8949 839.10455
-4.0307232e+15 -4.0003624e+21 1.6281211e-314 824.71301 839.40381
-4.1976385e+15 -3.9441011e+21 1.6281087e-314 827.29382 839.91553
-4.2335251e+15 -3.9274986e+21 1.6281051e-314 829.95844 840.55902
-4.6288613e+15 -3.7232559e+21 1.6280603e-314 863.41449 846.84582
-4.501209e+15 -3.7188288e+21 1.6280593e-314 865.7793 846.35394
-4.4815058e+15 -3.7062841e+21 1.6280565e-314 868.10205 846.14825
-4.363989e+15 -3.7234022e+21 1.6280603e-314 872.37494 846.74438
-4.3898856e+15 -3.7129246e+21 1.628058e-314 874.25543 847.27905
-4.5171149e+15 -3.6735226e+21 1.6280494e-314 876.27246 847.78937
-4.6018374e+15 -3.6546706e+21 1.6280452e-314 878.2207 848.14001
-4.4236633e+15 -3.6841106e+21 1.6280517e-314 880.62006 848.55237
-4.3658187e+15 -3.6924873e+21 1.6280535e-314 882.63611 848.80688
-4.696696e+15 -3.6172974e+21 1.628037e-314 884.51056 849.11951
-4.413248e+15 -3.6630833e+21 1.6280471e-314 886.90405 849.49365
-4.4927651e+15 -3.6316482e+21 1.6280402e-314 888.96423 849.78772
-4.7954932e+15 -3.5822121e+21 1.6280293e-314 890.74951 850.24915
-4.9975928e+15 -3.5367596e+21 1.6280194e-314 895.08832 850.94525
-4.7400408e+15 -3.5646504e+21 1.6280255e-314 897.66669 851.3324
-5.0049115e+15 -3.5132958e+21 1.6280142e-314 901.6181 852.0788
-5.0237707e+15 -3.4983889e+21 1.6280109e-314 904.09607 852.29053
-4.5739716e+15 -3.5503717e+21 1.6280223e-314 906.84418 852.50049
-4.5886089e+15 -3.53104e+21 1.6280181e-314 911.10736 853.0838
-4.9322879e+15 -3.4765847e+21 1.6280061e-314 913.30872 853.67419
-4.9497426e+15 -3.4639319e+21 1.6280034e-314 915.40625 853.86578
-5.1895564e+15 -3.4252302e+21 1.6279949e-314 917.42377 854.41614
-5.2323429e+15 -3.4117644e+21 1.6279919e-314 919.7727 854.87408
-5.3992582e+15 -3.3793723e+21 1.6279848e-314 922.77539 855.53534
-2.2489858e+15 -7.3913922e+21 1.6285723e-314 415.04425 773.41907
-2.2085229e+15 -7.4229714e+21 1.6285758e-314 416.58597 773.65015
-2.200079e+15 -7.4203188e+21 1.6285755e-314 418.1037 773.89508
-2.2045125e+15 -7.4037141e+21 1.6285736e-314 419.76816 774.20184
-2.1814313e+15 -7.4095462e+21 1.6285743e-314 421.48575 774.29724
-2.1826984e+15 -7.3957472e+21 1.6285728e-314 422.96326 774.51019
-2.1776314e+15 -7.3934594e+21 1.6285725e-314 424.42288 774.854
-8.303161e+14 -8.9614326e+21 1.6287445e-314 447.82938 776.93457
-4.6498381e+13 -1.1033376e+22 1.6288847e-314 541.07428 787.21191
-4.1064392e+15 -3.9787428e+21 1.6281163e-314 814.82623 835.68182
-4.1862375e+15 -3.9530656e+21 1.6281107e-314 816.22815 836.06262
-4.1575278e+15 -3.9590779e+21 1.628112e-314 817.60761 836.44794
-4.1489422e+15 -3.9518473e+21 1.6281104e-314 819.52808 836.60046
-4.0842041e+15 -3.9507034e+21 1.6281102e-314 824.16156 837.17438
-4.1454246e+15 -3.9265754e+21 1.6281049e-314 826.46576 837.66895
-4.2112901e+15 -3.8982793e+21 1.6280987e-314 828.88422 838.04254
-4.2864434e+15 -3.8695013e+21 1.6280924e-314 831.40094 838.58563
-4.2872874e+15 -3.8626018e+21 1.6280908e-314 834.07221 839.20087
-4.2808149e+15 -3.8600933e+21 1.6280903e-314 836.59039 839.89154
-4.4625049e+15 -3.7186442e+21 1.6280593e-314 859.6756 843.3761
-4.411981e+15 -3.7164307e+21 1.6280588e-314 862.05231 843.27154
-4.3822856e+15 -3.7129629e+21 1.628058e-314 864.05695 843.31177
-4.4444918e+15 -3.6863624e+21 1.6280522e-314 866.09784 843.58173
-4.5289346e+15 -3.6610522e+21 1.6280466e-314 868.1394 844.09552
-4.4784091e+15 -3.6638939e+21 1.6280472e-314 871.95422 845.04688
-4.544418e+15 -3.6441929e+21 1.6280429e-314 874.22406 845.52319
-4.4333742e+15 -3.6617164e+21 1.6280468e-314 876.58649 845.8833
-4.5644024e+15 -3.6291397e+21 1.6280396e-314 878.61114 846.45892
-4.6161912e+15 -3.6098823e+21 1.6280354e-314 880.8194 846.60175
-4.7831065e+15 -3.575092e+21 1.6280278e-314 882.81482 846.74304
-4.4449127e+15 -3.6138297e+21 1.6280363e-314 887.37811 847.31384
-4.7870493e+15 -3.5531031e+21 1.6280229e-314 889.09674 847.83862
-4.6347712e+15 -3.569226e+21 1.6280265e-314 891.25201 848.28571
-4.9032968e+15 -3.521927e+21 1.6280161e-314 893.30524 848.58813
-4.6626369e+15 -3.549525e+21 1.6280222e-314 895.50452 848.95929
-4.8498159e+15 -3.5128162e+21 1.6280141e-314 897.62305 849.21143
-4.9716942e+15 -3.4848488e+21 1.628008e-314 900.22229 849.59186
-4.7363815e+15 -3.5099744e+21 1.6280135e-314 902.5564 849.91223
-4.8652993e+15 -3.4828943e+21 1.6280075e-314 904.78143 850.26977
-4.9818303e+15 -3.4396912e+21 1.6279981e-314 911.69159 851.32239
-4.9745117e+15 -3.4350795e+21 1.627997e-314 913.65869 851.72687
-4.9995599e+15 -3.4247145e+21 1.6279948e-314 915.72223 852.10547
-4.9916787e+15 -3.4180717e+21 1.6279933e-314 917.96783 852.48657
-5.0916054e+15 -3.3927277e+21 1.6279877e-314 920.4104 852.77563
-5.471594e+15 -3.3350253e+21 1.6279751e-314 922.73749 853.54248
-4.984927e+15 -3.3923944e+21 1.6279877e-314 926.63068 854.16058
-5.1918113e+15 -3.3487861e+21 1.6279781e-314 930.87329 854.97363
-2.2352634e+15 -7.3345027e+21 1.628566e-314 415.74326 771.52618
-2.1918456e+15 -7.3671899e+21 1.6285696e-314 417.36081 771.72217
-2.1806572e+15 -7.3689598e+21 1.6285698e-314 418.93002 772.03149
-2.1516651e+15 -7.3912436e+21 1.6285723e-314 420.62381 772.41754
-2.1776314e+15 -7.3494097e+21 1.6285677e-314 422.27789 772.67041
-2.1528612e+15 -7.3669692e+21 1.6285696e-314 423.64853 772.92676
-2.1998675e+15 -7.3053554e+21 1.6285629e-314 425.05826 773.18073
-8.3316581e+14 -8.9090422e+21 1.6287388e-314 445.66336 774.62451
-3.8293819e+13 -1.1109378e+22 1.6288889e-314 541.39026 784.98523
-4.2930577e+15 -3.8866195e+21 1.6280961e-314 816.80249 834.1897
-4.2342295e+15 -3.8957325e+21 1.6280981e-314 818.56561 834.38519
-4.2757468e+15 -3.8853292e+21 1.6280958e-314 819.78589 834.94476
-4.0560571e+15 -3.9248775e+21 1.6281045e-314 824.57556 835.31958
-4.2722292e+15 -3.8495796e+21 1.628088e-314 828.60944 836.11084
-4.2118527e+15 -3.8533784e+21 1.6280888e-314 831.01257 836.20453
-4.323597e+15 -3.8026881e+21 1.6280777e-314 835.52606 836.83966
-4.332464e+15 -3.7913233e+21 1.6280752e-314 837.9165 837.22235
-4.345976e+15 -3.7784115e+21 1.6280724e-314 840.28345 837.58624
-4.3123399e+15 -3.7809943e+21 1.6280729e-314 842.59058 838.03235
-4.4069151e+15 -3.7470529e+21 1.6280655e-314 844.62463 838.42364
-4.417893e+15 -3.7355777e+21 1.628063e-314 846.91504 838.79993
-4.4143733e+15 -3.7290115e+21 1.6280615e-314 849.07507 839.1673
-4.4781278e+15 -3.7031113e+21 1.6280559e-314 851.1919 839.53418
-4.5894507e+15 -3.6766594e+21 1.62805e-314 853.21783 839.91705
-4.4319655e+15 -3.6984996e+21 1.6280548e-314 855.52704 840.10339
-4.5821364e+15 -3.6586923e+21 1.6280461e-314 857.34753 840.35248
-4.3900251e+15 -3.6917487e+21 1.6280534e-314 859.84753 840.60931
-4.4726388e+15 -3.6575484e+21 1.6280459e-314 863.91742 841.54938
-4.3462573e+15 -3.6834846e+21 1.6280515e-314 866.30573 841.7981
-4.5027573e+15 -3.6343413e+21 1.6280408e-314 868.21503 842.3172
-4.4998024e+15 -3.6317968e+21 1.6280402e-314 869.98895 842.78479
-4.5258379e+15 -3.6210602e+21 1.6280378e-314 871.88226 843.12158
-4.5123303e+15 -3.6129064e+21 1.6280361e-314 874.29126 843.43036
-4.4727806e+15 -3.6120215e+21 1.6280359e-314 876.71057 843.6825
-4.8287061e+15 -3.5539138e+21 1.6280231e-314 878.55048 844.28735
-4.5131721e+15 -3.5756076e+21 1.6280279e-314 883.51666 844.70715
-4.5962067e+15 -3.5573455e+21 1.6280239e-314 885.50983 845.09802
-4.8498159e+15 -3.4973936e+21 1.6280107e-314 891.52032 846.01489
-4.8869717e+15 -3.476364e+21 1.6280061e-314 895.80029 846.7066
-4.8025283e+15 -3.4803497e+21 1.628007e-314 898.07477 847.06274
-5.0536035e+15 -3.4361131e+21 1.6279973e-314 900.35156 847.48315
-4.8230754e+15 -3.4610901e+21 1.6280027e-314 902.83612 847.89313
-5.0952647e+15 -3.4135726e+21 1.6279923e-314 905.04742 848.28064
-5.07781e+15 -3.4065245e+21 1.6279908e-314 907.35547 848.58173
-5.2531692e+15 -3.3761612e+21 1.6279841e-314 909.47339 849.10577
-5.3449311e+15 -3.3456133e+21 1.6279774e-314 914.09723 849.83716
-4.975637e+15 -3.3898116e+21 1.6279871e-314 916.40259 850.1012
-5.2669646e+15 -3.3404859e+21 1.6279763e-314 918.56671 850.53424
-5.456115e+15 -3.3059523e+21 1.6279687e-314 920.47082 850.85767
-5.7710864e+15 -3.2324986e+21 1.6279526e-314 929.5141 852.6535
-2.1743243e+15 -7.3088998e+21 1.6285632e-314 418.42667 769.80762
-2.1389284e+15 -7.3375292e+21 1.6285664e-314 419.93161 770.10034
-2.1686946e+15 -7.3027749e+21 1.6285626e-314 421.35626 770.6004
-2.1651062e+15 -7.2914123e+21 1.6285613e-314 423.08328 770.82495
-2.1864275e+15 -7.2579866e+21 1.6285577e-314 424.63464 771.13739
-4.1716808e+13 -1.1005336e+22 1.6288832e-314 539.09424 782.67932
-4.3566704e+15 -3.8226098e+21 1.6280821e-314 819.27795 832.44623
-4.2457701e+15 -3.848805e+21 1.6280878e-314 821.05829 832.76129
-4.1465499e+15 -3.8671031e+21 1.6280918e-314 823.09784 832.90552
-4.2229702e+15 -3.8402076e+21 1.6280859e-314 824.8169 833.27985
-4.2722292e+15 -3.8198423e+21 1.6280815e-314 827.04327 833.76624
-4.1559795e+15 -3.8405769e+21 1.628086e-314 829.58875 833.95209
-4.3138861e+15 -3.789774e+21 1.6280749e-314 831.50507 834.39374
-4.3630055e+15 -3.7635068e+21 1.6280691e-314 833.69092 834.51593
-4.3024873e+15 -3.7738741e+21 1.6280714e-314 836.00232 834.95789
-4.7445463e+15 -3.6794989e+21 1.6280507e-314 837.60052 835.52911
-4.3259915e+15 -3.7422183e+21 1.6280644e-314 842.47693 835.94025
-4.454484e+15 -3.6977633e+21 1.6280547e-314 844.63074 836.34406
-4.3637077e+15 -3.7041449e+21 1.6280561e-314 849.26715 836.90533
-4.6643249e+15 -3.6272954e+21 1.6280392e-314 853.26074 837.67535
-4.6212592e+15 -3.6211705e+21 1.6280379e-314 857.383 838.49628
-4.62098e+15 -3.6107672e+21 1.6280356e-314 859.78088 838.78467
-4.6682676e+15 -3.5968961e+21 1.6280325e-314 862.01434 839.21875
-4.5967693e+15 -3.5996253e+21 1.6280331e-314 864.28772 839.61633
-4.7442628e+15 -3.5737634e+21 1.6280275e-314 866.42364 840.17145
-4.5320313e+15 -3.5949776e+21 1.6280321e-314 868.41925 840.34155
-4.8318028e+15 -3.5443211e+21 1.628021e-314 870.37628 840.68097
-4.6496876e+15 -3.5501893e+21 1.6280223e-314 874.93543 841.16998
-4.760588e+15 -3.529824e+21 1.6280178e-314 876.90735 841.66785
-4.6437777e+15 -3.5397477e+21 1.62802e-314 879.08429 842.06146
-4.756366e+15 -3.505768e+21 1.6280126e-314 883.71716 842.77643
-4.9317252e+15 -3.4692799e+21 1.6280045e-314 885.94165 842.98102
-4.8869717e+15 -3.4698338e+21 1.6280047e-314 887.96551 843.38666
-5.259646e+15 -3.4079273e+21 1.6279911e-314 890.0144 843.73517
-5.188152e+15 -3.4085173e+21 1.6279912e-314 892.09644 843.93475
-4.8289896e+15 -3.4529746e+21 1.628001e-314 894.39362 844.30505
-5.040375e+15 -3.4164121e+21 1.6279929e-314 896.55102 844.79273
-5.1380469e+15 -3.3959365e+21 1.6279885e-314 898.53534 845.17676
-4.8078756e+15 -3.4313168e+21 1.6279962e-314 901.16095 845.38922
-4.8855629e+15 -3.4168557e+21 1.627993e-314 903.22504 845.9837
-5.214609e+15 -3.3606305e+21 1.6279807e-314 905.56976 846.40143
-5.5625099e+15 -3.2935202e+21 1.627966e-314 909.82776 847.06653
-5.3812408e+15 -3.3091994e+21 1.6279694e-314 912.2193 847.31769
-5.8118972e+15 -3.2437148e+21 1.6279551e-314 914.25989 847.96118
-5.5943184e+15 -3.2634519e+21 1.6279594e-314 916.71606 848.15698
-5.5588506e+15 -3.2586555e+21 1.6279583e-314 919.19244 848.49866
-5.5717999e+15 -3.2503914e+21 1.6279565e-314 921.12329 848.84845
-5.6351335e+15 -3.231983e+21 1.6279525e-314 923.39215 849.16589
-5.831319e+15 -3.1860125e+21 1.6279424e-314 928.97333 850.25549
-2.1917758e+15 -7.217256e+21 1.6285532e-314 419.47696 768.04047
-2.1793902e+15 -7.2277314e+21 1.6285543e-314 420.83786 768.48688
-2.1620804e+15 -7.2348921e+21 1.6285551e-314 422.5069 768.79346
-2.1368882e+15 -7.2447055e+21 1.6285562e-314 424.24936 768.94647
-7.1090044e+14 -9.0175114e+21 1.6287507e-314 448.41199 770.67914
-3.3554243e+13 -1.1121178e+22 1.6288895e-314 539.44049 780.81256
-4.2076308e+15 -3.8111369e+21 1.6280796e-314 823.56567 830.83392
-4.247458e+15 -3.7965632e+21 1.6280764e-314 825.56867 831.41803
-4.2688512e+15 -3.7840184e+21 1.6280736e-314 827.61633 831.81903
-4.4311215e+15 -3.7297478e+21 1.6280617e-314 829.71545 832.20276
-4.284472e+15 -3.7622143e+21 1.6280688e-314 831.92517 832.42853
-4.3030499e+15 -3.7483432e+21 1.6280658e-314 834.26727 832.81659
-4.6389931e+15 -3.6669564e+21 1.6280479e-314 835.95178 833.27045
-4.5365367e+15 -3.6749998e+21 1.6280497e-314 838.00623 833.6391
-4.5387873e+15 -3.6651482e+21 1.6280475e-314 840.18317 833.89893
-4.3631451e+15 -3.7001975e+21 1.6280552e-314 842.69629 834.19049
-4.458706e+15 -3.667141e+21 1.628048e-314 844.6712 834.63306
-4.480097e+15 -3.6381784e+21 1.6280416e-314 849.52826 835.12866
-4.7445463e+15 -3.5918408e+21 1.6280314e-314 851.34058 835.56433
-4.5520158e+15 -3.6052323e+21 1.6280344e-314 855.69281 836.33466
-4.6868434e+15 -3.5747227e+21 1.6280277e-314 858.05542 836.59021
-4.8883804e+15 -3.5245841e+21 1.6280167e-314 864.39722 837.76446
-5.0234872e+15 -3.4967293e+21 1.6280106e-314 866.48602 838.07764
-4.6603864e+15 -3.5191235e+21 1.6280155e-314 873.42273 838.87567
-4.9207473e+15 -3.4765127e+21 1.6280061e-314 875.08002 839.23639
-4.9410152e+15 -3.4646682e+21 1.6280035e-314 877.43195 839.6023
-5.0491024e+15 -3.4345279e+21 1.6279969e-314 881.65869 840.35181
-4.9711316e+15 -3.4362617e+21 1.6279973e-314 883.95471 840.64301
-5.1645082e+15 -3.3996632e+21 1.6279893e-314 886.39166 841.07629
-5.031085e+15 -3.4113591e+21 1.6279918e-314 888.54071 841.41956
-5.1326996e+15 -3.3877827e+21 1.6279867e-314 890.7879 841.75598
-4.8751519e+15 -3.4146039e+21 1.6279925e-314 893.10657 841.97449
-5.416146e+15 -3.3329604e+21 1.6279746e-314 894.64978 842.43591
-5.116091e+15 -3.3667172e+21 1.627982e-314 897.06268 842.73029
-5.1723894e+15 -3.3510379e+21 1.6279786e-314 899.32471 843.14093
-5.1768906e+15 -3.3420352e+21 1.6279766e-314 901.49451 843.46765
-5.4741281e+15 -3.2744474e+21 1.6279618e-314 908.45422 844.68133
-5.3781441e+15 -3.280865e+21 1.6279632e-314 910.6709 845.05646
-5.1870224e+15 -3.2956594e+21 1.6279665e-314 913.20911 845.22205
-5.6720058e+15 -3.212908e+21 1.6279483e-314 917.26868 846.08472
-5.4124867e+15 -3.2326833e+21 1.6279526e-314 921.87036 846.72058
-5.9312457e+15 -3.1540257e+21 1.6279354e-314 923.79535 847.32117
-5.6269688e+15 -3.1867871e+21 1.6279426e-314 926.40216 847.58148
-5.5827778e+15 -3.1680814e+21 1.6279385e-314 933.13648 848.61847
-2.1907203e+15 -7.1580022e+21 1.6285467e-314 419.48041 766.22754
-2.1959269e+15 -7.1520259e+21 1.628546e-314 420.68341 766.69665
-2.145403e+15 -7.1882573e+21 1.62855e-314 422.29385 766.75409
-2.1715798e+15 -7.1515845e+21 1.628546e-314 423.89477 767.1507
-4.4927651e+15 -3.6845902e+21 1.6280518e-314 827.89008 829.92358
-4.4470258e+15 -3.6900148e+21 1.628053e-314 829.86975 830.2063
-4.3186728e+15 -3.7182006e+21 1.6280592e-314 832.32776 830.58331
-4.4249282e+15 -3.6797961e+21 1.6280507e-314 834.47778 830.96185
-4.4147964e+15 -3.6734483e+21 1.6280493e-314 836.65155 831.23645
-4.8334907e+15 -3.5966011e+21 1.6280325e-314 838.15814 831.64728
-4.6851554e+15 -3.6082587e+21 1.628035e-314 840.48212 831.93292
-4.5354114e+15 -3.6219834e+21 1.6280381e-314 842.72717 832.29858
-4.4458984e+15 -3.6343796e+21 1.6280408e-314 845.03888 832.63257
-4.4558906e+15 -3.6120215e+21 1.6280359e-314 849.81 833.28742
-5.1856179e+15 -3.4950315e+21 1.6280102e-314 851.3833 833.69836
-4.7831065e+15 -3.5420716e+21 1.6280205e-314 853.94989 833.96356
-4.703452e+15 -3.5456136e+21 1.6280213e-314 856.28369 834.36377
-5.0277092e+15 -3.486585e+21 1.6280083e-314 860.28033 835.19171
-4.7800098e+15 -3.4894605e+21 1.628009e-314 867.37647 835.89978
-4.9272241e+15 -3.461644e+21 1.6280029e-314 869.52399 836.34143
-4.9351054e+15 -3.4526413e+21 1.6280009e-314 871.74048 836.71478
-4.9021716e+15 -3.4505382e+21 1.6280004e-314 873.64972 837.02521
-5.3384586e+15 -3.3797776e+21 1.6279849e-314 875.54419 837.34729
-5.1929365e+15 -3.3909555e+21 1.6279874e-314 878.07263 837.69763
-5.1923739e+15 -3.3870824e+21 1.6279865e-314 879.90466 838.1532
-5.201097e+15 -3.3726934e+21 1.6279834e-314 882.5105 838.36511
-5.4048846e+15 -3.3388984e+21 1.6279759e-314 884.36273 838.83698
-5.1816751e+15 -3.3622518e+21 1.6279811e-314 886.72253 839.16486
-5.5976943e+15 -3.2957697e+21 1.6279665e-314 888.80188 839.63904
-5.5717999e+15 -3.2919709e+21 1.6279656e-314 890.97833 840.00861
-5.5571627e+15 -3.2841504e+21 1.6279639e-314 893.18646 840.25494
-5.2672438e+15 -3.3092377e+21 1.6279694e-314 897.44281 840.81512
-5.004628e+15 -3.3378671e+21 1.6279757e-314 900.12274 841.22913
-5.3086215e+15 -3.280829e+21 1.6279632e-314 904.15338 842.02216
-5.317628e+15 -3.2622336e+21 1.6279591e-314 908.90949 842.79108
-5.766581e+15 -3.1863818e+21 1.6279425e-314 911.11267 843.0581
-5.4406316e+15 -3.2234959e+21 1.6279506e-314 913.62378 843.34949
-5.6199336e+15 -3.1891853e+21 1.6279431e-314 915.81055 843.71277
-5.7153506e+15 -3.1663858e+21 1.6279381e-314 918.03931 844.0368
-5.8757934e+15 -3.1249549e+21 1.627929e-314 922.48157 844.66284
-5.766581e+15 -3.1375357e+21 1.6279318e-314 924.46606 845.19531
-5.8197784e+15 -3.1223721e+21 1.6279284e-314 926.77045 845.62701
-5.7218274e+15 -3.1232931e+21 1.6279286e-314 929.53473 845.8681
-6.124618e+15 -3.0458177e+21 1.6279116e-314 936.4361 847.40125
-2.2357562e+15 -7.0518974e+21 1.628535e-314 420.52551 764.9444
-2.1876945e+15 -7.0918173e+21 1.6285394e-314 421.95584 765.12103
-2.2377964e+15 -7.0225294e+21 1.6285318e-314 423.4715 765.30011
-4.8239215e+15 -3.5984454e+21 1.6280329e-314 828.01202 827.85706
-4.4907937e+15 -3.6423487e+21 1.6280425e-314 830.15167 828.2702
-4.7011971e+15 -3.6067838e+21 1.6280347e-314 832.14398 828.8504
-4.4309798e+15 -3.6437493e+21 1.6280428e-314 834.81006 829.08136
-4.8098469e+15 -3.5724709e+21 1.6280272e-314 836.69879 829.48944
-4.8872551e+15 -3.5555756e+21 1.6280235e-314 838.52057 829.84943
-4.6021208e+15 -3.584205e+21 1.6280298e-314 840.92108 829.98328
-4.6741775e+15 -3.5580458e+21 1.628024e-314 845.18219 830.6734
-4.6420898e+15 -3.5500047e+21 1.6280223e-314 847.60205 830.83685
-4.7814185e+15 -3.5275362e+21 1.6280173e-314 849.61957 831.47601
-5.2298088e+15 -3.4553345e+21 1.6280015e-314 851.68732 831.87598
-4.7321596e+15 -3.5149554e+21 1.6280146e-314 854.32629 832.08795
-4.750177e+15 -3.5052524e+21 1.6280124e-314 856.52441 832.49805
-5.3401465e+15 -3.4151579e+21 1.6279927e-314 858.23389 832.93561
-5.0975153e+15 -3.4420894e+21 1.6279986e-314 860.71246 833.35785
-5.3629442e+15 -3.3869338e+21 1.6279865e-314 864.95349 834.00873
-5.1521215e+15 -3.409033e+21 1.6279913e-314 867.23321 834.34619
-5.1743565e+15 -3.3944976e+21 1.6279881e-314 869.61792 834.5813
-5.2996149e+15 -3.3676764e+21 1.6279823e-314 871.78473 834.90375
-5.4091065e+15 -3.3480115e+21 1.6279779e-314 873.74109 835.42969
-5.2208023e+15 -3.3556856e+21 1.6279796e-314 878.30566 835.9696
-5.2998941e+15 -3.3264662e+21 1.6279732e-314 882.89008 836.66229
-5.5501275e+15 -3.2892778e+21 1.6279651e-314 884.68335 837.31219
-5.3134061e+15 -3.3101227e+21 1.6279696e-314 887.07318 837.39136
-5.6109271e+15 -3.261128e+21 1.6279589e-314 889.07434 837.83868
-5.5968525e+15 -3.2428276e+21 1.6279549e-314 893.64081 838.36157
-5.8062708e+15 -3.1961591e+21 1.6279446e-314 897.72076 838.96893
-5.4524557e+15 -3.241981e+21 1.6279547e-314 900.0705 839.47302
-5.7297087e+15 -3.1909574e+21 1.6279435e-314 902.336 839.73199
-5.560822e+15 -3.2072627e+21 1.6279471e-314 904.43933 840.01666
-5.5236662e+15 -3.2036103e+21 1.6279463e-314 906.74823 840.34442
-5.8299146e+15 -3.1559442e+21 1.6279358e-314 908.66962 840.92004
-5.6072677e+15 -3.1657958e+21 1.627938e-314 913.81268 841.49725
-5.7629217e+15 -3.1334037e+21 1.6279309e-314 916.13141 841.81836
-5.923081e+15 -3.1051413e+21 1.6279247e-314 918.06555 842.27448
-5.9419402e+15 -3.0902006e+21 1.6279214e-314 920.65588 842.53516
-6.0474933e+15 -3.0681375e+21 1.6279165e-314 922.75848 842.94397
-5.8279432e+15 -3.094997e+21 1.6279224e-314 924.80249 843.37665
-6.2217272e+15 -3.0311697e+21 1.6279084e-314 926.59198 843.72467
-6.0362362e+15 -3.0468873e+21 1.6279119e-314 929.36798 844.07306
-2.2513781e+15 -6.9623928e+21 1.6285252e-314 420.89258 762.92572
-2.2298453e+15 -6.9895495e+21 1.6285282e-314 421.84424 763.40418
-2.3276581e+15 -6.9226215e+21 1.6285209e-314 422.91663 763.79968
-6.9928953e+14 -8.9311774e+21 1.6287412e-314 442.76385 764.94501
-7.1747979e+14 -8.8810028e+21 1.6287357e-314 444.62747 765.3606
-6.7145868e+14 -8.9444585e+21 1.6287427e-314 446.49536 764.89264
-4.8374335e+15 -3.5521799e+21 1.6280227e-314 832.45789 826.94696
-4.6893774e+15 -3.566015e+21 1.6280258e-314 834.70038 827.33295
-4.7831065e+15 -3.5331432e+21 1.6280186e-314 839.12421 827.88055
-4.9047056e+15 -3.5079073e+21 1.628013e-314 841.02081 828.16065
-4.9106155e+15 -3.4999764e+21 1.6280113e-314 843.14734 828.54791
-5.1127151e+15 -3.4644115e+21 1.6280035e-314 845.1344 828.94745
-5.0161686e+15 -3.4674739e+21 1.6280041e-314 847.49219 829.18561
-4.9134287e+15 -3.4766973e+21 1.6280062e-314 849.69312 829.67169
-5.1017372e+15 -3.4222038e+21 1.6279942e-314 856.50098 830.66052
-5.5031191e+15 -3.3441384e+21 1.6279771e-314 862.80048 831.91229
-5.2292462e+15 -3.3699643e+21 1.6279828e-314 865.30121 832.00885
-5.2956722e+15 -3.3513329e+21 1.6279787e-314 867.76825 832.41748
-5.3131269e+15 -3.334361e+21 1.6279749e-314 871.94678 833.1438
-5.3623816e+15 -3.3170582e+21 1.6279711e-314 874.06775 833.35303
-5.4465458e+15 -3.2994964e+21 1.6279673e-314 876.41388 833.93109
-5.2647097e+15 -3.3046621e+21 1.6279684e-314 880.79407 834.30914
-5.5695493e+15 -3.232278e+21 1.6279525e-314 889.30731 835.89722
-5.5169145e+15 -3.2258941e+21 1.6279511e-314 892.02515 836.09039
-5.8377958e+15 -3.1758298e+21 1.6279402e-314 893.67682 836.55206
-5.8482068e+15 -3.1652779e+21 1.6279378e-314 896.1106 836.93561
-5.8853626e+15 -3.1525868e+21 1.6279351e-314 898.09491 837.26154
-5.5858745e+15 -3.1877464e+21 1.6279428e-314 900.33545 837.56696
-5.5360529e+15 -3.1886313e+21 1.627943e-314 902.41065 837.96503
-5.6945243e+15 -3.1568291e+21 1.627936e-314 904.66272 838.31903
-6.1130775e+15 -3.0883181e+21 1.627921e-314 906.7204 838.70349
-6.1150488e+15 -3.0788381e+21 1.6279189e-314 908.97968 839.01465
-6.0866162e+15 -3.075037e+21 1.627918e-314 911.37726 839.44159
-6.0567833e+15 -3.0681015e+21 1.6279165e-314 913.8794 839.71704
-6.1955494e+15 -3.0410574e+21 1.6279106e-314 916.00714 840.13452
-6.1581145e+15 -3.0393978e+21 1.6279102e-314 918.39813 840.60602
-6.1350333e+15 -3.0310594e+21 1.6279084e-314 920.82098 840.82629
-6.1927362e+15 -3.0163033e+21 1.6279052e-314 922.77069 841.19409
-6.4274862e+15 -2.9676397e+21 1.6278945e-314 927.01459 841.9696
-5.8814241e+15 -3.0325366e+21 1.6279087e-314 929.84656 842.09143
-6.9949373e+15 -2.8468509e+21 1.627868e-314 938.22144 844.0257
-2.3916939e+15 -6.8313471e+21 1.6285108e-314 422.00259 761.76807
-7.1561524e+14 -8.8145972e+21 1.6287284e-314 444.06857 762.95508
-4.8078755e+15 -3.5169843e+21 1.628015e-314 832.58679 824.69843
-4.7969019e+15 -3.5116723e+21 1.6280138e-314 835.28424 825.30774
-4.9004836e+15 -3.4872853e+21 1.6280085e-314 837.26807 825.51685
-5.0223619e+15 -3.4631933e+21 1.6280032e-314 839.36816 825.94373
-4.720619e+15 -3.487506e+21 1.6280085e-314 843.8971 826.47815
-4.9562151e+15 -3.4467754e+21 1.6279996e-314 846.02203 826.92041
-4.9030177e+15 -3.451646e+21 1.6280007e-314 847.74951 827.39746
-5.1053965e+15 -3.402836e+21 1.62799e-314 852.36585 828.01965
-5.3978494e+15 -3.3448387e+21 1.6279772e-314 856.67084 828.76208
-5.7274581e+15 -3.2903113e+21 1.6279653e-314 858.63702 829.14648
-5.1250975e+15 -3.3654629e+21 1.6279818e-314 861.47699 829.42773
-5.6911442e+15 -3.2768433e+21 1.6279623e-314 863.34503 829.82025
-5.137205e+15 -3.3503353e+21 1.6279784e-314 865.86292 830.28955
-5.4397898e+15 -3.2865846e+21 1.6279645e-314 870.25012 830.81867
-5.5267629e+15 -3.2695768e+21 1.6279607e-314 872.05078 831.25006
-5.4220559e+15 -3.2728959e+21 1.6279615e-314 874.74225 831.55383
-5.7398405e+15 -3.2064138e+21 1.6279469e-314 880.71503 832.64789
-5.8850834e+15 -3.1718081e+21 1.6279393e-314 883.06409 832.76428
-5.7952928e+15 -3.1723981e+21 1.6279394e-314 887.54156 833.70172
-5.7519437e+15 -3.1671964e+21 1.6279383e-314 889.91321 833.91363
-5.8558089e+15 -3.1457255e+21 1.6279336e-314 892.00513 834.33954
-6.1592398e+15 -3.1001243e+21 1.6279235e-314 893.89398 835.0011
-5.838075e+15 -3.1301183e+21 1.6279301e-314 896.69427 835.03272
-5.7381526e+15 -3.1329961e+21 1.6279308e-314 899.0943 835.23816
-5.8786066e+15 -3.1042564e+21 1.6279245e-314 900.87799 835.44134
-5.9515094e+15 -3.090016e+21 1.6279213e-314 902.88086 835.9884
-6.1631782e+15 -3.0305437e+21 1.6279083e-314 909.77283 836.92865
-6.1826001e+15 -3.0236082e+21 1.6279068e-314 911.63501 837.39001
-6.0066782e+15 -3.0413163e+21 1.6279106e-314 914.23779 837.87329
-6.3503615e+15 -2.9844269e+21 1.6278982e-314 916.30713 838.3006
-5.98163e+15 -3.0156008e+21 1.627905e-314 921.46576 838.85785
-6.5423251e+15 -2.9294919e+21 1.6278861e-314 923.36267 839.39728
-6.2473424e+15 -2.9605938e+21 1.6278929e-314 925.86096 839.59222
-6.4758991e+15 -2.9259499e+21 1.6278853e-314 927.50452 840.16357
-6.4812463e+15 -2.9134434e+21 1.6278826e-314 929.79096 840.33466
-6.273516e+15 -2.9326647e+21 1.6278868e-314 932.3479 840.61316
-2.491335e+15 -6.7160955e+21 1.6284982e-314 422.12183 760.0199
-6.7831989e+14 -8.8175471e+21 1.6287287e-314 446.76105 761.51044
-6.6684965e+14 -8.8234513e+21 1.6287294e-314 448.30832 761.52692
-2.7914414e+13 -1.1046652e+22 1.6288854e-314 541.13593 772.26367
-5.1687301e+15 -3.4220214e+21 1.6279942e-314 835.41467 823.3219
-5.236844e+15 -3.408997e+21 1.6279913e-314 837.21313 823.82135
-5.0386871e+15 -3.4276283e+21 1.6279954e-314 839.70563 824.14612
-5.3863089e+15 -3.3722138e+21 1.6279832e-314 841.58758 824.60193
-5.3981286e+15 -3.3610719e+21 1.6279808e-314 843.82165 824.89526
-5.3511245e+15 -3.3606666e+21 1.6279807e-314 845.80695 825.21368
-5.1155283e+15 -3.3702953e+21 1.6279828e-314 852.61762 826.31067
-5.2816018e+15 -3.3385314e+21 1.6279759e-314 855.07361 826.80853
-5.2844151e+15 -3.3309676e+21 1.6279742e-314 857.29034 827.22199
-5.6306281e+15 -3.2519046e+21 1.6279569e-314 863.8017 828.03455
-5.308338e+15 -3.2885775e+21 1.6279649e-314 866.28265 828.33051
-5.6241556e+15 -3.2357818e+21 1.6279533e-314 868.24109 828.70343
-5.6666586e+15 -3.2234959e+21 1.6279506e-314 870.30145 829.12476
-6.0210363e+15 -3.1617358e+21 1.6279371e-314 872.47156 829.39001
-5.5585714e+15 -3.2082603e+21 1.6279473e-314 877.41174 829.97516
-5.6860804e+15 -3.1711821e+21 1.6279391e-314 881.83716 830.57092
-5.7803721e+15 -3.1513325e+21 1.6279348e-314 883.60931 830.89044
-5.7834688e+15 -3.1410395e+21 1.6279325e-314 885.85748 831.16065
-5.8462397e+15 -3.1232571e+21 1.6279286e-314 888.22772 831.55237
