# .PCD v0.7 - Point Cloud Data file format
VERSION 0.7
FIELDS x y z p_x p_y
SIZE 8 8 8 8 8
TYPE F F F F F
COUNT 1 1 1 1 1
WIDTH 772
HEIGHT 1
VIEWPOINT 0 0 0 1 0 0 0
POINTS 772
DATA ascii
62345832 -6.5697712e+21 1.6284822e-314 504.61163 380.71811
64981512 -6.6017963e+21 1.6284857e-314 506.10706 380.82544
68290001 -6.6365506e+21 1.6284895e-314 507.66016 381.01175
74561297 -6.6738134e+21 1.6284936e-314 509.26312 381.21915
80617873 -6.7082704e+21 1.6284973e-314 510.85004 381.32431
87993169 -6.7473031e+21 1.6285016e-314 512.56769 381.45737
94194001 -6.7845659e+21 1.6285057e-314 514.25183 381.61838
99307729 -6.817253e+21 1.6285093e-314 515.78534 381.74927
1.0298862e+08 -6.8504581e+21 1.6285129e-314 517.32867 381.99793
1.0828014e+08 -6.8836631e+21 1.6285166e-314 518.82916 382.16074
1.1497762e+08 -6.9190074e+21 1.6285205e-314 520.40808 382.26834
1.194404e+08 -6.9517665e+21 1.6285241e-314 521.9585 382.44083
1.2590965e+08 -6.9895472e+21 1.6285282e-314 523.60663 382.63278
1.276109e+08 -7.0176587e+21 1.6285313e-314 525.23407 382.73733
1.3674781e+08 -7.0591999e+21 1.6285358e-314 526.9881 382.93277
1.5231696e+08 -7.0999305e+21 1.6285403e-314 528.77405 383.08011
1.6545693e+08 -7.1400711e+21 1.6285447e-314 530.61487 383.25134
1.7189264e+08 -7.1727582e+21 1.6285483e-314 532.2204 383.47403
1.8406621e+08 -7.2096517e+21 1.6285524e-314 533.90478 383.63083
1.9217975e+08 -7.2397582e+21 1.6285557e-314 535.44257 383.71912
2.0709802e+08 -7.2815201e+21 1.6285602e-314 537.21094 383.95279
2.1680861e+08 -7.3152431e+21 1.6285639e-314 538.85828 384.0784
2.1615095e+08 -7.3426159e+21 1.6285669e-314 540.50018 384.2822
2.2881437e+08 -7.3826079e+21 1.6285713e-314 542.36707 384.44586
2.4255837e+08 -7.4229692e+21 1.6285758e-314 544.2301 384.59399
2.602952e+08 -7.4693833e+21 1.6285808e-314 546.24976 384.78033
2.6971066e+08 -7.5073846e+21 1.628585e-314 548.07398 385.02463
2.7636768e+08 -7.5387432e+21 1.6285885e-314 549.80994 385.20526
3.0965383e+08 -7.5799151e+21 1.628593e-314 551.64642 385.30966
3.2396141e+08 -7.6133408e+21 1.6285966e-314 553.34003 385.48386
3.517177e+08 -7.6531121e+21 1.628601e-314 555.16357 385.62991
3.6464288e+08 -7.6863892e+21 1.6286047e-314 556.99664 385.73898
3.7426618e+08 -7.7210714e+21 1.6286085e-314 558.71198 386.03088
3.9492231e+08 -7.7579649e+21 1.6286125e-314 560.6496 386.09625
4.1871904e+08 -7.7992855e+21 1.628617e-314 562.6582 386.25867
4.3775111e+08 -7.8413446e+21 1.6286217e-314 564.70251 386.49176
4.6568199e+08 -7.8863535e+21 1.6286266e-314 566.73279 386.74329
4.8013703e+08 -7.9202972e+21 1.6286303e-314 568.62781 386.79804
5.0469895e+08 -7.9601405e+21 1.6286347e-314 570.5022 386.99383
5.1456391e+08 -7.9948182e+21 1.6286385e-314 572.31879 387.22855
5.3462944e+08 -8.0317117e+21 1.6286425e-314 574.20813 387.30933
5.7434484e+08 -8.0730323e+21 1.6286471e-314 576.19318 387.53528
5.7310989e+08 -8.1032874e+21 1.6286504e-314 578.07043 387.71469
6.5049972e+08 -8.153462e+21 1.6286559e-314 580.26044 387.91144
6.8719476e+08 -8.1955212e+21 1.6286605e-314 582.42633 388.10821
7.287753e+08 -8.2375803e+21 1.6286651e-314 584.59863 388.23453
7.5569984e+08 -8.2774236e+21 1.6286695e-314 586.72699 388.43158
7.8012736e+08 -8.3165329e+21 1.6286738e-314 588.76746 388.64691
8.1612455e+08 -8.3556376e+21 1.6286781e-314 590.78937 388.80231
8.5883252e+08 -8.3954855e+21 1.6286824e-314 592.7904 388.96967
8.9689664e+08 -8.436806e+21 1.628687e-314 594.92712 389.12769
9.0811712e+08 -8.4700065e+21 1.6286906e-314 596.89148 389.23679
9.4347021e+08 -8.51502e+21 1.6286956e-314 599.09943 389.54117
9.9836532e+08 -8.5615062e+21 1.6287007e-314 601.45581 389.66174
1.0054519e+09 -8.5998723e+21 1.6287049e-314 603.65271 389.89743
1.0712992e+09 -8.6537399e+21 1.6287108e-314 606.14417 390.15213
1.121524e+09 -8.6957945e+21 1.6287154e-314 608.57141 390.2533
1.1783785e+09 -8.7385922e+21 1.6287201e-314 610.74414 390.53308
1.2548283e+09 -8.7821285e+21 1.6287249e-314 613.00781 390.7149
1.2403868e+09 -8.8160676e+21 1.6287286e-314 615.09119 390.90588
1.3977971e+09 -8.868458e+21 1.6287343e-314 617.54517 391.04608
1.3922675e+09 -8.9075628e+21 1.6287386e-314 619.91345 391.24945
1.4481022e+09 -8.9525763e+21 1.6287436e-314 622.29102 391.49628
1.4756437e+09 -8.9953695e+21 1.6287483e-314 624.79504 391.64893
1.552201e+09 -9.04481e+21 1.6287537e-314 627.43085 391.86554
1.638262e+09 -9.098673e+21 1.6287596e-314 630.21149 392.09375
1.675467e+09 -9.148109e+21 1.628765e-314 632.92071 392.39264
1.6958682e+09 -9.1916453e+21 1.6287698e-314 635.43213 392.62329
1.8306767e+09 -9.2477242e+21 1.6287759e-314 638.20715 392.77139
1.8714248e+09 -9.2927331e+21 1.6287809e-314 640.81995 392.91089
1.9105088e+09 -9.3406965e+21 1.6287861e-314 643.61102 393.0213
1.9896978e+09 -9.3989866e+21 1.6287925e-314 646.73004 393.27725
1.871049e+09 -9.4425184e+21 1.6287973e-314 649.85876 393.58108
1.8987512e+09 -9.4949144e+21 1.6288003e-314 653.10638 393.65985
1.9407885e+09 -9.5546772e+21 1.6288036e-314 656.46185 393.93091
1.9260245e+09 -9.6092788e+21 1.6288066e-314 659.59259 394.34705
2.0833283e+09 -9.6823272e+21 1.6288106e-314 663.17908 394.64578
2.0794627e+09 -9.7332449e+21 1.6288134e-314 666.51099 394.64972
2.1545703e+09 -9.8033389e+21 1.6288172e-314 670.19244 395.07614
2.0922934e+09 -9.8505637e+21 1.6288198e-314 673.61658 395.06451
2.1021187e+09 -9.9295118e+21 1.6288241e-314 677.95288 395.66965
1.693345e+09 -1.019662e+22 1.6288388e-314 696.31281 396.39212
-3.0089698e+15 -7.5962249e+21 1.6285948e-314 897.32184 375.06546
189000.66 -5.04932e+21 1.6283154e-314 447.68561 371.88117
225079.53 -5.0817098e+21 1.6283189e-314 448.59909 372.04077
261360.28 -5.1137349e+21 1.6283224e-314 449.53586 372.16834
326712.81 -5.1437649e+21 1.6283257e-314 450.46466 372.27389
385710.81 -5.1737229e+21 1.628329e-314 451.39294 372.44678
435201.06 -5.2004337e+21 1.6283319e-314 452.26471 372.60498
480103.81 -5.2252261e+21 1.6283347e-314 453.10538 372.73895
580334.63 -5.2581339e+21 1.6283383e-314 454.09952 372.87686
693790.63 -5.2889024e+21 1.6283416e-314 455.11795 373.05548
814376.63 -5.319671e+21 1.628345e-314 456.15176 373.19122
965214.13 -5.3515475e+21 1.6283485e-314 457.21872 373.21024
1140536.3 -5.3833519e+21 1.628352e-314 458.28406 373.33313
1452068.3 -5.4183269e+21 1.6283558e-314 459.42129 373.42505
1690409.3 -5.4500548e+21 1.6283593e-314 460.48093 373.59552
1912288.3 -5.4798641e+21 1.6283626e-314 461.51077 373.7431
2112670.5 -5.5086421e+21 1.6283657e-314 462.53662 373.91656
2554750.5 -5.5372715e+21 1.6283689e-314 463.57373 374.00711
3025352.5 -5.5691479e+21 1.6283724e-314 464.66104 374.181
3450864.5 -5.6005786e+21 1.6283758e-314 465.80344 374.35336
3912028.5 -5.6315723e+21 1.6283792e-314 466.9744 374.44589
4195145 -5.6614537e+21 1.6283825e-314 468.16876 374.68896
5393877 -5.6975366e+21 1.6283865e-314 469.4682 374.76398
6425257 -5.7328043e+21 1.6283903e-314 470.77155 374.90244
7143321 -5.7671172e+21 1.6283941e-314 472.09497 375.17444
7884873 -5.7970751e+21 1.6283974e-314 473.33896 375.28458
8806362.1 -5.8253352e+21 1.6284005e-314 474.53629 375.3681
11233186 -5.8628907e+21 1.6284046e-314 475.87344 375.48621
12302738 -5.8915967e+21 1.6284078e-314 477.10364 375.67386
14477058 -5.9236218e+21 1.6284113e-314 478.25894 375.73663
15794074 -5.9535752e+21 1.6284146e-314 479.45252 375.93155
17636212 -5.9881854e+21 1.6284184e-314 480.79968 376.21396
20146084 -6.0162203e+21 1.6284214e-314 482.05118 376.30716
24444404 -6.0542982e+21 1.6284256e-314 483.47891 376.47647
29115188 -6.0944343e+21 1.62843e-314 484.87509 376.70755
31806244 -6.1242481e+21 1.6284333e-314 486.09906 376.87445
35336168 -6.157228e+21 1.6284369e-314 487.40649 377.00693
39243592 -6.1911716e+21 1.6284406e-314 488.70785 377.13403
41240072 -6.2186211e+21 1.6284436e-314 490.00342 377.25168
43134216 -6.2473991e+21 1.6284468e-314 491.35904 377.40689
46073608 -6.2805275e+21 1.6284504e-314 492.74774 377.5835
50184008 -6.3159438e+21 1.6284543e-314 494.2391 377.62903
53359944 -6.3511395e+21 1.6284582e-314 495.73233 377.79868
57748872 -6.391208e+21 1.6284626e-314 497.32126 377.95361
59805736 -6.4224945e+21 1.628466e-314 498.83734 378.09769
61746888 -6.4531145e+21 1.6284694e-314 500.27081 378.28213
66414280 -6.4916338e+21 1.6284736e-314 501.77057 378.38483
70732753 -6.5249109e+21 1.6284772e-314 503.19333 378.61737
75614929 -6.5568594e+21 1.6284807e-314 504.66504 378.76569
82594257 -6.5930143e+21 1.6284847e-314 506.22122 378.90118
88664273 -6.625188e+21 1.6284882e-314 507.7211 378.95389
94110161 -6.6603836e+21 1.6284921e-314 509.26401 379.16711
98311121 -6.6941787e+21 1.6284958e-314 510.84326 379.38019
1.0571323e+08 -6.7340941e+21 1.6285002e-314 512.6023 379.52564
1.1117928e+08 -6.768997e+21 1.628504e-314 514.20709 379.68579
1.162091e+08 -6.8030847e+21 1.6285077e-314 515.74811 379.87955
1.2346357e+08 -6.8390189e+21 1.6285117e-314 517.31171 379.9837
1.2607746e+08 -6.8697155e+21 1.6285151e-314 518.77972 380.2453
1.3443255e+08 -6.9064603e+21 1.6285191e-314 520.40222 380.27597
1.3841207e+08 -6.9358283e+21 1.6285223e-314 521.94592 380.47391
1.5347127e+08 -6.9758203e+21 1.6285267e-314 523.59338 380.69232
1.5993386e+08 -7.0071068e+21 1.6285301e-314 525.24646 380.8168
1.7366429e+08 -7.0470267e+21 1.6285345e-314 526.9585 381.03796
1.8674384e+08 -7.0865773e+21 1.6285388e-314 528.82471 381.16507
1.969041e+08 -7.1240608e+21 1.628543e-314 530.56207 381.39047
2.0926557e+08 -7.1595536e+21 1.6285469e-314 532.23694 381.48264
2.2007683e+08 -7.1957085e+21 1.6285508e-314 533.88556 381.67761
2.2245251e+08 -7.2219735e+21 1.6285537e-314 535.39435 381.81271
2.3848477e+08 -7.2652891e+21 1.6285585e-314 537.14801 382.08929
2.4434346e+08 -7.2968684e+21 1.6285619e-314 538.8252 382.23148
2.5266487e+08 -7.3324333e+21 1.6285658e-314 540.54303 382.44543
2.6670403e+08 -7.3735332e+21 1.6285703e-314 542.36102 382.64706
2.6627459e+08 -7.4045224e+21 1.6285737e-314 544.22315 382.86453
3.2345146e+08 -7.4572821e+21 1.6285795e-314 546.21283 382.94098
3.3805421e+08 -7.492775e+21 1.6285834e-314 547.97302 383.15909
3.3451091e+08 -7.5250162e+21 1.6285869e-314 549.75568 383.53784
3.8042682e+08 -7.5951913e+21 1.6285946e-314 553.20251 383.69116
4.1784659e+08 -7.6430015e+21 1.6285999e-314 555.0968 383.99649
4.367312e+08 -7.6760625e+21 1.6286035e-314 556.9165 383.98163
4.6660794e+08 -7.7159058e+21 1.6286079e-314 558.79529 384.04413
4.6937299e+08 -7.7476337e+21 1.6286114e-314 560.64917 384.24628
4.9161274e+08 -7.7867429e+21 1.6286157e-314 562.66125 384.336
5.2283168e+08 -7.8332246e+21 1.6286208e-314 564.72931 384.57132
5.837129e+08 -7.8811879e+21 1.628626e-314 566.74445 384.7905
5.4822567e+08 -7.9048003e+21 1.6286286e-314 568.64398 384.92602
6.0483904e+08 -7.9461208e+21 1.6286331e-314 570.54571 385.0842
6.4360103e+08 -7.9837529e+21 1.6286373e-314 572.37323 385.28165
6.6432423e+08 -8.0169579e+21 1.6286409e-314 574.21375 385.39993
7.183602e+08 -8.0590125e+21 1.6286455e-314 576.16907 385.5929
7.6152487e+08 -8.099599e+21 1.62865e-314 578.20276 385.74835
7.8224807e+08 -8.1357539e+21 1.6286539e-314 580.19342 385.90768
8.1666112e+08 -8.1792857e+21 1.6286587e-314 582.4071 386.15155
8.6978471e+08 -8.222822e+21 1.6286635e-314 584.60321 386.2355
8.9507136e+08 -8.2634039e+21 1.628668e-314 586.7428 386.48325
9.2932365e+08 -8.3017746e+21 1.6286722e-314 588.78156 386.61426
9.6008615e+08 -8.3401452e+21 1.6286764e-314 590.77753 386.78742
9.8846016e+08 -8.3777728e+21 1.6286805e-314 592.73926 386.98712
1.0229004e+09 -8.4190934e+21 1.628685e-314 594.83472 387.19257
1.0798625e+09 -8.4641068e+21 1.62869e-314 596.97308 387.38074
1.1682849e+09 -8.5083772e+21 1.6286948e-314 599.14813 387.59323
1.2084431e+09 -8.5474865e+21 1.6286991e-314 601.39093 387.74322
1.238132e+09 -8.585114e+21 1.6287032e-314 603.57312 387.88666
1.3770202e+09 -8.6397202e+21 1.6287092e-314 606.1795 388.09729
1.421044e+09 -8.6847292e+21 1.6287142e-314 608.55786 388.38559
1.4724222e+09 -8.7238339e+21 1.6287185e-314 610.70477 388.51782
1.6046001e+09 -8.7710587e+21 1.6287236e-314 613.0719 388.5802
1.6117404e+09 -8.8079522e+21 1.6287277e-314 615.16382 388.8443
1.6427174e+09 -8.8507499e+21 1.6287324e-314 617.47321 389.12826
1.7066591e+09 -8.8979746e+21 1.6287376e-314 619.8927 389.41147
1.738657e+09 -8.9370794e+21 1.6287419e-314 622.18689 389.54724
1.8012019e+09 -8.9813498e+21 1.6287467e-314 624.6748 389.6377
1.8876388e+09 -9.0337401e+21 1.6287525e-314 627.35913 389.87689
1.91969e+09 -9.0831761e+21 1.6287579e-314 630.17096 390.147
1.9885704e+09 -9.1318781e+21 1.6287632e-314 632.80548 390.29196
2.020299e+09 -9.1754099e+21 1.628768e-314 635.33624 390.47043
2.0804826e+09 -9.2241118e+21 1.6287733e-314 637.9411 390.70798
2.1728241e+09 -9.2735478e+21 1.6287788e-314 640.51404 390.90073
2.1942994e+09 -9.3185568e+21 1.6287837e-314 643.16339 391.12775
2.5106232e+09 -9.3790626e+21 1.6287903e-314 646.09479 391.28751
2.3622334e+09 -9.4203832e+21 1.6287949e-314 648.90912 391.56986
2.3976658e+09 -9.4749905e+21 1.6287992e-314 651.98065 391.89889
2.7317069e+09 -9.5443459e+21 1.628803e-314 655.50714 392.02487
2.6537539e+09 -9.6653576e+21 1.6288097e-314 663.41425 392.24912
2.4701445e+09 -9.7192207e+21 1.6288126e-314 666.7276 392.78577
2.4296638e+09 -9.7723451e+21 1.6288155e-314 670.10742 392.98117
2.7348219e+09 -9.840971e+21 1.6288193e-314 673.62012 393.09985
2.6482775e+09 -9.9081197e+21 1.628823e-314 677.66693 393.54956
2.5506739e+09 -9.9826452e+21 1.6288271e-314 682.36829 393.83539
1.7416092e+09 -1.0031338e+22 1.6288297e-314 688.38898 394.02377
-2.8834322e+15 -7.8863558e+21 1.6286266e-314 906.45636 373.92816
-2.8738609e+15 -7.9483344e+21 1.6286334e-314 908.24921 373.98383
258348.16 -5.0415693e+21 1.6283145e-314 448.08227 370.00073
329368.31 -5.0724144e+21 1.6283179e-314 448.95895 370.09131
379023.56 -5.1010438e+21 1.628321e-314 449.82724 370.32788
443689.31 -5.1323303e+21 1.6283245e-314 450.75906 370.4978
513241.31 -5.1623603e+21 1.6283278e-314 451.68469 370.57437
619603.63 -5.1897332e+21 1.6283308e-314 452.5675 370.66629
735943.13 -5.2174799e+21 1.6283338e-314 453.46484 370.77091
877291.13 -5.2483971e+21 1.6283372e-314 454.4025 370.87009
1031117.1 -5.2816742e+21 1.6283408e-314 455.37543 370.99283
1258606.3 -5.3114835e+21 1.6283441e-314 456.30731 371.14023
1443679.3 -5.3380457e+21 1.628347e-314 457.22861 371.29379
1741685.3 -5.3738313e+21 1.628351e-314 458.30792 371.48584
2034028.3 -5.4085856e+21 1.6283548e-314 459.41193 371.63321
2405852.5 -5.4386156e+21 1.6283581e-314 460.50449 371.75928
2805360.5 -5.4686501e+21 1.6283614e-314 461.56097 371.94955
3164812.5 -5.4969102e+21 1.6283645e-314 462.60178 372.11841
3676936.5 -5.5287867e+21 1.628368e-314 463.68329 372.24402
4210245 -5.5619917e+21 1.6283716e-314 464.84247 372.36356
4892237 -5.5892925e+21 1.6283746e-314 465.98966 372.45053
5556613 -5.6196918e+21 1.6283779e-314 467.16068 372.66748
6774641 -5.6556981e+21 1.6283819e-314 468.46329 372.72806
7887809 -5.6886825e+21 1.6283855e-314 469.6701 372.77621
8460754.1 -5.7174605e+21 1.6283887e-314 470.89874 372.96371
10526866 -5.7525796e+21 1.6283925e-314 472.17554 373.11127
12272538 -5.7834968e+21 1.6283959e-314 473.3027 373.26303
14042530 -5.8170711e+21 1.6283996e-314 474.43185 373.52466
15638042 -5.8459977e+21 1.6284028e-314 475.5408 373.64462
17946596 -5.8789055e+21 1.6284064e-314 476.72528 373.85651
20981588 -5.9095255e+21 1.6284097e-314 477.85965 374.06009
24102148 -5.9425099e+21 1.6284133e-314 479.14044 374.26511
26486196 -5.9698107e+21 1.6284163e-314 480.4201 374.32693
30172148 -6.004565e+21 1.6284201e-314 481.79858 374.46704
33425252 -6.0396885e+21 1.628424e-314 483.22925 374.65689
37381320 -6.0759155e+21 1.628428e-314 484.6427 374.80316
40448200 -6.1074227e+21 1.6284314e-314 485.99292 374.91025
43729832 -6.140407e+21 1.6284351e-314 487.33911 375.0545
47081896 -6.1726528e+21 1.6284386e-314 488.6333 375.1893
49759560 -6.2033448e+21 1.628442e-314 489.98791 375.31387
52640200 -6.2357392e+21 1.6284455e-314 491.39212 375.45935
56609704 -6.2722634e+21 1.6284495e-314 492.85434 375.5918
59497064 -6.3059098e+21 1.6284532e-314 494.32071 375.75095
62748488 -6.3400741e+21 1.628457e-314 495.79785 375.87323
65278472 -6.3746077e+21 1.6284607e-314 497.3457 376.07346
72853393 -6.4164417e+21 1.6284653e-314 498.96051 376.24719
77940241 -6.4476561e+21 1.6284688e-314 500.42276 376.35016
81225233 -6.4758396e+21 1.6284718e-314 501.79501 376.50961
87553617 -6.5086033e+21 1.6284754e-314 503.16711 376.65167
94556433 -6.542547e+21 1.6284792e-314 504.65582 376.72351
98029265 -6.5740496e+21 1.6284826e-314 506.1377 376.9502
1.0431739e+08 -6.6100604e+21 1.6284866e-314 507.68988 377.12891
1.1070952e+08 -6.6473953e+21 1.6284907e-314 509.28088 377.34036
1.1411861e+08 -6.6784611e+21 1.6284941e-314 510.81613 377.51627
1.2143349e+08 -6.718971e+21 1.6284985e-314 512.58008 377.68988
1.2694984e+08 -6.7545359e+21 1.6285024e-314 514.18256 377.87695
1.3378491e+08 -6.7906908e+21 1.6285064e-314 515.76483 378.00842
1.4314999e+08 -6.8238958e+21 1.62851e-314 517.33142 378.15332
1.5469264e+08 -6.856583e+21 1.6285136e-314 518.81805 378.26758
1.627592e+08 -6.8891215e+21 1.6285172e-314 520.34985 378.4689
1.7793245e+08 -6.9284514e+21 1.6285215e-314 522.04663 378.62042
1.8705923e+08 -6.9644577e+21 1.6285255e-314 523.6477 378.90109
1.9876304e+08 -7.0007612e+21 1.6285294e-314 525.35071 379.03445
2.1063466e+08 -7.036772e+21 1.6285334e-314 527.06378 379.13895
2.2096938e+08 -7.0753588e+21 1.6285376e-314 528.83698 379.38428
2.3217655e+08 -7.1133602e+21 1.6285418e-314 530.62335 379.5621
2.3914922e+08 -7.1445747e+21 1.6285452e-314 532.27582 379.66183
2.5077239e+08 -7.1805809e+21 1.6285492e-314 533.91504 379.82907
2.5638275e+08 -7.2120881e+21 1.6285526e-314 535.50116 380.04062
2.6822749e+08 -7.2468424e+21 1.6285564e-314 537.12628 380.14963
2.9266183e+08 -7.2804888e+21 1.6285601e-314 538.72846 380.20566
3.0860679e+08 -7.3230613e+21 1.6285648e-314 540.83319 380.50263
3.621328e+08 -7.3699168e+21 1.6285699e-314 542.56238 380.57803
3.2994746e+08 -7.3843823e+21 1.6285715e-314 544.27783 380.67816
3.8014496e+08 -7.433449e+21 1.6285769e-314 546.1712 380.8075
3.9613037e+08 -7.4718918e+21 1.6285811e-314 548.19012 380.96631
4.5227347e+08 -7.5143922e+21 1.6285858e-314 549.69134 380.94629
3.7921875e+08 -7.5275292e+21 1.6285872e-314 551.72467 381.4967
5.0577261e+08 -7.609211e+21 1.6285962e-314 553.76575 381.70868
5.1420167e+08 -7.6369532e+21 1.6285992e-314 555.23682 381.87228
5.1214803e+08 -7.6621869e+21 1.628602e-314 557.08923 381.83823
5.0863162e+08 -7.693032e+21 1.6286054e-314 558.92462 382.12351
5.4240064e+08 -7.7675576e+21 1.6286136e-314 562.7196 382.4863
6.3723892e+08 -7.8192049e+21 1.6286192e-314 564.83661 382.65854
6.875168e+08 -7.8620026e+21 1.6286239e-314 566.81818 382.8811
6.5441908e+08 -7.8870921e+21 1.6286267e-314 568.7558 383.02679
7.5867917e+08 -7.9372667e+21 1.6286322e-314 570.65735 383.18829
7.4077453e+08 -7.9630904e+21 1.628635e-314 572.4419 383.37009
8.0638016e+08 -8.0058881e+21 1.6286397e-314 574.35901 383.49518
8.778912e+08 -8.0508971e+21 1.6286446e-314 576.38867 383.63061
8.807369e+08 -8.0848407e+21 1.6286484e-314 578.31226 383.89725
9.4698663e+08 -8.1298497e+21 1.6286533e-314 580.42664 383.99887
9.7248832e+08 -8.169693e+21 1.6286577e-314 582.6087 384.16687
1.0116527e+09 -8.2117521e+21 1.6286623e-314 584.72284 384.36224
1.0487236e+09 -8.2545498e+21 1.628667e-314 586.86139 384.58539
1.0788426e+09 -8.2921819e+21 1.6286711e-314 588.95642 384.71744
1.093875e+09 -8.3275982e+21 1.628675e-314 590.92383 384.94714
1.280545e+09 -8.3777728e+21 1.6286805e-314 593.02685 385.10608
1.2900478e+09 -8.4095007e+21 1.628684e-314 594.91815 385.23257
1.3603771e+09 -8.453037e+21 1.6286888e-314 597.13977 385.47699
1.3961864e+09 -8.4906691e+21 1.6286929e-314 599.21326 385.672
1.4869179e+09 -8.5371552e+21 1.628698e-314 601.55023 385.87482
1.549302e+09 -8.5792143e+21 1.6287026e-314 603.7998 386.06928
1.6148544e+09 -8.6220075e+21 1.6287073e-314 606.15491 386.18799
1.697908e+09 -8.6684937e+21 1.6287124e-314 608.58032 386.33487
1.7637286e+09 -8.7135072e+21 1.6287173e-314 610.88062 386.58997
1.7365097e+09 -8.7467077e+21 1.628721e-314 613.03375 386.79236
1.8632645e+09 -8.7939325e+21 1.6287262e-314 615.1994 386.99103
1.9412718e+09 -8.8389414e+21 1.6287311e-314 617.51154 387.20367
1.9954957e+09 -8.8810005e+21 1.6287357e-314 619.88208 387.31781
2.0192791e+09 -8.9215825e+21 1.6287402e-314 622.16608 387.57031
2.1165601e+09 -8.9732343e+21 1.6287458e-314 624.76501 387.77383
2.1597251e+09 -9.0175092e+21 1.6287507e-314 627.31457 387.95142
2.2859966e+09 -9.069895e+21 1.6287564e-314 630.1004 388.22156
2.4606951e+09 -9.1193355e+21 1.6287619e-314 632.8175 388.30273
2.4419047e+09 -9.1613902e+21 1.6287665e-314 635.32312 388.5686
2.7268757e+09 -9.2167304e+21 1.6287725e-314 637.96045 388.78104
2.7120584e+09 -9.2536239e+21 1.6287766e-314 640.29022 388.89688
2.8012856e+09 -9.303803e+21 1.6287821e-314 643.08484 389.12723
2.9043656e+09 -9.3517618e+21 1.6287874e-314 645.73419 389.35223
2.9901563e+09 -9.4048908e+21 1.6287932e-314 648.6861 389.59195
2.9768423e+09 -9.454328e+21 1.6287981e-314 651.71442 389.81711
3.1325353e+09 -9.511884e+21 1.6288012e-314 654.9292 389.94403
3.2046904e+09 -9.5746011e+21 1.6288047e-314 658.41089 390.33179
3.5274573e+09 -9.6513424e+21 1.6288089e-314 662.19629 390.65451
3.2109184e+09 -9.6919199e+21 1.6288111e-314 665.54315 390.76031
3.2701896e+09 -9.7590685e+21 1.6288148e-314 669.76428 390.76968
2.7496392e+09 -9.8055547e+21 1.6288173e-314 673.72119 391.12512
3.2008259e+09 -9.8896729e+21 1.628822e-314 677.62238 391.47998
2.9174646e+09 -9.9568126e+21 1.6288256e-314 682.21429 391.84824
-2.4537594e+15 -8.0700847e+21 1.6286467e-314 910.89856 372.30319
431711.81 -5.059426e+21 1.6283165e-314 449.22492 368.40649
506656.31 -5.0935903e+21 1.6283202e-314 450.1456 368.61066
640994.63 -5.1248003e+21 1.6283236e-314 451.05792 368.6853
787428.13 -5.1554968e+21 1.628327e-314 451.92426 368.78915
914935.13 -5.1822797e+21 1.6283299e-314 452.73169 368.85172
1019268.6 -5.2077386e+21 1.6283327e-314 453.51907 368.97943
1220438.3 -5.2367373e+21 1.6283359e-314 454.36877 369.17276
1497786.3 -5.2687624e+21 1.6283394e-314 455.29449 369.34106
1776288.3 -5.2990851e+21 1.6283428e-314 456.25119 369.41409
1969226.3 -5.3273452e+21 1.6283459e-314 457.22812 369.58646
2246470.5 -5.3576724e+21 1.6283492e-314 458.3071 369.76767
2787116.5 -5.392868e+21 1.628353e-314 459.47055 369.94656
3222694.5 -5.4241546e+21 1.6283565e-314 460.56775 370.12289
3690778.5 -5.4552204e+21 1.6283599e-314 461.70239 370.22629
4111048.5 -5.4850297e+21 1.6283632e-314 462.81033 370.35196
5207229 -5.5189733e+21 1.6283669e-314 463.94083 370.44418
5914809 -5.5465669e+21 1.6283699e-314 464.95758 370.60742
6806517 -5.574237e+21 1.6283729e-314 466.04739 370.62289
7995601 -5.6109098e+21 1.628377e-314 467.18951 370.82346
9350786.1 -5.6427142e+21 1.6283805e-314 468.26645 371.04138
11136714 -5.6739962e+21 1.6283839e-314 469.37421 371.20361
13070290 -5.70617e+21 1.6283874e-314 470.57297 371.30618
14651546 -5.7376771e+21 1.6283909e-314 471.77057 371.48648
16373722 -5.769405e+21 1.6283943e-314 472.95053 371.64533
19669620 -5.800615e+21 1.6283978e-314 474.14676 371.73547
21828836 -5.8285102e+21 1.6284008e-314 475.27374 371.95035
25360436 -5.863188e+21 1.6284046e-314 476.55585 372.16644
28637028 -5.8910788e+21 1.6284077e-314 477.76105 372.16641
31829732 -5.9236218e+21 1.6284113e-314 479.0455 372.34039
35758952 -5.9599973e+21 1.6284153e-314 480.45017 372.4978
38596008 -5.9929772e+21 1.6284189e-314 481.81793 372.69138
42229928 -6.0291366e+21 1.6284228e-314 483.26428 372.86163
45206216 -6.0610131e+21 1.6284263e-314 484.63119 372.98535
48648904 -6.0945829e+21 1.62843e-314 486.01801 373.10467
52740872 -6.1302965e+21 1.6284339e-314 487.40591 373.22821
54750760 -6.1597365e+21 1.6284372e-314 488.68426 373.44186
58475304 -6.1922795e+21 1.6284407e-314 490.06354 373.48074
60721800 -6.2223816e+21 1.628444e-314 491.43079 373.63745
63604104 -6.2550687e+21 1.6284476e-314 492.79007 373.82001
67578641 -6.2904895e+21 1.6284515e-314 494.27759 373.92197
73709009 -6.3263472e+21 1.6284554e-314 495.80102 374.11749
79574353 -6.3623579e+21 1.6284594e-314 497.36551 374.31845
87597201 -6.4003593e+21 1.6284636e-314 498.93384 374.4462
94160465 -6.4359963e+21 1.6284675e-314 500.42584 374.62366
99646609 -6.4668415e+21 1.6284709e-314 501.8248 374.72421
1.049851e+08 -6.4999699e+21 1.6284745e-314 503.24283 374.92569
1.0841102e+08 -6.5308871e+21 1.6284779e-314 504.67248 375.16153
1.1308853e+08 -6.5634257e+21 1.6284815e-314 506.20605 375.31052
1.1987656e+08 -6.5973693e+21 1.6284852e-314 507.68237 375.40945
1.2615464e+08 -6.6373612e+21 1.6284896e-314 509.35098 375.69898
1.3118107e+08 -6.6690171e+21 1.628493e-314 510.88831 375.78183
1.3924419e+08 -6.7063519e+21 1.6284971e-314 512.59015 375.97888
1.5190762e+08 -6.7429481e+21 1.6285012e-314 514.25079 376.11447
1.6219549e+08 -6.7768197e+21 1.6285049e-314 515.79053 376.29236
1.7315434e+08 -6.8119388e+21 1.6285087e-314 517.38544 376.46732
1.843816e+08 -6.8458104e+21 1.6285124e-314 518.8952 376.62955
1.9497143e+08 -6.8806367e+21 1.6285163e-314 520.45172 376.82996
2.0784285e+08 -6.9156837e+21 1.6285201e-314 522.10834 376.89114
2.162248e+08 -6.9508073e+21 1.628524e-314 523.77789 377.10938
2.297137e+08 -6.988588e+21 1.6285281e-314 525.43945 377.27548
2.3916266e+08 -7.0231936e+21 1.6285319e-314 527.17773 377.38809
2.5351043e+08 -7.0634828e+21 1.6285363e-314 528.95123 377.56455
2.6458346e+08 -7.101259e+21 1.6285405e-314 530.74298 377.73236
2.7325395e+08 -7.134982e+21 1.6285442e-314 532.46893 377.92636
3.0817747e+08 -7.174974e+21 1.6285485e-314 534.11224 378.06516
3.1984083e+08 -7.204414e+21 1.6285518e-314 535.74628 378.13953
3.3059181e+08 -7.2362905e+21 1.6285553e-314 537.3056 378.39337
3.5440186e+08 -7.2704548e+21 1.628559e-314 538.8913 378.50241
3.861712e+08 -7.3141352e+21 1.6285638e-314 541.021 378.54428
4.1714874e+08 -7.3504387e+21 1.6285678e-314 542.6629 378.58661
3.9409005e+08 -7.3737538e+21 1.6285704e-314 544.46802 378.88159
4.4074426e+08 -7.4270314e+21 1.6285762e-314 546.48676 379.1904
4.8194899e+08 -7.473441e+21 1.6285813e-314 548.36371 379.36771
5.0668551e+08 -7.512181e+21 1.6285855e-314 550.21014 379.50165
5.1518138e+08 -7.629797e+21 1.6285984e-314 557.20166 380.15244
7.1908519e+08 -7.7077903e+21 1.628607e-314 559.24908 380.42783
6.7312909e+08 -7.8221592e+21 1.6286195e-314 566.72137 381.16684
8.0085056e+08 -7.8797107e+21 1.6286259e-314 568.94153 381.23221
8.8943424e+08 -7.9269355e+21 1.628631e-314 570.82214 381.42035
8.835017e+08 -7.9557135e+21 1.6286342e-314 572.64337 381.59018
9.4792615e+08 -7.9985112e+21 1.6286389e-314 574.56219 381.74841
9.9041959e+08 -8.0390931e+21 1.6286433e-314 576.51489 381.96103
9.9294272e+08 -8.0715596e+21 1.6286469e-314 578.47308 382.11398
1.0489653e+09 -8.1165686e+21 1.6286518e-314 580.58758 382.32132
1.0567502e+09 -8.153462e+21 1.6286559e-314 582.69781 382.53754
1.1572257e+09 -8.198471e+21 1.6286608e-314 584.88995 382.65649
1.2596606e+09 -8.24348e+21 1.6286658e-314 587.0788 382.84479
1.3166758e+09 -8.2796394e+21 1.6286697e-314 589.09503 382.94272
1.3867379e+09 -8.3216985e+21 1.6286743e-314 591.18976 383.19
1.4436457e+09 -8.3571148e+21 1.6286782e-314 593.07361 383.33063
1.5248213e+09 -8.3999125e+21 1.6286829e-314 595.16071 383.57123
1.6042775e+09 -8.4419671e+21 1.6286875e-314 597.31152 383.71301
1.6422884e+09 -8.4803378e+21 1.6286918e-314 599.46735 383.88061
1.7453141e+09 -8.526824e+21 1.6286969e-314 601.73438 384.10113
1.8551043e+09 -8.57626e+21 1.6287023e-314 604.0918 384.35126
1.8607414e+09 -8.6124149e+21 1.6287062e-314 606.40234 384.44043
1.9436874e+09 -8.658901e+21 1.6287113e-314 608.80206 384.63696
2.0154135e+09 -8.7061258e+21 1.6287165e-314 611.06549 385.00168
2.0418819e+09 -8.7437578e+21 1.6287207e-314 613.25507 385.15985
2.0962665e+09 -8.7821285e+21 1.6287249e-314 615.42188 385.23163
2.1521004e+09 -8.8241876e+21 1.6287295e-314 617.6521 385.46649
2.40851e+09 -8.8743622e+21 1.628735e-314 620.0871 385.59747
2.5548621e+09 -8.9193712e+21 1.6287399e-314 622.38238 385.83643
2.583315e+09 -8.9599532e+21 1.6287444e-314 624.86414 385.95499
2.6736174e+09 -9.0086551e+21 1.6287497e-314 627.50568 386.22446
2.793663e+09 -9.0566139e+21 1.628755e-314 630.1604 386.39954
2.997781e+09 -9.110477e+21 1.6287609e-314 632.92316 386.60922
2.9390464e+09 -9.1473704e+21 1.6287649e-314 635.3114 386.8035
3.1086986e+09 -9.1975496e+21 1.6287704e-314 637.82074 387.07141
3.1419848e+09 -9.2373929e+21 1.6287748e-314 640.23767 387.18451
3.3481426e+09 -9.2919945e+21 1.6287808e-314 643.04761 387.40088
3.4416645e+09 -9.3392193e+21 1.628786e-314 645.72577 387.54718
3.6404147e+09 -9.3967708e+21 1.6287923e-314 648.67621 387.81393
3.5019024e+09 -9.4403071e+21 1.6287971e-314 651.58588 388.08081
3.7535872e+09 -9.5045071e+21 1.6288008e-314 654.89294 388.29373
3.703872e+09 -9.5561543e+21 1.6288037e-314 658.20972 388.46469
3.9180846e+09 -9.6225644e+21 1.6288073e-314 661.67828 388.72021
3.8868383e+09 -9.6823272e+21 1.6288106e-314 665.11371 389.18146
3.8947845e+09 -9.7369288e+21 1.6288136e-314 668.50543 389.31442
-2.462766e+15 -7.7018884e+21 1.6286064e-314 902.37592 369.4364
-2.5840816e+15 -7.7513244e+21 1.6286118e-314 904.63446 369.46161
-2.4952767e+15 -7.8538894e+21 1.628623e-314 906.65173 370.05216
601830.13 -5.0524905e+21 1.6283157e-314 449.47424 366.72009
897266.63 -5.1129243e+21 1.6283223e-314 451.06839 366.95895
1184576.3 -5.1678187e+21 1.6283284e-314 452.6449 367.32904
1389258.3 -5.1956374e+21 1.6283314e-314 453.46668 367.54684
1609040.3 -5.2225689e+21 1.6283344e-314 454.32361 367.67041
1903795.3 -5.2546661e+21 1.6283379e-314 455.32318 367.7525
2235984.5 -5.2868398e+21 1.6283414e-314 456.35977 367.89365
2689598.5 -5.3167212e+21 1.6283447e-314 457.40967 368.01376
3262120.5 -5.3509575e+21 1.6283484e-314 458.54498 368.13
3851210.5 -5.3845319e+21 1.6283521e-314 459.66037 368.21082
4298745 -5.4108734e+21 1.628355e-314 460.65424 368.27844
5219393 -5.4412727e+21 1.6283584e-314 461.70657 368.41586
6021765 -5.470348e+21 1.6283615e-314 462.70587 368.59473
7160937 -5.5021479e+21 1.628365e-314 463.67691 368.71445
8087457 -5.5325472e+21 1.6283684e-314 464.63809 368.9068
9311354.1 -5.5606632e+21 1.6283714e-314 465.62955 369.07611
11327138 -5.5927603e+21 1.628375e-314 466.74579 369.20108
12751522 -5.6236775e+21 1.6283784e-314 467.8924 369.42938
14710266 -5.6603458e+21 1.6283824e-314 469.13528 369.69321
16527234 -5.692443e+21 1.6283859e-314 470.44968 369.7558
21119156 -5.7278638e+21 1.6283898e-314 471.76004 369.78876
23139140 -5.7567859e+21 1.628393e-314 472.92987 370.03992
26528132 -5.7885138e+21 1.6283964e-314 474.11511 370.2048
30371796 -5.8214261e+21 1.6284001e-314 475.30667 370.35287
32947108 -5.8500555e+21 1.6284032e-314 476.51569 370.48636
35992168 -5.8794234e+21 1.6284064e-314 477.78394 370.54861
39426472 -5.9124033e+21 1.62841e-314 479.07169 370.69861
43322120 -5.9490761e+21 1.6284141e-314 480.50519 370.85986
46696040 -5.9805112e+21 1.6284175e-314 481.82828 370.92923
50836648 -6.0197646e+21 1.6284218e-314 483.29709 371.1503
53341480 -6.0520104e+21 1.6284254e-314 484.70923 371.33194
56972072 -6.0865395e+21 1.6284291e-314 486.10513 371.46024
59052456 -6.1156868e+21 1.6284323e-314 487.4042 371.63779
62585736 -6.1480812e+21 1.6284359e-314 488.69244 371.75485
66231432 -6.182241e+21 1.6284396e-314 490.09274 371.86466
70356945 -6.2138968e+21 1.6284431e-314 491.46317 372.05295
76947025 -6.2477639e+21 1.6284468e-314 492.86917 372.19666
82611025 -6.2820047e+21 1.6284506e-314 494.37839 372.36533
87667665 -6.3150611e+21 1.6284542e-314 495.83792 372.55518
95301329 -6.3538732e+21 1.6284585e-314 497.45413 372.7164
1.0228738e+08 -6.3906901e+21 1.6284625e-314 499.01446 372.86966
1.0637762e+08 -6.4226431e+21 1.628466e-314 500.48914 373.07452
1.116356e+08 -6.4563616e+21 1.6284697e-314 501.94324 373.28656
1.1780962e+08 -6.4886794e+21 1.6284733e-314 503.30582 373.42529
1.2407086e+08 -6.5215152e+21 1.6284769e-314 504.80692 373.49338
1.2890274e+08 -6.5553822e+21 1.6284806e-314 506.31177 373.71137
1.3536528e+08 -6.5884386e+21 1.6284842e-314 507.8244 373.8103
1.4691472e+08 -6.625188e+21 1.6284882e-314 509.46625 374.00531
1.5857834e+08 -6.6587579e+21 1.6284919e-314 511.08789 374.06107
1.7042973e+08 -6.6966872e+21 1.6284961e-314 512.76563 374.27365
1.8365021e+08 -6.7357199e+21 1.6285004e-314 514.47308 374.47162
1.9274346e+08 -6.7679656e+21 1.6285039e-314 516.01495 374.61557
2.0955421e+08 -6.807809e+21 1.6285083e-314 517.66382 374.75726
2.1599658e+08 -6.837249e+21 1.6285115e-314 519.11792 374.92523
2.3271338e+08 -6.8747325e+21 1.6285156e-314 520.70764 375.0025
2.3687415e+08 -6.9041725e+21 1.6285188e-314 522.2439 375.20373
2.4077315e+08 -6.9363462e+21 1.6285224e-314 523.87573 375.47482
2.6442243e+08 -6.9820938e+21 1.6285274e-314 525.60858 375.59018
2.6483843e+08 -7.0107232e+21 1.6285305e-314 527.33795 375.75967
2.8884999e+08 -7.0476887e+21 1.6285346e-314 529.10303 375.80768
3.2970579e+08 -7.0950621e+21 1.6285398e-314 530.8941 376.08005
3.2722285e+08 -7.1210343e+21 1.6285426e-314 532.61023 376.19461
3.4979821e+08 -7.1577792e+21 1.6285467e-314 534.21161 376.43362
3.7308499e+08 -7.1916508e+21 1.6285504e-314 535.85864 376.49615
3.8631891e+08 -7.2270671e+21 1.6285543e-314 537.42242 376.86841
4.0929696e+08 -7.258867e+21 1.6285578e-314 539.05817 376.84473
4.1100167e+08 -7.2928106e+21 1.6285615e-314 540.9436 377.13977
4.6570887e+08 -7.340846e+21 1.6285667e-314 542.74097 377.19794
4.6880928e+08 -7.3519159e+21 1.628568e-314 544.3642 376.56641
8.3883431e+08 -7.8184708e+21 1.6286191e-314 567.03094 379.29001
9.2892122e+08 -7.8715952e+21 1.628625e-314 569.12647 379.57465
9.8038029e+08 -7.9129158e+21 1.6286295e-314 570.96399 379.81799
9.9565428e+08 -7.9446436e+21 1.628633e-314 572.81732 379.91299
1.070521e+09 -7.9896571e+21 1.6286379e-314 574.80402 380.0433
1.131295e+09 -8.0280233e+21 1.6286421e-314 576.69605 380.26791
1.1381128e+09 -8.0604897e+21 1.6286457e-314 578.6264 380.45627
1.2731364e+09 -8.1062373e+21 1.6286507e-314 580.77924 380.58258
1.3163e+09 -8.1468192e+21 1.6286552e-314 582.95294 380.82495
1.3876503e+09 -8.1881398e+21 1.6286597e-314 585.08337 380.99542
1.5134395e+09 -8.2353645e+21 1.6286649e-314 587.31213 381.16266
1.5541875e+09 -8.2700467e+21 1.6286687e-314 589.32477 381.24982
1.6076065e+09 -8.3113672e+21 1.6286732e-314 591.35052 381.59488
1.6998945e+09 -8.3519492e+21 1.6286777e-314 593.34375 381.72369
1.759863e+09 -8.3881041e+21 1.6286816e-314 595.33606 381.81656
1.8202074e+09 -8.4294246e+21 1.6286862e-314 597.47534 382.03519
1.9135153e+09 -8.4714837e+21 1.6286908e-314 599.61786 382.14725
1.940896e+09 -8.5142814e+21 1.6286955e-314 601.92529 382.47321
2.0380695e+09 -8.5607676e+21 1.6287006e-314 604.21466 382.69168
2.0842939e+09 -8.6028267e+21 1.6287052e-314 606.60968 382.8208
2.1693875e+09 -8.6470971e+21 1.62871e-314 608.94397 382.99554
2.2679578e+09 -8.6898948e+21 1.6287147e-314 611.24847 383.2171
2.4987059e+09 -8.737115e+21 1.6287199e-314 613.51251 383.4082
2.5365018e+09 -8.7732744e+21 1.6287239e-314 615.60577 383.59293
2.6010322e+09 -8.8131178e+21 1.6287283e-314 617.73364 383.83679
2.8004275e+09 -8.8603425e+21 1.6287334e-314 620.2085 383.95868
2.9098399e+09 -8.9009245e+21 1.6287379e-314 622.48688 384.05926
3.1715108e+09 -8.9562647e+21 1.628744e-314 625.14459 384.29483
3.1275955e+09 -8.996108e+21 1.6287483e-314 627.6087 384.53449
3.2812488e+09 -9.0470212e+21 1.6287539e-314 630.34454 384.74704
3.4369398e+09 -9.0957232e+21 1.6287593e-314 632.94879 384.89218
3.4178279e+09 -9.1355665e+21 1.6287636e-314 635.38556 385.11496
3.4968561e+09 -9.1813141e+21 1.6287687e-314 637.97223 385.32138
3.6910945e+09 -9.230016e+21 1.628774e-314 640.41217 385.4932
3.9254922e+09 -9.2846176e+21 1.62878e-314 643.09106 385.73282
3.7798938e+09 -9.3215111e+21 1.628784e-314 645.66467 385.96014
4.0255657e+09 -9.37759e+21 1.6287902e-314 648.5257 386.12375
3.8951061e+09 -9.4203832e+21 1.6287949e-314 651.49518 386.29092
4.0924595e+09 -9.4838445e+21 1.6287997e-314 654.71387 386.64975
4.681299e+09 -9.5554158e+21 1.6288036e-314 658.30005 386.68475
4.5421456e+09 -9.6085402e+21 1.6288065e-314 661.61188 386.99094
4.241173e+09 -9.6542878e+21 1.628809e-314 664.73291 387.29318
4.5818727e+09 -9.722175e+21 1.6288128e-314 668.33704 387.54501
4.2928195e+09 -9.7738223e+21 1.6288156e-314 671.81091 387.78546
4.1157596e+09 -9.828424e+21 1.6288186e-314 675.59302 387.97125
-2.5686025e+15 -7.7579672e+21 1.6286125e-314 906.59576 367.4678
3687422.5 -5.3092677e+21 1.6283439e-314 457.5224 366.44107
5361581 -5.373462e+21 1.6283509e-314 459.44595 366.76425
6113617 -5.3989929e+21 1.6283537e-314 460.31455 366.89899
7234337 -5.4301308e+21 1.6283571e-314 461.35156 366.95438
8240549 -5.4612687e+21 1.6283605e-314 462.41635 367.06488
9219082.1 -5.4850297e+21 1.6283632e-314 463.34708 367.19922
11372434 -5.5176448e+21 1.6283667e-314 464.43195 367.32004
13110554 -5.5506246e+21 1.6283703e-314 465.55984 367.55539
14978698 -5.5820598e+21 1.6283738e-314 466.71939 367.66577
17208388 -5.6155575e+21 1.6283775e-314 467.96619 367.76993
21114132 -5.6483212e+21 1.6283811e-314 469.1897 367.87558
23716276 -5.6815983e+21 1.6283847e-314 470.43738 368.18286
28333364 -5.7181946e+21 1.6283887e-314 471.75696 368.29553
31767668 -5.7502197e+21 1.6283922e-314 472.99316 368.43439
34035944 -5.7786284e+21 1.6283954e-314 474.17648 368.61926
37193416 -5.8072578e+21 1.6283985e-314 475.34372 368.69043
39451624 -5.8348558e+21 1.6284015e-314 476.51102 368.85291
43729832 -5.87079e+21 1.6284055e-314 477.81665 368.99908
47950984 -5.9059091e+21 1.6284093e-314 479.14349 369.10602
49633736 -5.9337278e+21 1.6284124e-314 480.42957 369.28702
53401896 -5.9704007e+21 1.6284164e-314 481.85992 369.46887
57339496 -6.0076634e+21 1.6284205e-314 483.33887 369.61908
61139528 -6.0436697e+21 1.6284244e-314 484.79633 369.75024
63844040 -6.0749562e+21 1.6284279e-314 486.14236 369.90027
65605640 -6.1041756e+21 1.6284311e-314 487.43274 370.13303
70759633 -6.1364214e+21 1.6284346e-314 488.74783 370.2572
78534161 -6.172207e+21 1.6284385e-314 490.15805 370.39877
82080849 -6.201647e+21 1.6284418e-314 491.52124 370.59497
89882257 -6.2384684e+21 1.6284458e-314 492.95563 370.76685
94992593 -6.2723355e+21 1.6284495e-314 494.49548 370.93808
99797585 -6.3043606e+21 1.628453e-314 495.97208 371.08981
1.0933378e+08 -6.3453839e+21 1.6284575e-314 497.60425 371.20007
1.1600437e+08 -6.3826467e+21 1.6284616e-314 499.21329 371.36762
1.1893032e+08 -6.4128253e+21 1.6284649e-314 500.64395 371.60336
1.2496341e+08 -6.4442604e+21 1.6284684e-314 502.07358 371.66937
1.3169109e+08 -6.4774654e+21 1.628472e-314 503.45148 371.79694
1.4210307e+08 -6.5134717e+21 1.628476e-314 505.00207 371.96185
1.5592746e+08 -6.5481539e+21 1.6284798e-314 506.50357 372.06616
1.6165853e+08 -6.5778867e+21 1.628483e-314 508.01007 372.23904
1.7793245e+08 -6.617068e+21 1.6284873e-314 509.63156 372.38483
1.8703914e+08 -6.651381e+21 1.6284911e-314 511.29465 372.5398
2.0119235e+08 -6.6904857e+21 1.6284954e-314 512.98425 372.71783
2.1376861e+08 -6.7287078e+21 1.6284996e-314 514.69104 372.89865
2.2374775e+08 -6.7617642e+21 1.6285032e-314 516.25665 373.0332
2.3375363e+08 -6.7956358e+21 1.6285069e-314 517.79804 373.21921
2.4257847e+08 -6.8279536e+21 1.6285105e-314 519.28876 373.40878
2.5555728e+08 -6.8619693e+21 1.6285142e-314 520.82581 373.49622
2.6360362e+08 -6.8942871e+21 1.6285178e-314 522.43701 373.63815
2.7552211e+08 -6.9281542e+21 1.6285215e-314 524.0257 373.85321
3.1330439e+08 -6.9713212e+21 1.6285262e-314 525.81464 373.9866
3.061776e+08 -6.9975907e+21 1.6285291e-314 527.50629 374.21451
3.4786567e+08 -7.0412711e+21 1.6285339e-314 529.31543 374.28842
3.8205088e+08 -7.0848794e+21 1.6285387e-314 531.0921 374.51706
3.8677536e+08 -7.1138781e+21 1.6285418e-314 532.82666 374.62991
4.1281363e+08 -7.1513616e+21 1.628546e-314 534.41644 374.84866
4.3371117e+08 -7.1861159e+21 1.6285498e-314 536.07568 374.98377
4.4800544e+08 -7.2171051e+21 1.6285532e-314 537.68817 375.09814
4.779897e+08 -7.2556965e+21 1.6285574e-314 539.41437 375.20309
4.9821626e+08 -7.2923693e+21 1.6285614e-314 541.31622 375.28229
5.1361107e+08 -7.3233586e+21 1.6285648e-314 542.78821 375.4686
5.4087079e+08 -7.3660076e+21 1.6285695e-314 545.01221 375.5195
1.0633269e+09 -7.8339632e+21 1.6286208e-314 567.38306 377.76211
1.0186323e+09 -7.8583141e+21 1.6286235e-314 569.25604 378.03137
1.1842296e+09 -7.9114386e+21 1.6286293e-314 571.23321 378.22333
1.1334423e+09 -7.9343169e+21 1.6286319e-314 572.99219 378.33832
1.2621304e+09 -7.9771101e+21 1.6286365e-314 574.91174 378.46805
1.3392786e+09 -8.0162193e+21 1.6286408e-314 576.85925 378.66568
1.4224397e+09 -8.0560627e+21 1.6286452e-314 578.87909 378.81409
1.4673226e+09 -8.0944334e+21 1.6286494e-314 580.89294 379.05197
1.5963323e+09 -8.1431308e+21 1.6286548e-314 583.14917 379.22589
1.6486239e+09 -8.1844513e+21 1.6286593e-314 585.34241 379.46948
1.7148736e+09 -8.2242992e+21 1.6286637e-314 587.4729 379.60489
1.7747346e+09 -8.2634039e+21 1.628668e-314 589.50317 379.7984
1.8353472e+09 -8.301036e+21 1.6286721e-314 591.53906 379.93063
1.905355e+09 -8.3394067e+21 1.6286763e-314 593.47668 380.12256
1.9494321e+09 -8.3770387e+21 1.6286804e-314 595.46539 380.32175
2.0767777e+09 -8.424259e+21 1.6286856e-314 597.71137 380.4783
2.0981988e+09 -8.4582026e+21 1.6286893e-314 599.73535 380.59049
2.2489523e+09 -8.5069e+21 1.6286947e-314 602.13062 380.83655
2.3466624e+09 -8.5489592e+21 1.6286993e-314 604.37628 381.05713
2.4090486e+09 -8.5902797e+21 1.6287038e-314 606.75708 381.25082
2.6590152e+09 -8.6397202e+21 1.6287092e-314 609.18457 381.38229
2.7732608e+09 -8.6825134e+21 1.6287139e-314 611.44031 381.59476
2.8555105e+09 -8.7223612e+21 1.6287183e-314 613.63831 381.77045
3.0275221e+09 -8.7681088e+21 1.6287233e-314 615.83801 382.07986
3.1402665e+09 -8.8094293e+21 1.6287279e-314 618.091 382.21664
3.237225e+09 -8.8507499e+21 1.6287324e-314 620.40832 382.38126
3.4108483e+09 -8.8964974e+21 1.6287374e-314 622.75525 382.55029
3.4911647e+09 -8.9407678e+21 1.6287423e-314 625.25531 382.74567
3.6007941e+09 -8.987254e+21 1.6287474e-314 627.82562 382.9234
3.7772088e+09 -9.0403829e+21 1.6287532e-314 630.54816 383.15915
3.8525855e+09 -9.0861305e+21 1.6287582e-314 633.18048 383.32336
3.9096018e+09 -9.1289237e+21 1.6287629e-314 635.62909 383.51987
4.0596035e+09 -9.1776256e+21 1.6287682e-314 638.17224 383.75012
4.1169413e+09 -9.2182076e+21 1.6287727e-314 640.55133 383.87244
4.3366288e+09 -9.2728092e+21 1.6287787e-314 643.26843 384.18063
4.6256794e+09 -9.3229838e+21 1.6287842e-314 645.95667 384.35846
4.5724232e+09 -9.3657815e+21 1.6287889e-314 648.69745 384.50177
4.7261829e+09 -9.4189105e+21 1.6287947e-314 651.69513 384.75827
4.855678e+09 -9.4720361e+21 1.628799e-314 654.81915 384.92572
5.2102277e+09 -9.5354918e+21 1.6288025e-314 658.17505 385.18234
5.4537513e+09 -9.5967408e+21 1.6288059e-314 661.53723 385.47757
5.4679235e+09 -9.6483881e+21 1.6288087e-314 664.78509 385.59967
5.7286298e+09 -9.7118438e+21 1.6288122e-314 668.27496 385.83585
5.9176069e+09 -9.7730837e+21 1.6288156e-314 671.68109 386.1369
5.2615506e+09 -9.8232628e+21 1.6288183e-314 675.505 386.38562
-2.2277349e+15 -7.546861e+21 1.6285893e-314 900.14179 364.98926
-2.1655287e+15 -7.6663955e+21 1.6286025e-314 902.65564 365.3663
-2.2362496e+15 -7.7136923e+21 1.6286076e-314 904.58441 365.81433
-1.9949552e+15 -8.4301655e+21 1.6286862e-314 922.1012 367.31342
6390025 -5.3292637e+21 1.6283461e-314 458.1701 365.01361
7404625 -5.3599602e+21 1.6283494e-314 459.17804 365.13037
8295077 -5.3902154e+21 1.6283528e-314 460.25534 365.25946
9944698.1 -5.4206868e+21 1.6283561e-314 461.33685 365.40799
11810322 -5.450352e+21 1.6283593e-314 462.37619 365.5119
13904122 -5.4811926e+21 1.6283627e-314 463.4205 365.59814
15471954 -5.5087141e+21 1.6283658e-314 464.43082 365.71588
17193300 -5.5370508e+21 1.6283689e-314 465.51334 365.83951
20758452 -5.5709899e+21 1.6283726e-314 466.73395 366.04852
25006452 -5.6050056e+21 1.6283763e-314 467.97138 366.14835
28199156 -5.6355535e+21 1.6283797e-314 469.17551 366.27292
31182132 -5.6687586e+21 1.6283833e-314 470.45074 366.50217
35936808 -5.7060213e+21 1.6283874e-314 471.78748 366.61285
38990248 -5.7371592e+21 1.6283908e-314 473.01221 366.7731
41793736 -5.76564e+21 1.6283939e-314 474.18976 366.88455
44894152 -5.7960438e+21 1.6283973e-314 475.37064 367.03546
48100296 -5.8285103e+21 1.6284008e-314 476.61023 367.22888
51548008 -5.8617108e+21 1.6284045e-314 477.90314 367.38394
54171976 -5.8925559e+21 1.6284079e-314 479.17914 367.56677
57997160 -5.9288595e+21 1.6284118e-314 480.60175 367.72363
61424744 -5.9647171e+21 1.6284158e-314 482.03607 367.91446
64303720 -5.9972601e+21 1.6284193e-314 483.4451 368.05548
67320273 -6.0287673e+21 1.6284228e-314 484.86716 368.13846
72095057 -6.0602745e+21 1.6284263e-314 486.2276 368.33695
78779089 -6.0937002e+21 1.6284299e-314 487.59531 368.47635
85654417 -6.1266801e+21 1.6284335e-314 488.94162 368.59799
92237777 -6.1620243e+21 1.6284374e-314 490.32974 368.81744
99069457 -6.1952294e+21 1.6284411e-314 491.72092 368.92505
1.0365301e+08 -6.2267365e+21 1.6284445e-314 493.14322 369.10053
1.116893e+08 -6.2651072e+21 1.6284487e-314 494.69842 369.24835
1.1522261e+08 -6.29543e+21 1.6284521e-314 496.16818 369.42007
1.2585262e+08 -6.3391149e+21 1.6284568e-314 497.83444 369.54791
1.2891278e+08 -6.3690728e+21 1.6284601e-314 499.3476 369.71133
1.3420098e+08 -6.4033092e+21 1.6284639e-314 500.83102 369.92395
1.4802205e+08 -6.436217e+21 1.6284675e-314 502.27911 369.97794
1.6028957e+08 -6.4692734e+21 1.6284711e-314 503.68893 370.12512
1.7185245e+08 -6.5030684e+21 1.6284748e-314 505.1604 370.28958
1.8629418e+08 -6.540034e+21 1.6284789e-314 506.66199 370.47394
1.9091139e+08 -6.5685913e+21 1.628482e-314 508.2132 370.60559
2.044136e+08 -6.605782e+21 1.6284861e-314 509.81857 370.76944
2.1737911e+08 -6.6440041e+21 1.6284903e-314 511.50339 370.95059
2.3019011e+08 -6.6821495e+21 1.6284945e-314 513.18622 371.13498
2.4139063e+08 -6.7175659e+21 1.6284984e-314 514.86005 371.26074
2.4802103e+08 -6.749663e+21 1.6285019e-314 516.3808 371.5014
2.6022135e+08 -6.7839759e+21 1.6285057e-314 517.96027 371.60269
2.7442157e+08 -6.8151859e+21 1.6285091e-314 519.43201 371.66672
2.9859437e+08 -6.8530386e+21 1.6285132e-314 521.05866 371.90564
3.1408288e+08 -6.885433e+21 1.6285168e-314 522.63355 372.08392
3.3898042e+08 -6.9208493e+21 1.6285207e-314 524.245 372.20602
3.6626695e+08 -6.9589228e+21 1.6285248e-314 525.99017 372.32376
3.8662765e+08 -6.9976627e+21 1.6285291e-314 527.77893 372.56824
4.1416915e+08 -7.0361055e+21 1.6285333e-314 529.53394 372.68921
4.4016698e+08 -7.0760254e+21 1.6285377e-314 531.30676 372.89856
4.3873107e+08 -7.1031776e+21 1.6285407e-314 532.97082 373.08319
4.754128e+08 -7.1430254e+21 1.628545e-314 534.57404 373.20767
4.8259335e+08 -7.1738661e+21 1.6285484e-314 536.27264 373.3848
5.4240064e+08 -7.2502336e+21 1.6285568e-314 539.60516 373.6958
5.8580698e+08 -7.2891222e+21 1.6285611e-314 541.56525 373.81043
6.0526861e+08 -7.3167923e+21 1.6285641e-314 542.95526 374.00079
6.4040666e+08 -7.3598107e+21 1.6285688e-314 545.23212 374.17343
1.3213473e+09 -7.8295361e+21 1.6286204e-314 567.57349 376.1958
1.1681242e+09 -7.8465102e+21 1.6286222e-314 569.45844 376.41571
1.4178225e+09 -7.8996347e+21 1.628628e-314 571.35693 376.53827
1.3241388e+09 -7.9217699e+21 1.6286305e-314 573.1427 376.74863
1.4758044e+09 -7.9653061e+21 1.6286353e-314 575.04028 376.87351
1.5823731e+09 -8.0095765e+21 1.6286401e-314 577.06457 377.10013
1.5928425e+09 -8.0427816e+21 1.6286437e-314 579.01654 377.28696
1.754441e+09 -8.0929562e+21 1.6286493e-314 581.17822 377.47308
1.8275628e+09 -8.1327995e+21 1.6286536e-314 583.32385 377.59613
1.8725522e+09 -8.1719088e+21 1.6286579e-314 585.45013 377.79611
1.966666e+09 -8.2176563e+21 1.6286629e-314 587.67011 378.00421
1.9995221e+09 -8.2538112e+21 1.6286669e-314 589.68872 378.18817
2.0395727e+09 -8.2899661e+21 1.6286709e-314 591.67596 378.36697
2.1878564e+09 -8.3349796e+21 1.6286758e-314 593.7218 378.53891
2.269676e+09 -8.3711345e+21 1.6286798e-314 595.74402 378.69943
2.4343885e+09 -8.4139322e+21 1.6286845e-314 597.90845 378.87387
2.4786253e+09 -8.4486099e+21 1.6286883e-314 599.95374 379.00128
2.6453776e+09 -8.4943575e+21 1.6286933e-314 602.25867 379.23169
2.8259825e+09 -8.5401051e+21 1.6286983e-314 604.58032 379.42267
3.0338586e+09 -8.588807e+21 1.6287037e-314 607.04718 379.56012
3.0105585e+09 -8.6249619e+21 1.6287076e-314 609.35938 379.74719
3.2574121e+09 -8.6743979e+21 1.628713e-314 611.64636 379.98377
3.389588e+09 -8.7179342e+21 1.6287178e-314 613.92157 380.19006
