# .PCD v0.7 - Point Cloud Data file format
VERSION 0.7
FIELDS x y z p_x p_y
SIZE 8 8 8 8 8
TYPE F F F F F
COUNT 1 1 1 1 1
WIDTH 799
HEIGHT 1
VIEWPOINT 0 0 0 1 0 0 0
POINTS 799
DATA ascii
8.8707219 -5.6455155e+21 1.6283808e-314 574.37506 431.93567
15.475519 -5.6759148e+21 1.6283841e-314 576.66052 431.7742
29.27808 -5.7209282e+21 1.628389e-314 578.99225 431.48846
50.914559 -5.769405e+21 1.6283943e-314 581.08862 431.23126
93.949479 -5.7984037e+21 1.6283975e-314 583.36554 431.02701
161.1879 -5.8333786e+21 1.6284014e-314 585.50354 430.82526
292.39313 -5.8473983e+21 1.6284029e-314 587.46509 430.58716
449.08551 -5.9060577e+21 1.6284093e-314 589.32953 430.34091
614.60511 -5.9336558e+21 1.6284124e-314 591.1264 430.19772
848.66077 -5.945239e+21 1.6284136e-314 593.05658 429.93219
1020.2013 -5.988406e+21 1.6284184e-314 595.04315 429.75156
1475.6868 -6.0135676e+21 1.6284211e-314 597.12128 429.48218
1963.2747 -6.039022e+21 1.6284239e-314 599.23181 429.1709
2519.8189 -6.0933309e+21 1.6284299e-314 601.28467 428.99866
3322.9224 -6.1325843e+21 1.6284342e-314 603.31903 428.74954
4163.6651 -6.1657893e+21 1.6284378e-314 605.19696 428.47549
5601.1182 -6.1902123e+21 1.6284405e-314 607.07678 428.32449
6770.4424 -6.2307943e+21 1.628445e-314 608.52222 428.07388
8199.7051 -6.2701963e+21 1.6284493e-314 610.48871 427.88434
11378.033 -6.2691649e+21 1.6284492e-314 612.37213 427.78879
15320.025 -6.2680571e+21 1.6284491e-314 614.31262 427.53976
19779.098 -6.3635379e+21 1.6284595e-314 616.25855 427.09561
24352.192 -6.3894381e+21 1.6284624e-314 617.91058 426.99585
34064.977 -6.3960764e+21 1.6284631e-314 620.14331 426.67139
44151.602 -6.4548123e+21 1.6284695e-314 622.1427 426.47613
49271.946 -6.527568e+21 1.6284775e-314 623.51599 426.29184
67498.141 -6.5215151e+21 1.6284769e-314 625.48944 425.99219
79863.516 -6.6231929e+21 1.628488e-314 626.91425 425.63251
114920.02 -6.5694019e+21 1.6284821e-314 628.69684 425.47626
150192.78 -6.6854687e+21 1.6284948e-314 631.95575 425.00333
192269.53 -6.626368e+21 1.6284884e-314 633.89355 424.72064
202244.16 -6.7391876e+21 1.6285007e-314 635.59308 424.4718
223535.41 -6.7929786e+21 1.6285066e-314 637.43646 424.22397
249717.16 -6.8165144e+21 1.6285092e-314 639.16882 423.94177
291816.06 -6.812898e+21 1.6285088e-314 640.86029 423.73828
321011.06 -6.889198e+21 1.6285172e-314 642.44769 423.49573
363397.06 -6.9049111e+21 1.6285189e-314 643.93829 423.31082
392188.56 -6.9614313e+21 1.6285251e-314 645.40851 423.12683
438173.81 -6.9912451e+21 1.6285284e-314 646.92493 422.83737
487561.81 -7.0073274e+21 1.6285302e-314 648.56677 422.60147
522135.81 -7.0726296e+21 1.6285373e-314 650.26495 422.37305
637796.63 -7.0782366e+21 1.6285379e-314 651.94061 422.06104
719533.13 -7.1401476e+21 1.6285447e-314 653.63867 421.76141
809500.63 -7.1629448e+21 1.6285472e-314 655.33301 421.57443
887934.13 -7.2071432e+21 1.6285521e-314 656.85962 421.3219
958556.13 -7.2478737e+21 1.6285565e-314 658.28394 421.10699
1047475.1 -7.2731839e+21 1.6285593e-314 659.77246 420.85147
1182269.3 -7.317013e+21 1.6285641e-314 661.08185 420.60611
1334628.3 -7.3415846e+21 1.6285668e-314 662.4989 420.42035
1484469.3 -7.3822386e+21 1.6285713e-314 663.98755 420.19797
1672688.3 -7.4197266e+21 1.6285754e-314 665.54755 419.8783
1862376.3 -7.4576514e+21 1.6285796e-314 667.16901 419.57227
2049232.3 -7.488492e+21 1.6285829e-314 668.74481 419.29166
2306868.5 -7.5285606e+21 1.6285873e-314 670.28827 419.08054
2620392.5 -7.5765239e+21 1.6285926e-314 671.76465 418.802
2937480.5 -7.6100937e+21 1.6285963e-314 673.15594 418.5513
3178864.5 -7.6459559e+21 1.6286002e-314 674.43268 418.38614
3463866.5 -7.6797509e+21 1.6286039e-314 675.65735 418.13718
3672532.5 -7.717383e+21 1.6286081e-314 676.9834 418.04001
4043100.5 -7.7395182e+21 1.6286105e-314 678.38831 417.74741
4550821 -7.7926426e+21 1.6286163e-314 679.7879 417.40118
5251269 -7.8332246e+21 1.6286208e-314 681.32074 417.11172
5877897 -7.8723338e+21 1.6286251e-314 682.77325 416.86557
6557797 -7.9158701e+21 1.6286298e-314 684.18213 416.54501
7209589 -7.947598e+21 1.6286333e-314 685.51526 416.2713
7717101 -7.9962954e+21 1.6286387e-314 686.74426 416.02426
8279137 -8.0250734e+21 1.6286418e-314 687.95715 415.80405
9150298.1 -8.0568013e+21 1.6286453e-314 689.13318 415.6203
10235778 -8.0966446e+21 1.6286497e-314 690.30335 415.36008
11499106 -8.1364925e+21 1.628654e-314 691.56818 415.05402
12526714 -8.1829786e+21 1.6286591e-314 692.85821 414.83273
13780810 -8.2220834e+21 1.6286634e-314 694.18188 414.55072
15173314 -8.2567656e+21 1.6286672e-314 695.50641 414.22977
16348562 -8.3091515e+21 1.628673e-314 696.79895 413.92294
18147924 -8.3512106e+21 1.6286776e-314 698.00885 413.65903
20355796 -8.3910539e+21 1.628682e-314 699.08447 413.36295
21963060 -8.4301632e+21 1.6286862e-314 700.16882 413.20554
23813588 -8.4559868e+21 1.6286891e-314 701.18994 413.02832
26019796 -8.4899305e+21 1.6286928e-314 702.28284 412.76483
28340084 -8.5378938e+21 1.6286981e-314 703.38245 412.426
30469108 -8.588807e+21 1.6287037e-314 704.52441 412.13025
32812884 -8.6323388e+21 1.6287084e-314 705.65265 411.81479
35463688 -8.662594e+21 1.6287117e-314 706.87097 411.51062
37824232 -8.7105528e+21 1.628717e-314 707.97351 411.16598
39590888 -8.7577775e+21 1.6287222e-314 708.98859 410.92834
41177992 -8.806475e+21 1.6287275e-314 709.92957 410.69974
43192936 -8.8426344e+21 1.6287315e-314 710.85559 410.41992
44942824 -8.8839549e+21 1.628736e-314 711.69928 410.15533
46488008 -8.9245368e+21 1.6287405e-314 712.59875 409.9549
48185864 -8.971023e+21 1.6287456e-314 713.49377 409.69904
50267912 -9.0123435e+21 1.6287501e-314 714.47101 409.40671
52489192 -9.0514483e+21 1.6287544e-314 715.47656 409.10205
54836328 -9.1075271e+21 1.6287606e-314 716.38013 408.67743
56750632 -9.1599175e+21 1.6287663e-314 717.25195 408.34982
57983752 -9.2064036e+21 1.6287714e-314 718.0885 408.17899
59384648 -9.2403428e+21 1.6287751e-314 718.86493 408
61053960 -9.2919945e+21 1.6287808e-314 719.5495 407.67246
63339016 -9.3325765e+21 1.6287852e-314 720.22015 407.25113
64714760 -9.3768514e+21 1.6287901e-314 720.85327 406.99728
66157608 -9.4277646e+21 1.6287957e-314 721.49927 406.71149
68400721 -9.4735133e+21 1.6287991e-314 722.19983 406.42789
71380369 -9.5155679e+21 1.6288014e-314 722.91003 406.18417
74289553 -9.5701695e+21 1.6288044e-314 723.53131 405.87735
77930193 -9.6210872e+21 1.6288072e-314 724.10852 405.4942
-29611.129 -4.6806784e+21 1.6282703e-314 470.52399 436.99747
-16357.299 -4.6861029e+21 1.6282715e-314 475.00952 437.00391
-11449.635 -4.7172025e+21 1.6282784e-314 478.99695 436.91418
-5513.7901 -4.709936e+21 1.6282768e-314 483.47934 436.62351
-1977.9378 -4.7457616e+21 1.6282821e-314 490.90732 436.30267
-1396.6135 -4.7884827e+21 1.6282867e-314 494.49655 436.24347
-749.69104 -4.775053e+21 1.6282853e-314 498.43774 436.02185
-449.56671 -4.8163735e+21 1.6282898e-314 502.05823 435.94418
-171.12064 -4.8342303e+21 1.6282918e-314 505.56378 435.73462
-84.833268 -4.8994604e+21 1.6282989e-314 508.69852 435.49973
-33.239052 -4.9106744e+21 1.6283001e-314 511.83804 435.32288
-15.700159 -4.9376059e+21 1.6283031e-314 514.67889 435.14624
-7.3664027 -4.955904e+21 1.6283051e-314 517.4798 434.96332
-3.9145608 -4.9883705e+21 1.6283087e-314 520.06445 434.84357
-1.6566403 -5.0111001e+21 1.6283112e-314 522.73669 434.58301
-0.39563996 -5.0479171e+21 1.6283152e-314 525.64654 434.40707
-0.068945006 -5.0764744e+21 1.6283183e-314 529.17822 434.30066
-0.0085618739 -5.0847385e+21 1.6283192e-314 532.59778 434.02411
-0.00048708992 -5.1201548e+21 1.6283231e-314 535.37463 433.79767
-3.8277365e-05 -5.1605926e+21 1.6283276e-314 538.02698 433.60642
-2.6303866e-07 -5.1858983e+21 1.6283303e-314 540.58923 433.47638
-2.1085378e-12 -5.2174055e+21 1.6283338e-314 542.65131 433.1835
1.5161039e-09 -5.2411642e+21 1.6283364e-314 544.99676 433.05185
1.5676581e-06 -5.2864705e+21 1.6283414e-314 547.40656 432.82733
0.00019520513 -5.2805662e+21 1.6283407e-314 549.94067 432.6066
0.0014897662 -5.3278631e+21 1.6283459e-314 552.29126 432.46408
0.012643749 -5.3644638e+21 1.6283499e-314 554.60034 432.18451
0.045762517 -5.3549432e+21 1.6283489e-314 556.51282 432.02206
0.13609007 -5.4269603e+21 1.6283568e-314 558.94397 431.70135
0.46321994 -5.4569182e+21 1.6283601e-314 561.36902 431.53757
1.5954402 -5.498608e+21 1.6283646e-314 563.646 431.27249
3.02912 -5.5276788e+21 1.6283678e-314 565.75147 431.15906
5.8931208 -5.5560875e+21 1.6283709e-314 567.85327 430.82492
9.9315205 -5.5813977e+21 1.6283737e-314 569.85626 430.6496
16.108158 -5.6199846e+21 1.628378e-314 571.91882 430.42783
30.575367 -5.6470647e+21 1.6283809e-314 574.10089 430.177
60.293129 -5.6705285e+21 1.6283835e-314 576.39325 429.91742
100.77187 -5.7297823e+21 1.62839e-314 578.63123 429.71732
197.61673 -5.7415863e+21 1.6283913e-314 580.92993 429.52255
341.04328 -5.7922067e+21 1.6283969e-314 583.13696 429.26669
565.10462 -5.8219395e+21 1.6284001e-314 585.263 429.01034
779.172 -5.8488755e+21 1.6284031e-314 587.2146 428.74646
979.78382 -5.8744019e+21 1.6284059e-314 589.15881 428.5354
1252.9055 -5.9182309e+21 1.6284107e-314 590.96387 428.33865
1673.7483 -5.9365336e+21 1.6284127e-314 592.84656 428.10825
1986.2737 -5.9807319e+21 1.6284175e-314 594.76398 427.95544
2891.2857 -6.0156303e+21 1.6284214e-314 596.86182 427.60117
3619.6763 -6.0390941e+21 1.6284239e-314 598.99268 427.52777
4962.1416 -6.0810091e+21 1.6284285e-314 601.03796 427.17358
6351.9971 -6.1342821e+21 1.6284344e-314 603.00073 426.93045
8339.127 -6.1407763e+21 1.6284351e-314 605.01977 426.69769
10305.705 -6.1940494e+21 1.6284409e-314 606.8017 426.57886
13677.041 -6.2418641e+21 1.6284462e-314 608.17364 426.03906
18352.379 -6.2367706e+21 1.6284456e-314 610.35535 425.94421
24432.473 -6.2562531e+21 1.6284478e-314 612.04016 425.71591
30665.942 -6.2772804e+21 1.6284501e-314 613.85089 425.50394
47485.414 -6.3172724e+21 1.6284545e-314 616.19958 425.01392
53003.571 -6.3793996e+21 1.6284613e-314 617.55676 424.85071
71198.329 -6.3860424e+21 1.628462e-314 619.9375 424.72815
82592.391 -6.4570236e+21 1.6284698e-314 621.6037 424.61533
108036.14 -6.4990107e+21 1.6284744e-314 623.16009 424.2095
150226.91 -6.4382841e+21 1.6284677e-314 625.35333 424.01663
189956.16 -6.6454767e+21 1.6284905e-314 630.11938 423.48367
213449.53 -6.6639235e+21 1.6284925e-314 631.73523 423.26193
240168.53 -6.7089324e+21 1.6284974e-314 633.65936 422.92789
278515.06 -6.6994163e+21 1.6284964e-314 635.34979 422.67014
303022.81 -6.7859665e+21 1.6285059e-314 637.19934 422.52951
360670.81 -6.8068497e+21 1.6285082e-314 638.99536 422.20566
418001.81 -6.7925373e+21 1.6285066e-314 640.64209 421.99564
442693.06 -6.8857258e+21 1.6285168e-314 642.21106 421.73639
491234.31 -6.889788e+21 1.6285173e-314 643.79492 421.54681
518374.06 -6.9645342e+21 1.6285255e-314 645.20575 421.28742
607912.13 -6.9744917e+21 1.6285266e-314 646.79755 421.08563
699977.13 -6.9858588e+21 1.6285278e-314 648.40686 420.90652
763311.13 -7.0758047e+21 1.6285377e-314 650.02258 420.58578
883792.63 -7.0621543e+21 1.6285362e-314 651.76831 420.36127
966787.13 -7.1219215e+21 1.6285427e-314 653.49805 420.07306
1062522.3 -7.1549014e+21 1.6285463e-314 655.14539 419.83536
1221801.3 -7.1897322e+21 1.6285502e-314 656.68665 419.6199
1392299.3 -7.2289091e+21 1.6285545e-314 658.15234 419.32342
1513829.3 -7.2750259e+21 1.6285595e-314 659.53326 419.14108
1707082.3 -7.2866857e+21 1.6285608e-314 660.99091 418.88077
1843082.3 -7.3345725e+21 1.6285661e-314 662.29657 418.61786
2009806.3 -7.3741231e+21 1.6285704e-314 663.79681 418.34576
2278346.5 -7.4075488e+21 1.6285741e-314 665.37701 418.08575
2612422.5 -7.4479101e+21 1.6285785e-314 666.9859 417.84479
2940836.5 -7.4856908e+21 1.6285826e-314 668.57159 417.61688
3306370.5 -7.5246514e+21 1.6285869e-314 670.10217 417.3027
3664774.5 -7.5576313e+21 1.6285905e-314 671.59143 417.01385
3958164.5 -7.5915749e+21 1.6285943e-314 672.93262 416.7868
4178786.5 -7.6452894e+21 1.6286001e-314 674.26501 416.60297
4784865 -7.6623355e+21 1.628602e-314 675.52918 416.392
5365353 -7.6959819e+21 1.6286057e-314 676.83569 416.16345
5978141 -7.7314027e+21 1.6286096e-314 678.22504 415.92337
6532209 -7.7823114e+21 1.6286152e-314 679.59442 415.66717
7247337 -7.8199435e+21 1.6286193e-314 681.1239 415.37628
7886969 -7.8620026e+21 1.6286239e-314 682.59174 415.11484
8672986.1 -7.9062775e+21 1.6286288e-314 683.94769 414.80426
9931274.1 -7.9446436e+21 1.628633e-314 685.29059 414.52801
10816274 -7.9896571e+21 1.6286379e-314 686.51245 414.34814
12253242 -8.001461e+21 1.6286392e-314 687.80829 414.08716
13179346 -8.0479472e+21 1.6286443e-314 688.93518 413.85715
14175914 -8.0877905e+21 1.6286487e-314 690.13293 413.64447
15554162 -8.1217342e+21 1.6286524e-314 691.4256 413.31915
16646354 -8.1615775e+21 1.6286568e-314 692.68567 413.08578
18894500 -8.2132293e+21 1.6286624e-314 693.98285 412.77606
21642612 -8.2523386e+21 1.6286667e-314 695.32434 412.45252
23615620 -8.2980861e+21 1.6286718e-314 696.58136 412.24191
25971140 -8.3349796e+21 1.6286758e-314 697.8017 411.97382
28422292 -8.3726072e+21 1.6286799e-314 698.91852 411.65103
30417092 -8.4072894e+21 1.6286837e-314 700.03662 411.43549
32455524 -8.4522984e+21 1.6286887e-314 701.00983 411.13132
34072840 -8.4928803e+21 1.6286931e-314 702.05951 410.95535
36480392 -8.5290397e+21 1.6286971e-314 703.15881 410.64414
38381256 -8.5858526e+21 1.6287033e-314 704.29852 410.37607
40765288 -8.6227461e+21 1.6287074e-314 705.4682 410.08929
43318792 -8.6581669e+21 1.6287113e-314 706.61456 409.76657
45182728 -8.7061258e+21 1.6287165e-314 707.72327 409.5307
47397320 -8.7489235e+21 1.6287212e-314 708.78906 409.22842
49487752 -8.7806513e+21 1.6287247e-314 709.76672 408.96805
51247688 -8.8271375e+21 1.6287298e-314 710.65845 408.69739
53084808 -8.868458e+21 1.6287343e-314 711.52118 408.41931
54692040 -8.9127284e+21 1.6287392e-314 712.37817 408.18012
56108040 -8.9518377e+21 1.6287435e-314 713.29413 408.01871
58559208 -8.9924196e+21 1.6287479e-314 714.29712 407.65951
60939880 -9.0470212e+21 1.6287539e-314 715.27325 407.25534
62849128 -9.094246e+21 1.6287591e-314 716.18359 406.95938
64786920 -9.1348279e+21 1.6287636e-314 717.07794 406.67764
65979752 -9.1864797e+21 1.6287692e-314 717.89459 406.49231
68447697 -9.2270616e+21 1.6287737e-314 718.6673 406.20477
71930641 -9.2705979e+21 1.6287784e-314 719.36255 405.89371
74420369 -9.3207725e+21 1.628784e-314 719.99866 405.65008
77195345 -9.3665201e+21 1.628789e-314 720.6214 405.38657
80933329 -9.4085792e+21 1.6287936e-314 721.28839 405.04874
84771921 -9.4572823e+21 1.6287982e-314 721.98535 404.6875
87989777 -9.5074524e+21 1.628801e-314 722.65143 404.37701
90966097 -9.562054e+21 1.628804e-314 723.2865 404.06949
-3.1667931e+13 -1.1364382e+23 1.6306129e-314 17.480648 321.13763
-30967.395 -4.6609774e+21 1.628266e-314 464.78397 435.39969
-16914.52 -4.6858057e+21 1.6282715e-314 469.64102 435.21829
-5122.7041 -4.6944031e+21 1.6282733e-314 478.47293 434.91064
-3448.5044 -4.741258e+21 1.6282816e-314 482.63226 434.86395
-1799.4143 -4.7313726e+21 1.6282805e-314 486.64655 434.60681
-1104.6506 -4.7360203e+21 1.628281e-314 490.47845 434.65161
-693.56555 -4.774463e+21 1.6282852e-314 493.91202 434.27704
-329.27741 -4.7780794e+21 1.6282856e-314 497.74017 434.26062
-119.09377 -4.8013945e+21 1.6282882e-314 501.40299 434.06845
-51.458565 -4.8521591e+21 1.6282937e-314 504.81329 433.78986
-21.108479 -4.8655888e+21 1.6282952e-314 508.30707 433.71927
-9.4022389 -4.9047702e+21 1.6282995e-314 511.36652 433.48557
-3.8914399 -4.9238834e+21 1.6283016e-314 514.22168 433.21695
-1.6893599 -4.9449107e+21 1.6283039e-314 517.09155 433.05924
-0.48312003 -4.9815115e+21 1.6283079e-314 519.71454 432.93442
-0.13566008 -5.0125008e+21 1.6283113e-314 522.26324 432.77396
-0.024537508 -5.0381803e+21 1.6283141e-314 525.16724 432.45569
-0.00073963276 -5.0091816e+21 1.6283109e-314 528.89532 432.34854
-6.0256345e-05 -5.0861391e+21 1.6283194e-314 532.22931 432.2319
-2.3958597e-07 -5.1183128e+21 1.6283229e-314 535.00488 431.95917
2.908018e-26 -5.1356493e+21 1.6283248e-314 537.82123 431.76923
7.2832132e-09 -5.1901024e+21 1.6283308e-314 540.15552 431.57263
3.9460474e-06 -5.2238974e+21 1.6283345e-314 542.3147 431.3009
0.00013913287 -5.2353366e+21 1.6283358e-314 544.5769 431.16235
0.0028047511 -5.2509776e+21 1.6283375e-314 547.05029 430.91611
0.016657505 -5.2748107e+21 1.6283401e-314 549.55481 430.77328
0.057780005 -5.3223281e+21 1.6283453e-314 551.96747 430.50342
0.21219006 -5.3702194e+21 1.6283506e-314 554.20404 430.14337
0.68807996 -5.3820234e+21 1.6283519e-314 556.39917 430.03845
1.8876002 -5.4246724e+21 1.6283565e-314 558.64008 429.86304
3.8845601 -5.4565489e+21 1.62836e-314 561.04083 429.57385
7.0051203 -5.4867275e+21 1.6283633e-314 563.35406 429.43838
11.898562 -5.5217025e+21 1.6283672e-314 565.44592 429.27209
23.864964 -5.5439098e+21 1.6283696e-314 567.59149 428.94241
41.783058 -5.5649416e+21 1.6283719e-314 569.58368 428.74277
66.84932 -5.5960795e+21 1.6283753e-314 571.65497 428.58673
115.14882 -5.6445562e+21 1.6283807e-314 573.83746 428.3641
212.34696 -5.6681686e+21 1.6283832e-314 576.11127 428.20169
415.20123 -5.710007e+21 1.6283878e-314 578.43585 427.86868
606.18763 -5.7561959e+21 1.6283929e-314 580.61737 427.66626
865.16761 -5.7789977e+21 1.6283954e-314 582.93347 427.38159
1142.7024 -5.8062985e+21 1.6283984e-314 585.05597 427.15695
1471.2629 -5.8405348e+21 1.6284022e-314 586.89044 426.99725
1876.7874 -5.8749919e+21 1.6284059e-314 588.867 426.745
2488.9341 -5.9041392e+21 1.6284091e-314 590.73175 426.50711
3351.5122 -5.9191902e+21 1.6284108e-314 592.62097 426.27573
4081.0903 -5.9618393e+21 1.6284155e-314 594.61157 426.06104
5527.4698 -6.0030157e+21 1.62842e-314 596.65332 425.86978
7222.9698 -6.0295779e+21 1.6284229e-314 598.71533 425.65118
9382.9551 -6.0815225e+21 1.6284286e-314 600.78223 425.36996
13318.557 -6.107274e+21 1.6284314e-314 602.82544 425.02744
15815.807 -6.131625e+21 1.6284341e-314 604.67548 424.95139
22233.426 -6.1567146e+21 1.6284368e-314 606.71179 424.70837
26652.52 -6.206074e+21 1.6284423e-314 608.27612 424.48471
34249.789 -6.2255566e+21 1.6284444e-314 610.30756 424.28149
45340.446 -6.2429675e+21 1.6284463e-314 611.86707 424.08218
49855.196 -6.298015e+21 1.6284523e-314 613.60895 424.13297
64585.727 -6.3609528e+21 1.6284592e-314 615.78723 423.71582
87275.641 -6.3588902e+21 1.628459e-314 617.2926 423.5499
123397.77 -6.3877402e+21 1.6284622e-314 619.73102 423.19019
137609.91 -6.454443e+21 1.6284695e-314 621.49933 423.05261
164044.53 -6.4654363e+21 1.6284707e-314 623.0235 422.75241
206024.28 -6.4129739e+21 1.628465e-314 625.19922 422.51828
200257.03 -6.5867453e+21 1.628484e-314 626.51691 422.3057
278258.06 -6.6786097e+21 1.6284941e-314 631.46686 421.52188
350017.31 -6.6687964e+21 1.628493e-314 633.36847 421.17273
404414.81 -6.6927015e+21 1.6284956e-314 635.14606 420.87369
432820.81 -6.777189e+21 1.6285049e-314 637.01923 420.69794
488489.56 -6.7953385e+21 1.6285069e-314 638.79602 420.40753
575720.63 -6.7848631e+21 1.6285058e-314 640.43616 420.11816
618922.13 -6.8799747e+21 1.6285162e-314 641.96692 419.88422
725195.13 -6.8793081e+21 1.6285161e-314 643.57214 419.65717
775789.13 -6.9376748e+21 1.6285225e-314 644.99103 419.50027
858364.63 -6.9707312e+21 1.6285261e-314 646.55524 419.27762
935801.63 -7.0096918e+21 1.6285304e-314 648.1521 419.07629
1013291.6 -7.0592765e+21 1.6285359e-314 649.85217 418.86136
1262066.3 -7.0483552e+21 1.6285347e-314 651.60321 418.47446
1399744.3 -7.1099645e+21 1.6285414e-314 653.30066 418.26834
1571081.3 -7.1545321e+21 1.6285463e-314 654.88776 417.98392
1752800.3 -7.1886964e+21 1.6285501e-314 656.45801 417.70285
1892994.3 -7.2227887e+21 1.6285538e-314 657.90619 417.52869
2059194.3 -7.2565792e+21 1.6285575e-314 659.34992 417.26385
2351326.5 -7.2809301e+21 1.6285602e-314 660.76837 417.03516
2603404.5 -7.3207014e+21 1.6285645e-314 662.12415 416.858
2937272.5 -7.35959e+21 1.6285688e-314 663.59723 416.57974
3300288.5 -7.3891021e+21 1.628572e-314 665.16736 416.32129
3621572.5 -7.4318998e+21 1.6285767e-314 666.78839 416.09589
3930062.5 -7.4727024e+21 1.6285812e-314 668.33502 415.87845
4415345 -7.5192651e+21 1.6285863e-314 669.87714 415.52155
5032745 -7.5545328e+21 1.6285902e-314 671.34491 415.30258
5708449 -7.5819823e+21 1.6285932e-314 672.68463 415.02521
6227285 -7.6247034e+21 1.6285979e-314 674.05115 414.83057
6753249 -7.6615969e+21 1.6286019e-314 675.36212 414.6365
7431889 -7.6922934e+21 1.6286053e-314 676.62085 414.31867
8082845 -7.7291869e+21 1.6286093e-314 677.96808 414.03027
8815594.1 -7.7682962e+21 1.6286136e-314 679.40607 413.87433
10406906 -7.8051897e+21 1.6286177e-314 680.95068 413.52103
11582154 -7.8546257e+21 1.6286231e-314 682.36133 413.25751
12854706 -7.8907806e+21 1.6286271e-314 683.77344 413.00433
14118026 -7.9284127e+21 1.6286312e-314 685.09863 412.72345
15173314 -7.9697332e+21 1.6286357e-314 686.39124 412.50815
16286482 -8.001461e+21 1.6286392e-314 687.57886 412.27429
17844244 -8.0361388e+21 1.628643e-314 688.68469 412.04242
20189700 -8.0722982e+21 1.628647e-314 689.93842 411.7865
22932788 -8.1128801e+21 1.6286514e-314 691.19696 411.42993
24982964 -8.1586277e+21 1.6286565e-314 692.4248 411.19315
27120372 -8.202898e+21 1.6286613e-314 693.79553 410.98856
29673860 -8.2346259e+21 1.6286648e-314 695.14752 410.73618
32148500 -8.2774236e+21 1.6286695e-314 696.40979 410.43372
34275848 -8.3320253e+21 1.6286755e-314 697.58722 410.13397
36549160 -8.3703959e+21 1.6286797e-314 698.69385 409.84232
38726856 -8.4050736e+21 1.6286835e-314 699.79895 409.58527
40308936 -8.4375401e+21 1.6286871e-314 700.83935 409.44809
42604072 -8.4670567e+21 1.6286903e-314 701.91992 409.17749
44721352 -8.5216583e+21 1.6286963e-314 702.95904 408.84097
46991304 -8.5592904e+21 1.6287004e-314 704.13708 408.58105
49273000 -8.6087264e+21 1.6287058e-314 705.29346 408.26547
51509416 -8.6470971e+21 1.62871e-314 706.43933 407.99854
53346536 -8.6957945e+21 1.6287154e-314 707.51489 407.75928
55445352 -8.7363809e+21 1.6287198e-314 708.58453 407.49255
57633096 -8.7784356e+21 1.6287245e-314 709.53833 407.16498
59377928 -8.8286147e+21 1.62873e-314 710.41345 406.88049
61015400 -8.8610811e+21 1.6287335e-314 711.29413 406.6839
62741768 -8.9016631e+21 1.628738e-314 712.17346 406.43979
64932872 -8.9437222e+21 1.6287426e-314 713.11896 406.11304
66820296 -8.987254e+21 1.6287474e-314 714.0827 405.85111
70863633 -9.0352173e+21 1.6287526e-314 715.03003 405.50977
74880081 -9.0861305e+21 1.6287582e-314 715.95264 405.18719
79017361 -9.1267124e+21 1.6287627e-314 716.89618 404.89249
82322449 -9.176887e+21 1.6287682e-314 717.66864 404.60077
85620881 -9.2182076e+21 1.6287727e-314 718.41785 404.3353
88744785 -9.2624824e+21 1.6287776e-314 719.13342 404.07083
92100241 -9.3030644e+21 1.628782e-314 719.80102 403.77811
95133521 -9.3502846e+21 1.6287872e-314 720.4267 403.48355
97371601 -9.4034136e+21 1.628793e-314 721.05658 403.25653
1.008445e+08 -9.4439955e+21 1.6287975e-314 721.70862 402.94943
1.0447509e+08 -9.4985983e+21 1.6288005e-314 722.36829 402.57922
1.0830363e+08 -9.5502546e+21 1.6288033e-314 723.01086 402.19632
1.1125646e+08 -9.6041177e+21 1.6288063e-314 723.54932 401.8671
1.141757e+08 -9.6550264e+21 1.6288091e-314 724.03815 401.53619
-2.3394096e+13 -1.1252224e+23 1.6306052e-314 25.036261 318.13602
-16015.689 -4.6529722e+21 1.6282643e-314 463.6973 433.41779
-9757.8223 -4.6956573e+21 1.6282736e-314 468.65323 433.22848
-5746.2783 -4.7021875e+21 1.6282751e-314 472.61981 433.082
-2601.9439 -4.6826712e+21 1.6282708e-314 477.73901 433.00708
-1707.0286 -4.7311519e+21 1.6282804e-314 481.86466 432.8038
-979.71204 -4.7360203e+21 1.628281e-314 485.73029 432.72379
-550.74817 -4.719344e+21 1.6282788e-314 489.69916 432.66379
-224.58377 -4.7418479e+21 1.6282816e-314 493.48825 432.53134
-92.270096 -4.7768229e+21 1.6282855e-314 497.06519 432.3475
-28.280964 -4.7777101e+21 1.6282856e-314 500.91388 432.11792
-12.435206 -4.8311318e+21 1.6282914e-314 504.37616 431.87778
-5.4145594 -4.8593919e+21 1.6282945e-314 507.7822 431.77219
-2.4197602 -4.8897191e+21 1.6282978e-314 510.8234 431.58255
-0.51332009 -4.9167993e+21 1.6283008e-314 513.78107 431.33316
-0.15357009 -4.9528821e+21 1.6283048e-314 516.57977 431.25226
-0.030208755 -4.9677845e+21 1.6283064e-314 519.26874 431.02298
-0.0088375006 -5.0102129e+21 1.6283111e-314 521.90308 430.84854
-0.00037085946 -5.0150813e+21 1.6283116e-314 524.77533 430.69946
-2.5574341e-06 -5.0144193e+21 1.6283115e-314 528.16431 430.61371
-2.4513816e-12 -5.0659945e+21 1.6283172e-314 531.77679 430.3653
4.6901711e-08 -5.1012644e+21 1.6283211e-314 534.64941 430.05859
2.8096201e-05 -5.1222917e+21 1.6283234e-314 537.48071 429.90884
0.00034600386 -5.1625809e+21 1.6283278e-314 539.92987 429.70602
0.0011501249 -5.2544454e+21 1.6283379e-314 541.49969 429.33249
0.022422511 -5.1996951e+21 1.6283319e-314 544.3855 429.27985
0.070435003 -5.2472892e+21 1.6283371e-314 546.83276 429.06317
0.32602006 -5.255256e+21 1.6283379e-314 549.31152 428.84396
1.0387204 -5.2957659e+21 1.6283424e-314 551.7456 428.64032
2.7451997 -5.3454992e+21 1.6283478e-314 554.13629 428.3873
5.449441 -5.342842e+21 1.6283476e-314 556.21564 428.18005
7.7524805 -5.4036406e+21 1.6283542e-314 558.38556 428.05176
15.733759 -5.4314594e+21 1.6283573e-314 560.81006 427.76334
28.156803 -5.4863583e+21 1.6283633e-314 563.00909 427.47665
55.246102 -5.4932938e+21 1.6283641e-314 565.26148 427.29553
81.2314 -5.5471569e+21 1.62837e-314 567.28265 427.18668
143.77481 -5.5668601e+21 1.6283721e-314 569.24915 426.9487
248.43265 -5.5981466e+21 1.6283756e-314 571.39264 426.7432
479.62116 -5.612459e+21 1.6283771e-314 573.58533 426.53397
689.29554 -5.6586525e+21 1.6283822e-314 575.82977 426.28488
897.90491 -5.7013016e+21 1.6283869e-314 578.12482 426.07437
1263.1858 -5.7335428e+21 1.6283904e-314 580.4035 425.77731
1674.6497 -5.7724314e+21 1.6283947e-314 582.65356 425.5817
2124.9634 -5.8074784e+21 1.6283985e-314 584.69336 425.33588
2977.1372 -5.8285823e+21 1.6284008e-314 586.72693 425.13126
3786.3013 -5.8572117e+21 1.628404e-314 588.65094 424.892
5030.2159 -5.8783876e+21 1.6284063e-314 590.56103 424.71381
6594.9698 -5.9084176e+21 1.6284096e-314 592.41376 424.46844
8015.4619 -5.9478962e+21 1.6284139e-314 594.31934 424.25922
10463.479 -5.9974087e+21 1.6284194e-314 596.30469 424.07648
14000.947 -6.0341536e+21 1.6284234e-314 598.45227 423.80386
17977.52 -6.0756228e+21 1.6284279e-314 600.52948 423.56619
25629.16 -6.1002664e+21 1.6284306e-314 602.56049 423.24902
32021.223 -6.1237302e+21 1.6284332e-314 604.50372 423.05069
40339.383 -6.1809169e+21 1.6284395e-314 606.30512 422.85437
52618.852 -6.1907303e+21 1.6284406e-314 608.13593 422.71256
64531.352 -6.2221609e+21 1.628444e-314 609.9043 422.46832
83703.891 -6.260455e+21 1.6284482e-314 611.60132 422.27164
111126.77 -6.3050226e+21 1.6284531e-314 613.18652 421.80649
143645.78 -6.3254644e+21 1.6284554e-314 615.65613 421.59726
168126.03 -6.3453118e+21 1.6284575e-314 617.12347 421.29239
200506.16 -6.3622093e+21 1.6284594e-314 619.46918 421.06223
207906.41 -6.4652156e+21 1.6284707e-314 621.13556 420.91727
226928.91 -6.5152416e+21 1.6284762e-314 622.82501 420.69949
270773.81 -6.4654363e+21 1.6284707e-314 624.80133 420.45511
283579.56 -6.5620971e+21 1.6284813e-314 626.43127 420.35959
352628.31 -6.5383406e+21 1.6284787e-314 628.10706 420.03867
412861.06 -6.6603836e+21 1.6284921e-314 631.28375 419.66412
537605.13 -6.6675399e+21 1.6284929e-314 634.9696 419.15939
597373.63 -6.7668577e+21 1.6285038e-314 636.76929 418.87564
703489.63 -6.7882543e+21 1.6285061e-314 638.6106 418.62732
824810.13 -6.7777024e+21 1.628505e-314 640.25415 418.35049
868483.13 -6.8739939e+21 1.6285155e-314 641.8042 418.11722
958765.63 -6.8871309e+21 1.628517e-314 643.36969 417.92795
1032690.1 -6.9280821e+21 1.6285215e-314 644.79187 417.6864
1176188.3 -6.9496273e+21 1.6285238e-314 646.34039 417.52918
1381709.3 -6.9760454e+21 1.6285267e-314 647.98682 417.22061
1555877.3 -7.0317505e+21 1.6285328e-314 649.63049 416.89557
1779853.3 -7.0267335e+21 1.6285323e-314 651.37994 416.69076
1908828.3 -7.1031055e+21 1.6285407e-314 653.03497 416.43994
2093587.3 -7.1342434e+21 1.6285441e-314 654.70245 416.19141
2385930.5 -7.1705469e+21 1.6285481e-314 656.28961 416.02502
2703648.5 -7.2117909e+21 1.6285526e-314 657.66461 415.73233
3016124.5 -7.242564e+21 1.628556e-314 659.16571 415.53342
3306370.5 -7.271414e+21 1.6285591e-314 660.54102 415.34195
3635622.5 -7.2965756e+21 1.6285619e-314 661.99524 415.12323
3962150.5 -7.3418773e+21 1.6285669e-314 663.4458 414.82419
4416185 -7.3786267e+21 1.6285709e-314 664.97528 414.55765
5019745 -7.4321925e+21 1.6285768e-314 666.54266 414.306
5781849 -7.4566201e+21 1.6285794e-314 668.17291 414.05643
6455453 -7.5127709e+21 1.6285856e-314 669.7099 413.72543
7097181 -7.5439809e+21 1.628589e-314 671.19775 413.50906
7802245 -7.5707683e+21 1.628592e-314 672.55469 413.21411
8343729 -7.615408e+21 1.6285969e-314 673.8136 412.95935
9229146.1 -7.6565799e+21 1.6286014e-314 675.06451 412.78268
10505058 -7.6782737e+21 1.6286038e-314 676.427 412.56836
11659330 -7.7166444e+21 1.628608e-314 677.75098 412.33005
13160890 -7.7579649e+21 1.6286125e-314 679.20789 411.97168
14384786 -7.7978083e+21 1.6286169e-314 680.69385 411.74893
15660698 -7.8383902e+21 1.6286213e-314 682.17267 411.49741
16799028 -7.8878307e+21 1.6286268e-314 683.55115 411.24765
19508548 -7.923247e+21 1.6286306e-314 684.92627 410.95193
21622484 -7.9601405e+21 1.6286347e-314 686.15326 410.73486
24229652 -7.9830143e+21 1.6286372e-314 687.38007 410.46387
26200980 -8.0250734e+21 1.6286418e-314 688.53485 410.23486
28376980 -8.0671325e+21 1.6286464e-314 689.72577 409.97247
30734180 -8.1018102e+21 1.6286502e-314 690.96759 409.71707
32886708 -8.1423922e+21 1.6286547e-314 692.25562 409.49854
35626440 -8.1851899e+21 1.6286594e-314 693.63861 409.17557
38324200 -8.2257718e+21 1.6286638e-314 694.92969 408.8418
40520328 -8.2707853e+21 1.6286688e-314 696.2334 408.60162
42654408 -8.3150557e+21 1.6286736e-314 697.43921 408.35135
44702888 -8.3593261e+21 1.6286785e-314 698.51904 408.07953
47110440 -8.3895813e+21 1.6286818e-314 699.60266 407.78262
48868680 -8.4257362e+21 1.6286858e-314 700.63861 407.59219
50893704 -8.4648409e+21 1.6286901e-314 701.67261 407.33227
53135144 -8.5083772e+21 1.6286948e-314 702.7771 407.03003
55363144 -8.5526476e+21 1.6286997e-314 703.95032 406.75134
57312648 -8.5976611e+21 1.6287046e-314 705.05475 406.51154
59423240 -8.633816e+21 1.6287086e-314 706.2431 406.29242
61117736 -8.6884176e+21 1.6287146e-314 707.3147 406.06168
63505128 -8.7297381e+21 1.6287191e-314 708.36279 405.72339
65541896 -8.7784356e+21 1.6287245e-314 709.27435 405.39304
67625617 -8.8182834e+21 1.6287288e-314 710.18781 405.14188
71551505 -8.8522225e+21 1.6287325e-314 711.06665 404.87204
75128401 -8.8869048e+21 1.6287364e-314 711.97754 404.64728
79258961 -8.9356022e+21 1.6287417e-314 712.87988 404.30875
83097553 -8.9791385e+21 1.6287465e-314 713.85004 404.04309
86852305 -9.0226748e+21 1.6287512e-314 714.84216 403.79514
91479441 -9.0632567e+21 1.6287557e-314 715.75635 403.44052
95398609 -9.1163812e+21 1.6287615e-314 716.61963 403.10287
98948689 -9.1717214e+21 1.6287676e-314 717.42932 402.78113
1.0245512e+08 -9.2159963e+21 1.6287725e-314 718.19067 402.4873
1.0544814e+08 -9.2558396e+21 1.6287768e-314 718.89514 402.24802
1.0799829e+08 -9.30011e+21 1.6287817e-314 719.55499 402.02661
1.1071957e+08 -9.3421691e+21 1.6287863e-314 720.21582 401.79678
1.1447099e+08 -9.3857054e+21 1.6287911e-314 720.87518 401.4538
1.1803106e+08 -9.4373572e+21 1.6287967e-314 721.52502 401.10001
1.2113154e+08 -9.4890057e+21 1.6288e-314 722.15619 400.78793
1.2417154e+08 -9.5436073e+21 1.628803e-314 722.7298 400.45792
1.274733e+08 -9.5952636e+21 1.6288058e-314 723.28217 400.10651
1.3171797e+08 -9.639534e+21 1.6288082e-314 723.80774 399.67023
-5408.8526 -4.686139e+21 1.6282715e-314 467.72531 431.43716
-2824.52 -4.691451e+21 1.6282727e-314 471.89975 431.09634
-877.06653 -4.7133655e+21 1.6282775e-314 481.26196 431.01224
-203.9296 -4.7414066e+21 1.6282816e-314 488.97067 430.84454
-71.490555 -4.7583041e+21 1.6282834e-314 492.76855 430.69241
-21.321598 -4.7487835e+21 1.6282824e-314 496.73874 430.46432
-10.002565 -4.8013225e+21 1.6282881e-314 500.29788 430.38318
-3.5418401 -4.8169635e+21 1.6282899e-314 503.82227 430.13431
-0.8869201 -4.8461108e+21 1.6282931e-314 507.29627 429.87781
-0.19193998 -4.8802751e+21 1.6282968e-314 510.49051 429.74051
-0.044577517 -4.9046981e+21 1.6282995e-314 513.31604 429.591
-0.0096225013 -4.9366466e+21 1.628303e-314 516.19336 429.37683
-0.00056195318 -4.9534721e+21 1.6283048e-314 518.93384 429.21747
-5.3983393e-05 -4.9959725e+21 1.6283095e-314 521.52087 429.07745
-5.1645294e-08 -5.0112442e+21 1.6283112e-314 524.35236 428.77783
1.3553536e-12 -5.0184027e+21 1.628312e-314 527.54358 428.74139
3.1511231e-06 -5.0786113e+21 1.6283186e-314 531.30823 428.44461
0.00023512499 -5.0898253e+21 1.6283198e-314 534.25989 428.31421
0.0045995647 -5.1301145e+21 1.6283242e-314 536.95837 428.02188
0.022911254 -5.1644274e+21 1.628328e-314 539.56262 427.84412
0.076035038 -5.225816e+21 1.6283347e-314 541.55292 427.37576
0.28609997 -5.20641e+21 1.6283326e-314 543.86188 427.36105
0.99504006 -5.240205e+21 1.6283363e-314 546.52588 427.21967
2.6682401 -5.2694244e+21 1.6283395e-314 548.94592 427.0979
4.9411211 -5.2987158e+21 1.6283427e-314 551.4574 426.94864
9.2950383 -5.3286737e+21 1.628346e-314 553.82605 426.72461
20.42432 -5.342842e+21 1.6283476e-314 556.16418 426.39889
30.24448 -5.4002494e+21 1.6283539e-314 558.17151 426.20065
55.429116 -5.4323466e+21 1.6283574e-314 560.52045 426.03699
111.56484 -5.4590574e+21 1.6283603e-314 562.74817 425.7045
191.21671 -5.5025172e+21 1.6283651e-314 564.90289 425.50223
311.6341 -5.5327679e+21 1.6283684e-314 566.96747 425.36289
515.45081 -5.5672294e+21 1.6283722e-314 568.94861 425.10779
733.23548 -5.5833883e+21 1.6283739e-314 571.0993 424.95044
944.52747 -5.6202097e+21 1.628378e-314 573.30817 424.73142
1267.5891 -5.6633002e+21 1.6283827e-314 575.44342 424.49277
1750.8762 -5.6987886e+21 1.6283866e-314 577.84009 424.23303
2334.9243 -5.7233602e+21 1.6283893e-314 580.1134 424.06403
3402.3423 -5.7503683e+21 1.6283923e-314 582.42291 423.72684
4181.9346 -5.795008e+21 1.6283972e-314 584.46283 423.51202
5698.6026 -5.8202461e+21 1.6283999e-314 586.45953 423.35895
7238.9424 -5.8409041e+21 1.6284022e-314 588.42816 423.20841
9596.2755 -5.8830353e+21 1.6284068e-314 590.24707 422.85239
12515.9 -5.9039185e+21 1.6284091e-314 592.1272 422.70795
15240.236 -5.9447211e+21 1.6284136e-314 594.10925 422.54379
20771.645 -5.983389e+21 1.6284178e-314 596.0636 422.24374
27751.879 -6.0198367e+21 1.6284218e-314 598.25147 421.99634
35764.977 -6.0542216e+21 1.6284256e-314 600.28735 421.76169
48269.227 -6.1038828e+21 1.628431e-314 602.29694 421.47589
63269.133 -6.1110391e+21 1.6284318e-314 604.31744 421.25488
76924.891 -6.167262e+21 1.628438e-314 606.08484 421.11523
105641.45 -6.1780391e+21 1.6284392e-314 607.97418 420.87027
120234.95 -6.2258493e+21 1.6284444e-314 609.71472 420.79965
143449.16 -6.2638507e+21 1.6284486e-314 611.34082 420.49686
172274.53 -6.2759519e+21 1.6284499e-314 613.03339 420.17856
203646.66 -6.3008207e+21 1.6284526e-314 615.48431 419.97397
220832.78 -6.3436905e+21 1.6284574e-314 616.93628 419.76224
263966.06 -6.3616193e+21 1.6284593e-314 619.15399 419.21011
294400.81 -6.5342829e+21 1.6284783e-314 622.43597 419.05212
408357.56 -6.4204994e+21 1.6284658e-314 624.67468 418.69025
472842.31 -6.5174574e+21 1.6284764e-314 627.96295 418.40299
513299.06 -6.5613585e+21 1.6284812e-314 629.53656 418.14343
557528.13 -6.6513809e+21 1.6284911e-314 630.99695 417.82263
684563.13 -6.6555107e+21 1.6284916e-314 633.04785 417.57166
795659.63 -6.6404597e+21 1.6284899e-314 634.83588 417.43173
854065.13 -6.7394083e+21 1.6285008e-314 636.52332 417.12494
959027.63 -6.7676684e+21 1.6285039e-314 638.37103 416.8566
1076678.3 -6.7823546e+21 1.6285055e-314 640.0376 416.59903
1200724.3 -6.8582808e+21 1.6285138e-314 641.62323 416.34003
1409391.3 -6.8411626e+21 1.6285119e-314 643.15845 416.17331
1512781.3 -6.9199666e+21 1.6285206e-314 644.60919 415.9332
1689885.3 -6.9488167e+21 1.6285237e-314 646.17175 415.68707
1866256.3 -6.9766354e+21 1.6285268e-314 647.76593 415.45828
2039480.3 -7.0206086e+21 1.6285316e-314 649.39392 415.18259
2411516.5 -7.0415683e+21 1.6285339e-314 651.13617 414.89581
2682886.5 -7.0980119e+21 1.6285401e-314 652.80786 414.71323
3058696.5 -7.1371212e+21 1.6285444e-314 654.48706 414.42462
3396128.5 -7.1633141e+21 1.6285473e-314 656.0625 414.2247
3754532.5 -7.2005769e+21 1.6285514e-314 657.51715 413.90399
4073928.5 -7.2284677e+21 1.6285544e-314 658.94324 413.68173
4542433 -7.2556965e+21 1.6285574e-314 660.3316 413.49393
5103629 -7.2894149e+21 1.6285611e-314 661.78192 413.32303
5658117 -7.3477816e+21 1.6285675e-314 663.19928 413.04669
6414769 -7.3769289e+21 1.6285707e-314 664.75458 412.7587
7181069 -7.4076254e+21 1.6285741e-314 666.40613 412.48676
7829089 -7.4530037e+21 1.628579e-314 667.93713 412.21979
8569802.1 -7.4951348e+21 1.6285837e-314 669.48694 411.97125
9866682.1 -7.5416931e+21 1.6285888e-314 670.93457 411.67474
11172786 -7.5718717e+21 1.6285921e-314 672.33447 411.42532
12211298 -7.6027889e+21 1.6285955e-314 673.64978 411.26328
13444426 -7.6296484e+21 1.6285984e-314 674.94391 411.02609
14491322 -7.6760625e+21 1.6286035e-314 676.20331 410.78226
15827626 -7.7070517e+21 1.6286069e-314 677.54883 410.5014
17832500 -7.7468951e+21 1.6286113e-314 679.01312 410.16183
20001796 -7.791904e+21 1.6286162e-314 680.50317 409.97888
22805268 -7.8302747e+21 1.6286204e-314 681.94928 409.67422
25170868 -7.873811e+21 1.6286252e-314 683.4104 409.4502
27564964 -7.9158701e+21 1.6286298e-314 684.71277 409.17355
30232548 -7.939478e+21 1.6286324e-314 685.98547 408.90179
32190452 -7.9852256e+21 1.6286374e-314 687.1358 408.66089
34232232 -8.0154807e+21 1.6286408e-314 688.30756 408.46732
36369672 -8.0678711e+21 1.6286465e-314 689.45972 408.1669
39065768 -8.091479e+21 1.6286491e-314 690.78461 407.90674
41283688 -8.1357539e+21 1.6286539e-314 692.06354 407.65704
43567080 -8.1785516e+21 1.6286586e-314 693.40582 407.41962
45929320 -8.2206062e+21 1.6286633e-314 694.75482 407.16885
48563336 -8.260454e+21 1.6286676e-314 696.00867 406.84186
51269512 -8.3032518e+21 1.6286723e-314 697.21851 406.47299
52834824 -8.3416179e+21 1.6286765e-314 698.31665 406.33585
54710504 -8.3799886e+21 1.6286807e-314 699.41101 406.12817
56800936 -8.4205705e+21 1.6286852e-314 700.42413 405.84076
58830984 -8.4537756e+21 1.6286888e-314 701.44733 405.59836
60814056 -8.4936189e+21 1.6286932e-314 702.57056 405.37408
63147784 -8.5305124e+21 1.6286973e-314 703.7312 405.0965
65662664 -8.5821642e+21 1.6287029e-314 704.89673 404.72943
68387281 -8.6271732e+21 1.6287079e-314 706.02087 404.46539
73121809 -8.6773478e+21 1.6287134e-314 707.08362 404.10519
76631633 -8.7171956e+21 1.6287177e-314 708.15204 403.91541
80688337 -8.7607274e+21 1.6287225e-314 709.13165 403.62921
84590737 -8.7990981e+21 1.6287267e-314 710.02783 403.3504
88771601 -8.8286147e+21 1.62873e-314 710.92139 403.07336
91986129 -8.8743622e+21 1.628735e-314 711.79779 402.83737
95378513 -8.9237982e+21 1.6287404e-314 712.70435 402.58035
99391569 -8.9651188e+21 1.6287449e-314 713.67639 402.30505
1.0292488e+08 -9.016032e+21 1.6287505e-314 714.62695 402.04138
1.0679035e+08 -9.0610409e+21 1.6287555e-314 715.51434 401.74667
1.1125646e+08 -9.1067885e+21 1.6287605e-314 716.38293 401.37808
1.1486357e+08 -9.1606561e+21 1.6287664e-314 717.19397 401.0589
1.1838338e+08 -9.2049264e+21 1.6287712e-314 717.93719 400.75833
1.2100066e+08 -9.2477242e+21 1.6287759e-314 718.63342 400.5477
1.2433934e+08 -9.2875675e+21 1.6287803e-314 719.29535 400.26041
1.2836251e+08 -9.3311038e+21 1.6287851e-314 719.93561 399.88187
1.3132533e+08 -9.378324e+21 1.6287903e-314 720.59418 399.60797
1.3399963e+08 -9.427026e+21 1.6287956e-314 721.24603 399.36157
1.4090179e+08 -9.4786744e+21 1.6287994e-314 721.92554 399.01764
1.5455171e+08 -9.5827166e+21 1.6288051e-314 723.06268 398.29721
-3348.0708 -4.7093438e+21 1.6282766e-314 466.53363 429.50784
-1816.9856 -4.7177565e+21 1.6282785e-314 470.62952 429.25201
-841.40052 -4.6975016e+21 1.628274e-314 475.74075 429.17957
-337.08038 -4.6910456e+21 1.6282726e-314 480.44846 429.06677
-167.09122 -4.7293775e+21 1.6282803e-314 484.20807 429.02591
-51.874581 -4.7298954e+21 1.6282803e-314 488.3374 428.89209
-20.58881 -4.7453157e+21 1.628282e-314 492.20453 428.89987
-6.8777628 -4.7604433e+21 1.6282837e-314 495.96881 428.65863
-2.5618405 -4.7940176e+21 1.6282873e-314 499.73663 428.42984
-0.53056014 -4.8424223e+21 1.6282927e-314 503.26181 428.20621
-0.076075033 -4.8472186e+21 1.6282932e-314 506.76126 428.05966
-0.014405625 -4.8786493e+21 1.6282966e-314 509.94705 427.87237
-0.0014078592 -4.9012303e+21 1.6282991e-314 512.78595 427.73074
-3.308789e-05 -4.9063959e+21 1.6282997e-314 515.8092 427.49081
-1.7531968e-07 -4.9347281e+21 1.6283028e-314 518.55469 427.37497
-2.2719161e-28 -4.9463878e+21 1.6283041e-314 521.32245 427.27078
9.0831762e-08 -4.9983302e+21 1.6283098e-314 523.99707 426.99124
2.5987803e-05 -5.0374394e+21 1.628314e-314 526.79816 426.80585
0.0019717184 -5.0723378e+21 1.6283179e-314 530.75922 426.5282
0.020393748 -5.0796427e+21 1.6283187e-314 533.86597 426.46945
0.080340043 -5.118234e+21 1.6283229e-314 536.63727 426.27722
0.35662013 -5.1506284e+21 1.6283265e-314 539.13293 425.95206
1.2167199 -5.1704758e+21 1.6283286e-314 541.32489 425.75296
3.0086408 -5.1766727e+21 1.6283293e-314 543.42438 425.59387
5.6017618 -5.2334181e+21 1.6283355e-314 546.24793 425.40854
9.4627247 -5.269645e+21 1.6283395e-314 548.49799 425.24576
20.045445 -5.2811562e+21 1.6283408e-314 550.9892 425.02667
35.713295 -5.3323667e+21 1.6283464e-314 553.4942 424.79602
72.691239 -5.3437293e+21 1.6283477e-314 555.98743 424.62311
109.9648 -5.4082929e+21 1.6283547e-314 557.99915 424.41965
216.36612 -5.4280682e+21 1.6283569e-314 560.24695 424.16534
394.64972 -5.4558103e+21 1.6283599e-314 562.48663 423.97894
602.18372 -5.495361e+21 1.6283643e-314 564.56195 423.71533
819.58948 -5.524873e+21 1.6283675e-314 566.64282 423.46951
1045.4426 -5.5378614e+21 1.6283689e-314 568.79401 423.33771
1399.6038 -5.5877433e+21 1.6283744e-314 570.71832 423.08246
1799.3733 -5.6255195e+21 1.6283786e-314 572.95898 422.91043
2657.9361 -5.641165e+21 1.6283803e-314 575.32654 422.61362
3543.3677 -5.6728163e+21 1.6283838e-314 577.6189 422.41132
4712.3682 -5.7042514e+21 1.6283872e-314 579.90601 422.23071
6452.3487 -5.7373078e+21 1.6283908e-314 582.14966 422.01904
8015.9541 -5.779439e+21 1.6283955e-314 584.23114 421.78983
11242.541 -5.8175124e+21 1.6283996e-314 586.16376 421.47024
14279.643 -5.8405348e+21 1.6284022e-314 588.07465 421.2988
18668.91 -5.8623007e+21 1.6284045e-314 590.01917 421.09729
24497.692 -5.8979422e+21 1.6284085e-314 591.84888 420.86584
30414.285 -5.9268644e+21 1.6284116e-314 593.87482 420.72092
40989.508 -5.9703286e+21 1.6284164e-314 595.92737 420.45373
53786.727 -6.0067042e+21 1.6284204e-314 598.05841 420.25351
68174.516 -6.0449262e+21 1.6284246e-314 600.03656 419.97977
100489.02 -6.0807839e+21 1.6284285e-314 602.17517 419.59662
122978.33 -6.1194518e+21 1.6284328e-314 604.03027 419.38397
142941.91 -6.1562687e+21 1.6284368e-314 605.96399 419.27673
167638.53 -6.1798811e+21 1.6284394e-314 607.67029 419.02493
186907.41 -6.2147074e+21 1.6284432e-314 609.38385 418.87579
208532.91 -6.2400177e+21 1.628446e-314 611.09137 418.70279
240063.66 -6.2512316e+21 1.6284472e-314 612.94159 418.36298
258546.16 -6.3049506e+21 1.6284531e-314 615.24072 418.33774
280517.81 -6.3912801e+21 1.6284626e-314 616.59949 418.02209
371431.81 -6.3662671e+21 1.6284598e-314 618.94488 417.61597
402330.81 -6.4070697e+21 1.6284643e-314 620.74676 417.57629
440567.06 -6.4551816e+21 1.6284696e-314 622.35931 417.34051
525441.63 -6.4097268e+21 1.6284646e-314 624.35864 417.00409
562351.63 -6.5159082e+21 1.6284762e-314 625.86365 416.75201
688023.13 -6.5142103e+21 1.6284761e-314 627.5365 416.41483
762629.63 -6.5566387e+21 1.6284807e-314 629.20691 416.23724
847878.63 -6.6055568e+21 1.6284861e-314 630.91107 415.9686
929353.13 -6.6701204e+21 1.6284932e-314 632.81201 415.7208
1079404.3 -6.6277686e+21 1.6284885e-314 634.63544 415.54559
1158362.3 -6.7305542e+21 1.6284998e-314 636.37531 415.37457
1391565.3 -6.7653085e+21 1.6285036e-314 638.06921 414.94733
1590900.3 -6.7711362e+21 1.6285042e-314 639.81177 414.77969
1693450.3 -6.8451438e+21 1.6285124e-314 641.40039 414.60635
1912603.3 -6.8420453e+21 1.628512e-314 642.97662 414.35489
2011378.3 -6.916053e+21 1.6285201e-314 644.46771 414.16608
2304140.5 -6.9381927e+21 1.6285226e-314 645.95026 413.88086
2648912.5 -6.9517665e+21 1.6285241e-314 647.57526 413.73615
2906024.5 -7.0218651e+21 1.6285318e-314 649.1792 413.49902
3378302.5 -7.0361055e+21 1.6285333e-314 650.95105 413.17602
3720976.5 -7.0843615e+21 1.6285386e-314 652.61224 412.90106
4095528.5 -7.1141708e+21 1.6285419e-314 654.30542 412.6582
4626737 -7.1573378e+21 1.6285466e-314 655.85297 412.41769
5264693 -7.1940827e+21 1.6285506e-314 657.31091 412.16962
5968497 -7.2201315e+21 1.6285535e-314 658.72522 411.89481
6532209 -7.2562144e+21 1.6285575e-314 660.09821 411.68796
7150033 -7.2885322e+21 1.628561e-314 661.54437 411.47314
7770369 -7.3166437e+21 1.6285641e-314 663.05261 411.29282
8658722.1 -7.3556043e+21 1.6285684e-314 664.57953 410.95883
9870874.1 -7.4044504e+21 1.6285737e-314 666.18854 410.73883
11243250 -7.4409746e+21 1.6285777e-314 667.74005 410.48209
12681058 -7.4775753e+21 1.6285817e-314 669.31653 410.20459
13866370 -7.5200758e+21 1.6285864e-314 670.7876 409.98062
15208546 -7.5568927e+21 1.6285904e-314 672.11554 409.66724
16226922 -7.5885485e+21 1.6285939e-314 673.44397 409.51502
18384484 -7.6184344e+21 1.6285972e-314 674.70801 409.20468
20788660 -7.6482437e+21 1.6286005e-314 676.03613 408.98074
23159268 -7.6937706e+21 1.6286055e-314 677.38611 408.71139
25712772 -7.7314027e+21 1.6286096e-314 678.83948 408.46317
28061572 -7.7771503e+21 1.6286146e-314 680.33771 408.24457
30752644 -7.8192049e+21 1.6286192e-314 681.79535 407.95123
33005828 -7.8642183e+21 1.6286242e-314 683.14477 407.71173
35498920 -7.9048003e+21 1.6286286e-314 684.49866 407.43619
37919880 -7.9409552e+21 1.6286326e-314 685.73816 407.16089
40213320 -7.9763715e+21 1.6286365e-314 686.92895 406.90045
42149416 -8.0110537e+21 1.6286403e-314 688.08588 406.7077
44540168 -8.0398317e+21 1.6286434e-314 689.29211 406.457
46991304 -8.0767252e+21 1.6286475e-314 690.58582 406.19247
48771368 -8.1372311e+21 1.6286541e-314 691.8161 405.9602
51366824 -8.1829786e+21 1.6286591e-314 693.1214 405.63492
54524296 -8.202898e+21 1.6286613e-314 694.48901 405.3038
56799272 -8.24348e+21 1.6286658e-314 695.81726 405.07535
58931656 -8.3017746e+21 1.6286722e-314 696.95544 404.75211
60872776 -8.3335024e+21 1.6286756e-314 698.1015 404.57074
63050472 -8.3726072e+21 1.6286799e-314 699.19074 404.29623
64879176 -8.4109779e+21 1.6286841e-314 700.19818 404.07294
66929352 -8.4486099e+21 1.6286883e-314 701.19769 403.8056
71376977 -8.4773879e+21 1.6286914e-314 702.35541 403.56079
75819601 -8.5223969e+21 1.6286964e-314 703.47528 403.26617
80154833 -8.5814256e+21 1.6287028e-314 704.64502 402.94934
84842385 -8.6153692e+21 1.6287066e-314 705.82788 402.6897
89795025 -8.6603782e+21 1.6287115e-314 706.96014 402.34638
93871889 -8.6987489e+21 1.6287157e-314 707.99969 402.09183
97166929 -8.7533505e+21 1.6287217e-314 708.88892 401.81906
1.0060629e+08 -8.7961482e+21 1.6287264e-314 709.79431 401.57977
1.0452546e+08 -8.8263989e+21 1.6287297e-314 710.67242 401.32269
1.0872309e+08 -8.8655082e+21 1.628734e-314 711.5896 401.02106
1.1162888e+08 -8.9119943e+21 1.6287391e-314 712.48584 400.82223
1.1470587e+08 -8.966596e+21 1.6287451e-314 713.39948 400.58588
1.1939342e+08 -9.0064393e+21 1.6287495e-314 714.37427 400.24591
1.2387624e+08 -9.04481e+21 1.6287537e-314 715.29175 399.91672
1.2811086e+08 -9.1001502e+21 1.6287597e-314 716.15137 399.54016
1.3141595e+08 -9.1488476e+21 1.6287651e-314 716.96661 399.27182
1.3617066e+08 -9.1886955e+21 1.6287695e-314 717.71863 398.96365
1.4147895e+08 -9.234443e+21 1.6287745e-314 718.39386 398.73337
1.4635779e+08 -9.2801906e+21 1.6287795e-314 719.03149 398.51416
1.5512887e+08 -9.3229838e+21 1.6287842e-314 719.68133 398.10467
1.6159146e+08 -9.3672587e+21 1.6287891e-314 720.34613 397.81827
1.6602064e+08 -9.4159561e+21 1.6287944e-314 721.03204 397.62973
1.7307383e+08 -9.4705589e+21 1.628799e-314 721.66333 397.267
