# .PCD v0.7 - Point Cloud Data file format
VERSION 0.7
FIELDS x y z p_x p_y
SIZE 8 8 8 8 8
TYPE F F F F F
COUNT 1 1 1 1 1
WIDTH 753
HEIGHT 1
VIEWPOINT 0 0 0 1 0 0 0
POINTS 753
DATA ascii
7.9179979e+11 -7.6467666e+21 1.6286003e-314 540.43909 246.93533
8.0579094e+11 -7.6264733e+21 1.6285981e-314 542.56897 246.69125
8.1838015e+11 -7.600357e+21 1.6285952e-314 544.46973 246.26393
7.7970499e+11 -7.5417696e+21 1.6285888e-314 546.22375 246.07451
7.8129935e+11 -7.5258314e+21 1.628587e-314 547.61182 246.00832
7.4291256e+11 -7.4719638e+21 1.6285811e-314 548.82989 245.78804
7.7448256e+11 -7.4752109e+21 1.6285815e-314 550.39612 245.61505
7.2593874e+11 -7.4031939e+21 1.6285736e-314 552.30365 245.33804
7.3734619e+11 -7.3826845e+21 1.6285713e-314 553.95575 245.01251
7.2262681e+11 -7.3524293e+21 1.628568e-314 555.78827 245.05775
7.0628528e+11 -7.3024754e+21 1.6285625e-314 557.76849 244.67055
6.9831348e+11 -7.2689776e+21 1.6285589e-314 559.85577 244.55476
7.0647769e+11 -7.2474324e+21 1.6285565e-314 561.87677 244.37672
6.83333e+11 -7.2021262e+21 1.6285515e-314 563.37433 244.12427
6.7942967e+11 -7.1768925e+21 1.6285488e-314 564.24634 243.79845
6.5826416e+11 -7.1446467e+21 1.6285452e-314 564.95013 243.62459
5.9858813e+11 -7.076764e+21 1.6285378e-314 566.09149 243.49216
5.7424754e+11 -7.028062e+21 1.6285324e-314 567.56988 243.17625
5.7306579e+11 -7.0065889e+21 1.6285301e-314 569.13257 243.08046
5.8349703e+11 -6.9871829e+21 1.6285279e-314 570.78046 242.80624
5.4748126e+11 -6.9376748e+21 1.6285225e-314 572.50037 242.84264
5.3563392e+11 -6.8879415e+21 1.6285171e-314 574.15039 242.53542
5.265218e+11 -6.8514894e+21 1.6285131e-314 575.51428 242.37318
5.1498379e+11 -6.8055932e+21 1.628508e-314 577.02466 242.11379
4.996869e+11 -6.7521715e+21 1.6285022e-314 578.53235 241.82722
4.7870673e+11 -6.5907265e+21 1.6284845e-314 586.86383 240.89656
4.7701643e+11 -6.55826e+21 1.6284809e-314 588.89038 240.69624
4.6592511e+11 -6.5107426e+21 1.6284757e-314 590.64569 240.44775
4.7322976e+11 -6.4985693e+21 1.6284743e-314 592.14948 240.2299
4.463537e+11 -6.4288401e+21 1.6284667e-314 593.59992 240.02156
4.4666303e+11 -6.397405e+21 1.6284632e-314 595.1842 239.63988
4.4999593e+11 -6.3777783e+21 1.6284611e-314 596.87817 239.45825
4.665228e+11 -6.3744591e+21 1.6284607e-314 599.13165 239.26849
4.0947869e+11 -6.2705656e+21 1.6284493e-314 601.42316 239.73695
4.3898693e+11 -6.2918901e+21 1.6284517e-314 603.10443 239.45369
4.2976471e+11 -6.2505696e+21 1.6284471e-314 604.42847 239.1667
4.3412154e+11 -6.2400177e+21 1.628446e-314 605.73334 239.06448
4.186941e+11 -6.1746434e+21 1.6284388e-314 606.9859 238.41772
4.2409532e+11 -6.1201859e+21 1.6284328e-314 610.22583 237.68553
4.2733909e+11 -6.1163533e+21 1.6284324e-314 611.93543 237.91199
4.0980192e+11 -6.0678e+21 1.6284271e-314 612.98358 237.73143
4.0460649e+11 -6.0327485e+21 1.6284232e-314 614.27667 237.42297
4.0241444e+11 -6.0017592e+21 1.6284198e-314 615.6167 237.09796
3.8439623e+11 -5.9135833e+21 1.6284102e-314 619.63196 236.7448
3.9322655e+11 -5.9052471e+21 1.6284093e-314 621.31714 236.60805
3.8719305e+11 -5.8734427e+21 1.6284058e-314 623.51679 236.6646
3.7533889e+11 -5.823786e+21 1.6284003e-314 625.02069 236.33624
3.5863324e+11 -5.763798e+21 1.6283937e-314 625.7998 235.76204
4.0178922e+11 -5.7964131e+21 1.6283973e-314 626.94574 235.01617
3.2001288e+11 -5.6226417e+21 1.6283782e-314 629.49664 234.89433
3.0217345e+11 -5.5842756e+21 1.628374e-314 631.18329 235.16119
3.5472992e+11 -5.6637416e+21 1.6283828e-314 633.15924 235.40913
3.3177082e+11 -5.6030871e+21 1.6283761e-314 634.91821 235.35768
3.4090366e+11 -5.5962281e+21 1.6283754e-314 636.70966 235.27272
3.3072618e+11 -5.5481927e+21 1.6283701e-314 638.3504 234.9536
3.3957039e+11 -5.528566e+21 1.6283679e-314 640.09564 234.54822
3.3082238e+11 -5.4761036e+21 1.6283622e-314 641.55988 234.00806
9.8164396e+11 -7.9977726e+21 1.6286388e-314 523.78772 247.31348
1.0051598e+12 -7.9859642e+21 1.6286375e-314 525.61151 246.98097
1.0171723e+12 -7.9630904e+21 1.628635e-314 527.33813 246.60628
9.6568725e+11 -7.8981575e+21 1.6286279e-314 528.93494 246.47795
9.7118493e+11 -7.8819265e+21 1.6286261e-314 530.90088 246.49426
9.7888148e+11 -7.8620026e+21 1.6286239e-314 532.81256 246.32259
9.5748214e+11 -7.8169936e+21 1.628619e-314 534.35046 246.04475
9.1086298e+11 -7.7513221e+21 1.6286118e-314 535.35358 245.63231
9.0316643e+11 -7.7262371e+21 1.628609e-314 536.26679 245.40167
8.9339475e+11 -7.6952433e+21 1.6286056e-314 537.75653 245.22218
8.6306154e+11 -7.6438888e+21 1.6286e-314 539.82825 245.12924
8.7198178e+11 -7.6179165e+21 1.6285971e-314 542.11401 244.89061
8.7539018e+11 -7.5897285e+21 1.628594e-314 544.05457 244.62157
8.3773162e+11 -7.5285606e+21 1.6285873e-314 545.45148 244.24475
8.2470254e+11 -7.5062047e+21 1.6285849e-314 546.8457 244.33662
8.0240981e+11 -7.4587593e+21 1.6285797e-314 548.40125 244.02319
8.0860847e+11 -7.4345569e+21 1.628577e-314 550.26892 243.77679
8.1711609e+11 -7.4157409e+21 1.628575e-314 552.30023 243.66412
7.9773683e+11 -7.3727225e+21 1.6285702e-314 554.2912 243.52563
7.9244572e+11 -7.3446111e+21 1.6285672e-314 555.81885 243.33524
8.1451824e+11 -7.3296321e+21 1.6285655e-314 557.29437 242.8705
7.690263e+11 -7.2609342e+21 1.628558e-314 559.42517 242.67899
7.6380334e+11 -7.2237479e+21 1.6285539e-314 561.44922 242.39055
7.4300903e+11 -7.1770411e+21 1.6285488e-314 563.35175 242.16475
7.1517772e+11 -7.1193365e+21 1.6285424e-314 565.02557 241.7455
7.0257437e+11 -7.0901937e+21 1.6285392e-314 566.16742 241.58519
6.4867074e+11 -7.0231216e+21 1.6285319e-314 567.69611 241.45708
6.6053171e+11 -7.0082147e+21 1.6285303e-314 569.42096 241.28871
6.3807436e+11 -6.9687361e+21 1.6285259e-314 571.10724 241.2287
6.2125153e+11 -6.9302934e+21 1.6285217e-314 572.8833 241.09676
6.092532e+11 -6.8939178e+21 1.6285177e-314 574.60028 240.89606
5.8980578e+11 -6.8419733e+21 1.628512e-314 576.20551 240.42964
5.6825545e+11 -6.8070704e+21 1.6285082e-314 577.65704 240.40289
5.6303249e+11 -6.7729061e+21 1.6285044e-314 579.26471 240.08414
5.3413603e+11 -6.719043e+21 1.6284985e-314 580.75269 240.08371
5.3296765e+11 -6.700155e+21 1.6284965e-314 582.53742 240.14108
5.2812297e+11 -6.6581679e+21 1.6284919e-314 584.07874 239.7016
5.2782072e+11 -6.6296871e+21 1.6284887e-314 585.63971 239.41287
5.32198e+11 -6.6016477e+21 1.6284857e-314 587.39063 238.98482
5.0372759e+11 -6.528158e+21 1.6284776e-314 589.05078 238.80638
5.095e+11 -6.5111119e+21 1.6284757e-314 590.78644 238.59454
4.9858747e+11 -6.4705299e+21 1.6284713e-314 592.28778 238.44702
4.9958388e+11 -6.4469175e+21 1.6284687e-314 593.86096 238.23242
4.8531774e+11 -6.3935679e+21 1.6284628e-314 595.34534 237.90071
4.9584544e+11 -6.3829439e+21 1.6284617e-314 596.99725 237.62331
4.930966e+11 -6.3531346e+21 1.6284584e-314 598.7666 237.4669
4.5892246e+11 -6.2897509e+21 1.6284514e-314 600.39868 237.79146
4.6558826e+11 -6.2473991e+21 1.6284468e-314 603.43585 237.25291
4.604138e+11 -6.1976658e+21 1.6284413e-314 605.09949 236.66978
4.7293432e+11 -6.142177e+21 1.6284352e-314 610.38184 236.15626
4.6347852e+11 -6.106612e+21 1.6284313e-314 611.9715 236.09863
4.4989973e+11 -6.0616751e+21 1.6284264e-314 613.18005 235.8833
4.4167391e+11 -6.0269974e+21 1.6284226e-314 614.30896 235.66978
4.3190878e+11 -5.9837538e+21 1.6284179e-314 615.90973 235.43797
4.1718232e+11 -5.9360877e+21 1.6284126e-314 618.15576 235.48555
4.230027e+11 -5.9189696e+21 1.6284108e-314 619.42975 235.14456
4.0695687e+11 -5.8589816e+21 1.6284042e-314 621.09692 234.78332
4.2446651e+11 -5.8556625e+21 1.6284038e-314 623.45306 234.57489
4.1564983e+11 -5.8228267e+21 1.6284002e-314 625.26849 234.62344
4.212023e+11 -5.7985523e+21 1.6283975e-314 626.36914 234.06839
4.4781752e+11 -5.8189897e+21 1.6283998e-314 627.61481 233.76125
3.5407718e+11 -5.6389493e+21 1.62838e-314 629.60339 233.85124
3.5583643e+11 -5.6302438e+21 1.6283791e-314 631.31201 234.01773
3.7652772e+11 -5.6431556e+21 1.6283805e-314 633.29181 233.9783
3.6846023e+11 -5.599178e+21 1.6283757e-314 634.98975 233.6843
3.7577877e+11 -5.5764528e+21 1.6283732e-314 636.70538 233.258
3.8234155e+11 -5.5476748e+21 1.62837e-314 638.38043 232.70349
3.8761903e+11 -5.5138798e+21 1.6283663e-314 640.04688 232.0752
1.0758035e+12 -8.042043e+21 1.6286437e-314 522.53546 246.05528
1.065097e+12 -7.9977726e+21 1.6286388e-314 524.56628 245.6863
1.0497175e+12 -7.9579248e+21 1.6286344e-314 526.27496 245.46521
1.0656878e+12 -7.9402166e+21 1.6286325e-314 527.92664 245.10936
1.0518891e+12 -7.9018504e+21 1.6286283e-314 529.34662 244.80557
1.0606578e+12 -7.8848764e+21 1.6286264e-314 530.77167 244.55591
1.0262845e+12 -7.8310133e+21 1.6286205e-314 532.34625 244.34961
1.0129938e+12 -7.7992855e+21 1.628617e-314 533.88355 244.23996
9.7643515e+11 -7.7491109e+21 1.6286115e-314 534.99652 244.04758
9.4951087e+11 -7.7063132e+21 1.6286068e-314 536.02387 243.79629
9.3909327e+11 -7.6627048e+21 1.6286021e-314 537.67035 243.35268
9.2305372e+11 -7.6196864e+21 1.6285973e-314 540.16663 243.27867
9.8013243e+11 -7.6396103e+21 1.6285995e-314 542.35645 243.15021
9.3821351e+11 -7.5821309e+21 1.6285932e-314 544.07227 243.05037
9.0649251e+11 -7.5342396e+21 1.628588e-314 545.42493 242.87805
9.0291897e+11 -7.5042862e+21 1.6285847e-314 546.57861 242.49747
8.8891418e+11 -7.4629657e+21 1.6285801e-314 548.17908 242.17619
8.9556635e+11 -7.4419338e+21 1.6285778e-314 550.22516 242.0507
8.7910109e+11 -7.4017933e+21 1.6285734e-314 552.26611 241.93506
8.6700629e+11 -7.3598828e+21 1.6285688e-314 554.30444 241.67815
8.5590134e+11 -7.3260157e+21 1.6285651e-314 556.07929 241.53499
8.897111e+11 -7.3312534e+21 1.6285657e-314 557.35217 241.28047
8.5565388e+11 -7.2787189e+21 1.6285599e-314 558.55151 240.99893
8.1078007e+11 -7.2146687e+21 1.6285529e-314 560.7713 240.94122
7.7367149e+11 -7.1539422e+21 1.6285462e-314 562.68231 240.71231
7.5279434e+11 -7.1127702e+21 1.6285417e-314 563.94586 240.45592
7.4610128e+11 -7.0913736e+21 1.6285394e-314 564.85547 240.30106
7.295946e+11 -7.0510844e+21 1.628535e-314 566.12616 239.97519
7.1218142e+11 -7.0125697e+21 1.6285307e-314 567.81 239.82875
7.2166474e+11 -6.9934564e+21 1.6285286e-314 569.42157 239.57396
6.8577932e+11 -6.9407733e+21 1.6285229e-314 571.07636 239.45927
6.6418757e+11 -6.8927379e+21 1.6285176e-314 572.8844 239.19426
7.0885534e+11 -6.9086761e+21 1.6285193e-314 574.9054 239.18062
6.4281602e+11 -6.8306107e+21 1.6285108e-314 576.49164 239.05879
6.4799756e+11 -6.8055212e+21 1.628508e-314 578.2002 238.77017
6.2552605e+11 -6.7703976e+21 1.6285042e-314 579.45563 238.70605
5.8085828e+11 -6.704582e+21 1.6284969e-314 580.88531 238.38902
5.8661706e+11 -6.6790511e+21 1.6284941e-314 582.4602 238.04161
5.9758464e+11 -6.6606764e+21 1.6284921e-314 584.1897 237.80659
5.8417074e+11 -6.6234902e+21 1.628488e-314 585.84216 237.6012
5.6531419e+11 -6.577594e+21 1.628483e-314 587.54688 237.30722
5.5331586e+11 -6.5393719e+21 1.6284788e-314 589.14838 237.03317
5.5536321e+11 -6.520038e+21 1.6284767e-314 590.87183 236.96571
5.4188055e+11 -6.475029e+21 1.6284718e-314 592.36816 236.69423
5.3742751e+11 -6.4363656e+21 1.6284675e-314 593.90112 236.3225
5.3928978e+11 -6.4025706e+21 1.6284638e-314 595.6275 235.85324
5.4238229e+11 -6.3869296e+21 1.6284621e-314 597.62244 235.86465
5.139048e+11 -6.3166825e+21 1.6284544e-314 598.92914 235.67665
5.1433105e+11 -6.2972764e+21 1.6284523e-314 600.11585 235.48984
4.9102828e+11 -6.2313843e+21 1.628445e-314 601.70148 235.26682
4.988829e+11 -6.2188417e+21 1.6284437e-314 603.48901 235.0929
4.8638965e+11 -6.1712477e+21 1.6284384e-314 605.04804 234.85432
5.0887479e+11 -6.1534675e+21 1.6284365e-314 608.88068 234.46651
4.9564621e+11 -6.1280086e+21 1.6284337e-314 610.34344 234.79611
4.9555682e+11 -6.1032929e+21 1.628431e-314 612.01764 234.62942
4.8641036e+11 -6.0631523e+21 1.6284266e-314 613.29712 234.36064
4.7676215e+11 -6.0228631e+21 1.6284222e-314 614.51062 234.09096
4.7953143e+11 -6.0057449e+21 1.6284203e-314 616.22217 234.00205
4.5934163e+11 -5.9400734e+21 1.6284131e-314 618.02484 233.71338
4.7141572e+11 -5.941402e+21 1.6284132e-314 619.27429 233.55859
4.5189936e+11 -5.8577296e+21 1.628404e-314 621.84644 232.99767
4.5077922e+11 -5.8461419e+21 1.6284028e-314 623.49622 233.20152
4.5596757e+11 -5.8161119e+21 1.6283995e-314 625.33105 232.71481
4.6219349e+11 -5.8067399e+21 1.6283984e-314 626.39825 232.49698
4.3388797e+11 -5.7394471e+21 1.6283911e-314 627.61395 232.36642
4.0743109e+11 -5.6804905e+21 1.6283846e-314 629.87207 232.64545
4.1148541e+11 -5.6643315e+21 1.6283828e-314 631.54614 232.51604
3.9749426e+11 -5.608032e+21 1.6283766e-314 633.20807 232.16077
4.2298225e+11 -5.6037536e+21 1.6283762e-314 634.98352 231.42246
1.2032234e+12 -8.0324503e+21 1.6286426e-314 522.63843 244.1723
1.2453342e+12 -8.017692e+21 1.628641e-314 524.73108 243.89121
1.2113048e+12 -7.9778487e+21 1.6286366e-314 526.55151 243.74155
1.2038557e+12 -7.9483321e+21 1.6286334e-314 528.22925 243.5047
1.1543503e+12 -7.8988961e+21 1.628628e-314 529.74152 243.18945
1.0997048e+12 -7.8524099e+21 1.6286229e-314 531.1192 242.94987
1.119028e+12 -7.8354404e+21 1.628621e-314 532.34253 242.63747
1.0835e+12 -7.7985469e+21 1.628617e-314 533.33227 242.51276
1.0236043e+12 -7.733614e+21 1.6286098e-314 534.39789 242.44128
1.0350254e+12 -7.7144286e+21 1.6286077e-314 535.82587 242.07796
9.8624825e+11 -7.6318641e+21 1.6285987e-314 538.4386 241.72954
1.0159628e+12 -7.6349626e+21 1.628599e-314 540.64069 241.76813
1.0059845e+12 -7.5982133e+21 1.628595e-314 542.80133 241.62999
1.007634e+12 -7.5730516e+21 1.6285922e-314 544.57324 241.43034
9.8473673e+11 -7.5233229e+21 1.6285868e-314 545.95667 241.02541
9.6060218e+11 -7.4827365e+21 1.6285823e-314 547.00409 240.79138
9.7250457e+11 -7.4676134e+21 1.6285807e-314 548.28851 240.49327
9.3340317e+11 -7.4079902e+21 1.6285741e-314 549.94507 240.26401
9.1633287e+11 -7.3682955e+21 1.6285698e-314 552.2088 240.23546
9.2554147e+11 -7.3511007e+21 1.6285679e-314 554.26105 240.15536
9.0093978e+11 -7.2917793e+21 1.6285614e-314 556.16388 239.68574
9.4929119e+11 -7.3113295e+21 1.6285635e-314 557.38879 239.46834
9.1909587e+11 -7.2720761e+21 1.6285592e-314 558.20489 239.34193
8.5032135e+11 -7.1962985e+21 1.6285509e-314 559.59113 239.2746
8.2708018e+11 -7.1532036e+21 1.6285462e-314 561.55212 239.21219
8.206068e+11 -7.1195572e+21 1.6285425e-314 563.26666 238.96043
8.2372684e+11 -7.0887165e+21 1.6285391e-314 564.58282 238.45955
8.0051346e+11 -7.0428924e+21 1.6285341e-314 566.12402 238.21312
8.133365e+11 -7.0222344e+21 1.6285318e-314 567.83185 237.87021
7.7302557e+11 -6.9632778e+21 1.6285253e-314 569.39136 237.66623
7.9788835e+11 -6.9590714e+21 1.6285249e-314 571.18756 237.50617
7.7962268e+11 -6.9167195e+21 1.6285202e-314 573.00635 237.31853
7.2771188e+11 -6.8577629e+21 1.6285137e-314 574.64703 237.39267
7.294436e+11 -6.8381362e+21 1.6285116e-314 576.3692 237.32231
7.1751395e+11 -6.8005042e+21 1.6285075e-314 578.09924 237.09439
7.0383895e+11 -6.7603636e+21 1.6285031e-314 579.22375 236.67319
7.1174154e+11 -6.7298157e+21 1.6284997e-314 581.07196 236.22565
6.8654898e+11 -6.6820775e+21 1.6284945e-314 582.67621 235.99423
7.1571355e+11 -6.6755833e+21 1.6284938e-314 584.51343 235.69371
6.7357495e+11 -6.616406e+21 1.6284873e-314 586.12091 235.54268
6.4340689e+11 -6.5694785e+21 1.6284821e-314 587.72229 235.44394
6.4342052e+11 -6.5428397e+21 1.6284792e-314 589.35577 235.20895
6.5484161e+11 -6.5162009e+21 1.6284763e-314 591.11908 234.76309
6.2318982e+11 -6.4664722e+21 1.6284708e-314 592.86047 234.66295
5.8711199e+11 -6.4127532e+21 1.6284649e-314 594.50818 234.53326
5.8256274e+11 -6.3915773e+21 1.6284626e-314 596.13226 234.53696
5.4678028e+11 -6.3420647e+21 1.6284572e-314 597.69617 234.55183
5.5277952e+11 -6.3196323e+21 1.6284547e-314 599.27747 234.21658
5.454402e+11 -6.2811175e+21 1.6284505e-314 600.51794 233.83214
5.2136778e+11 -6.215374e+21 1.6284433e-314 601.78809 233.56047
5.3573721e+11 -6.2107263e+21 1.6284428e-314 603.4928 233.28008
5.2745634e+11 -6.1276394e+21 1.6284336e-314 608.79364 232.97861
5.3298836e+11 -6.1299272e+21 1.6284339e-314 610.48566 233.25447
5.3595007e+11 -6.097758e+21 1.6284304e-314 612.19958 232.77615
5.2254979e+11 -6.0565095e+21 1.6284258e-314 613.37738 232.63754
5.0233954e+11 -6.0005793e+21 1.6284197e-314 614.5293 232.41844
5.1196704e+11 -5.9819119e+21 1.6284177e-314 616.14587 231.96468
4.989584e+11 -5.9403707e+21 1.6284131e-314 617.95386 231.97449
4.9594165e+11 -5.9135833e+21 1.6284102e-314 619.06116 231.73172
4.6828886e+11 -5.8062265e+21 1.6283984e-314 623.46149 231.42412
4.759786e+11 -5.7901396e+21 1.6283966e-314 625.22022 231.15982
4.9256078e+11 -5.7962645e+21 1.6283973e-314 626.3797 230.90295
4.5086179e+11 -5.7095657e+21 1.6283878e-314 627.8006 230.92549
4.3678781e+11 -5.6694972e+21 1.6283834e-314 629.71869 231.04973
4.6610363e+11 -5.6750321e+21 1.628384e-314 631.59143 230.41803
4.5021561e+11 -5.617994e+21 1.6283777e-314 632.88635 230.02918
4.3744762e+11 -5.573575e+21 1.6283729e-314 634.10083 229.79797
1.4029499e+12 -8.0331889e+21 1.6286427e-314 522.5094 241.94714
1.4252426e+12 -8.0184306e+21 1.6286411e-314 524.65204 241.91745
1.3648236e+12 -7.9704718e+21 1.6286358e-314 526.52112 241.8408
1.354599e+12 -7.9372667e+21 1.6286322e-314 528.30829 241.58583
1.3146042e+12 -7.9011119e+21 1.6286282e-314 529.85718 241.52061
1.2906348e+12 -7.8605299e+21 1.6286238e-314 531.47852 241.17696
1.2286765e+12 -7.8081395e+21 1.628618e-314 532.76666 240.84204
1.183377e+12 -7.7697689e+21 1.6286138e-314 533.62805 240.57855
1.1666921e+12 -7.7424681e+21 1.6286108e-314 534.53925 240.30058
1.2045425e+12 -7.7306641e+21 1.6286095e-314 536.17895 240.03192
1.1335696e+12 -7.6686811e+21 1.6286027e-314 539.02771 239.9891
1.0994017e+12 -7.6288377e+21 1.6285983e-314 540.9696 239.86778
1.1421732e+12 -7.6177679e+21 1.6285971e-314 543.0625 239.68744
1.089025e+12 -7.5661927e+21 1.6285915e-314 544.77582 239.52112
1.0861387e+12 -7.5418417e+21 1.6285888e-314 545.96423 239.28229
1.0422134e+12 -7.4799352e+21 1.628582e-314 547.33826 239.02155
1.0384202e+12 -7.4487208e+21 1.6285786e-314 548.54346 238.62843
9.923646e+11 -7.3902821e+21 1.6285722e-314 549.96027 238.51743
1.0392585e+12 -7.4024598e+21 1.6285735e-314 551.99811 238.36531
9.843928e+11 -7.3228407e+21 1.6285648e-314 554.1579 238.10612
9.991536e+11 -7.3083796e+21 1.6285632e-314 556.24011 237.98245
9.5271322e+11 -7.2465452e+21 1.6285564e-314 557.4071 237.72559
9.5746851e+11 -7.2273598e+21 1.6285543e-314 558.32904 237.38036
9.4351878e+11 -7.1911329e+21 1.6285503e-314 559.54462 237.08667
9.0225941e+11 -7.1392604e+21 1.6285446e-314 561.09436 237.08048
9.0006055e+11 -7.111149e+21 1.6285415e-314 562.85083 236.88856
9.0977718e+11 -7.0741068e+21 1.6285375e-314 565.16681 236.35834
9.0947466e+11 -7.0566194e+21 1.6285356e-314 566.68005 236.33052
8.9743544e+11 -7.0203879e+21 1.6285316e-314 568.21728 236.08578
8.8183577e+11 -6.9799546e+21 1.6285272e-314 569.76544 235.81517
8.4485092e+11 -6.9281542e+21 1.6285215e-314 571.26697 235.70729
8.4245965e+11 -6.8978269e+21 1.6285181e-314 572.88635 235.42493
8.4588167e+11 -6.8765024e+21 1.6285158e-314 574.53339 235.25577
8.09818e+11 -6.8193202e+21 1.6285095e-314 576.06067 234.9988
7.9162101e+11 -6.7743112e+21 1.6285046e-314 577.79077 234.7193
7.6329478e+11 -6.7286357e+21 1.6284996e-314 579.50403 234.63878
7.8873481e+11 -6.714026e+21 1.628498e-314 581.50275 234.25639
7.942047e+11 -6.6987498e+21 1.6284963e-314 583.28107 234.23206
7.6788545e+11 -6.6485752e+21 1.6284908e-314 584.95996 233.98521
7.7571936e+11 -6.6307185e+21 1.6284888e-314 586.67993 233.82721
7.1439391e+11 -6.5562694e+21 1.6284807e-314 588.2088 233.68805
7.2008401e+11 -6.5342063e+21 1.6284783e-314 590.03357 233.49896
6.8039174e+11 -6.4834417e+21 1.6284727e-314 591.5614 233.49185
6.5864899e+11 -6.4447018e+21 1.6284684e-314 593.14496 233.41319
6.5462194e+11 -6.4172523e+21 1.6284654e-314 594.63379 233.2083
6.6365175e+11 -6.4052277e+21 1.6284641e-314 595.99933 233.07729
6.3098231e+11 -6.3468611e+21 1.6284577e-314 597.42779 232.69815
6.4177111e+11 -6.3208888e+21 1.6284549e-314 599.48096 232.36183
6.4093278e+11 -6.2878324e+21 1.6284512e-314 601.0459 231.9655
6.0919815e+11 -6.244742e+21 1.6284465e-314 602.0625 231.84427
6.0381056e+11 -6.2146354e+21 1.6284432e-314 603.53381 231.59792
6.3477554e+11 -6.1832768e+21 1.6284398e-314 607.03033 231.07648
5.8487171e+11 -6.1301479e+21 1.6284339e-314 608.74493 231.28888
5.9949515e+11 -6.1224017e+21 1.6284331e-314 610.69739 231.3016
5.7085277e+11 -6.0703806e+21 1.6284274e-314 612.23614 231.03081
5.6201537e+11 -6.0394634e+21 1.628424e-314 613.43555 230.767
5.4785927e+11 -6.0050784e+21 1.6284202e-314 614.51074 230.54065
5.4872513e+11 -5.9754177e+21 1.628417e-314 616.09723 230.18396
5.3655483e+11 -5.9307014e+21 1.628412e-314 617.93317 230.08514
5.4570156e+11 -5.9179382e+21 1.6284106e-314 619.18268 229.70329
5.2596526e+11 -5.848137e+21 1.628403e-314 621.88452 229.53696
5.1707989e+11 -5.8203903e+21 1.6283999e-314 623.52661 229.66991
5.2312703e+11 -5.8046772e+21 1.6283982e-314 625.03778 229.41908
5.205706e+11 -5.7804749e+21 1.6283956e-314 626.19037 229.23439
5.1771874e+11 -5.7505169e+21 1.6283923e-314 627.86877 229.05884
5.0605726e+11 -5.6985679e+21 1.6283866e-314 629.50806 228.70439
5.0209207e+11 -5.6684658e+21 1.6283833e-314 630.98474 228.52054
4.7881001e+11 -5.6055956e+21 1.6283764e-314 632.34259 228.32495
4.693128e+11 -5.5622124e+21 1.6283716e-314 633.82257 228.05106
1.6262326e+12 -8.0545855e+21 1.628645e-314 521.94495 239.90483
1.529751e+12 -7.9815371e+21 1.628637e-314 524.19214 239.67389
1.5282662e+12 -7.9630904e+21 1.628635e-314 526.36774 239.8092
1.4769741e+12 -7.91882e+21 1.6286302e-314 528.15369 239.71156
1.4457758e+12 -7.8811879e+21 1.628626e-314 529.85602 239.54541
1.4721643e+12 -7.864957e+21 1.6286242e-314 531.56494 239.30527
1.4232084e+12 -7.8169936e+21 1.628619e-314 533.11292 239.03354
1.342834e+12 -7.7594376e+21 1.6286127e-314 534.2616 238.73505
1.3369514e+12 -7.738041e+21 1.6286103e-314 535.23285 238.50656
1.3144668e+12 -7.7070517e+21 1.6286069e-314 536.45209 238.28099
1.2717499e+12 -7.65481e+21 1.6286012e-314 538.97089 238.09534
1.2389578e+12 -7.615998e+21 1.6285969e-314 541.0141 238.01283
1.2611404e+12 -7.5950427e+21 1.6285946e-314 543.1394 237.8128
1.2062748e+12 -7.5480386e+21 1.6285895e-314 544.57861 237.59386
1.2617172e+12 -7.550403e+21 1.6285897e-314 545.685 237.35147
1.1729594e+12 -7.4908564e+21 1.6285832e-314 547.1969 237.2005
1.1353564e+12 -7.449018e+21 1.6285786e-314 548.65631 236.93195
1.0882144e+12 -7.4012033e+21 1.6285734e-314 549.98633 236.70325
1.1195785e+12 -7.3825359e+21 1.6285713e-314 552.14386 236.34744
1.0777826e+12 -7.3333926e+21 1.6285659e-314 554.09821 236.3134
1.0916364e+12 -7.3188595e+21 1.6285643e-314 556.3103 236.24208
1.0515457e+12 -7.2539986e+21 1.6285572e-314 557.69635 235.82922
1.0472298e+12 -7.2309762e+21 1.6285547e-314 558.54443 235.56508
1.0132963e+12 -7.1847873e+21 1.6285496e-314 559.4798 235.37703
9.7114404e+11 -7.121255e+21 1.6285427e-314 561.07086 235.10266
1.0332664e+12 -7.1389632e+21 1.6285446e-314 563.05328 234.73973
9.3491469e+11 -7.0375061e+21 1.6285335e-314 565.08832 234.84679
9.5767456e+11 -7.0332277e+21 1.628533e-314 566.89154 234.73224
9.3053059e+11 -6.9863722e+21 1.6285279e-314 568.38739 234.53525
9.2367238e+11 -6.9535365e+21 1.6285243e-314 570.05963 234.30074
9.0194327e+11 -6.9108153e+21 1.6285196e-314 571.80487 234.15932
9.0722075e+11 -6.8862437e+21 1.6285169e-314 573.47546 233.87212
9.1091803e+11 -6.8576143e+21 1.6285137e-314 575.15314 233.51598
8.870451e+11 -6.8089889e+21 1.6285084e-314 576.73596 233.22774
8.847634e+11 -6.7832374e+21 1.6285056e-314 578.38208 233.07004
8.848735e+11 -6.7580757e+21 1.6285028e-314 580.44922 232.98888
8.4670638e+11 -6.7082704e+21 1.6284973e-314 582.18439 233.02702
8.5140715e+11 -6.6800104e+21 1.6284942e-314 583.77832 232.63722
8.163737e+11 -6.6292458e+21 1.6284887e-314 585.39563 232.55072
8.1455966e+11 -6.6020891e+21 1.6284857e-314 587.09473 232.36008
8.0040336e+11 -6.5659342e+21 1.6284817e-314 588.52649 232.13968
7.7997972e+11 -6.52882e+21 1.6284777e-314 590.02332 232.04974
7.7696978e+11 -6.5001906e+21 1.6284745e-314 591.30969 231.73685
7.4640379e+11 -6.4565102e+21 1.6284697e-314 592.6908 231.67078
7.3469382e+11 -6.4104654e+21 1.6284647e-314 594.05273 231.12735
7.3265958e+11 -6.3781476e+21 1.6284611e-314 595.54724 230.75769
7.0420962e+11 -6.3289322e+21 1.6284557e-314 597.15601 230.56941
7.0458081e+11 -6.3093056e+21 1.6284536e-314 599.18768 230.61614
7.0022398e+11 -6.2738847e+21 1.6284497e-314 601.11169 230.33641
6.6956152e+11 -6.2232688e+21 1.6284441e-314 602.37592 230.06628
6.7692829e+11 -6.205412e+21 1.6284422e-314 603.74121 229.82439
6.6850298e+11 -6.1453475e+21 1.6284356e-314 608.79486 229.85933
6.4170243e+11 -6.092813e+21 1.6284298e-314 610.66315 229.6243
6.4347557e+11 -6.0658815e+21 1.6284269e-314 612.10919 229.29614
6.3006166e+11 -6.0374007e+21 1.6284238e-314 613.01349 229.11665
6.0866232e+11 -5.9993994e+21 1.6284196e-314 613.81616 228.84186
5.9794221e+11 -5.9307014e+21 1.628412e-314 618.14887 228.5166
5.4953594e+11 -5.8341172e+21 1.6284014e-314 621.74548 228.1181
5.7474246e+11 -5.8237139e+21 1.6284003e-314 623.56567 227.793
5.8826647e+11 -5.8101356e+21 1.6283988e-314 624.70001 227.46197
5.4484933e+11 -5.7464592e+21 1.6283918e-314 626.06415 227.28662
5.3476124e+11 -5.7070527e+21 1.6283875e-314 627.69635 227.1787
5.3882264e+11 -5.6915603e+21 1.6283858e-314 629.36505 227.06163
5.4301458e+11 -5.6711185e+21 1.6283836e-314 631.09277 226.832
5.2565593e+11 -5.6181426e+21 1.6283778e-314 632.52557 226.64705
5.1788389e+11 -5.5789613e+21 1.6283735e-314 633.91864 226.3801
1.6930007e+12 -7.9217699e+21 1.6286305e-314 527.80597 237.33014
1.6052044e+12 -7.8605299e+21 1.6286238e-314 529.58411 237.18277
1.5930829e+12 -7.8332246e+21 1.6286208e-314 531.297 237.07378
1.5569637e+12 -7.8000241e+21 1.6286171e-314 533.01801 237.08328
1.5287066e+12 -7.7660804e+21 1.6286134e-314 534.58533 236.94687
1.4660888e+12 -7.7144286e+21 1.6286077e-314 535.73083 236.61626
1.4778266e+12 -7.6959819e+21 1.6286057e-314 536.80817 236.30092
1.4225488e+12 -7.6503829e+21 1.6286007e-314 538.66858 236.23988
1.3935766e+12 -7.605446e+21 1.6285958e-314 540.88415 236.00491
1.4296403e+12 -7.596002e+21 1.6285947e-314 543.05884 235.96297
1.3641914e+12 -7.537856e+21 1.6285884e-314 544.6922 235.6265
1.4300797e+12 -7.5438323e+21 1.628589e-314 545.63623 235.3168
1.3613329e+12 -7.4900413e+21 1.6285831e-314 547.06793 235.07399
1.2663351e+12 -7.4361782e+21 1.6285772e-314 548.58716 235.14378
1.274169e+12 -7.4082874e+21 1.6285741e-314 549.97302 234.71729
1.2484684e+12 -7.3713219e+21 1.6285701e-314 552.08105 234.6253
1.1792267e+12 -7.3185622e+21 1.6285643e-314 554.1048 234.5806
1.2224648e+12 -7.3041732e+21 1.6285627e-314 556.14154 234.29384
1.1199906e+12 -7.2373218e+21 1.6285554e-314 557.85162 234.16574
1.1461588e+12 -7.2267699e+21 1.6285542e-314 558.66974 233.83101
1.1520414e+12 -7.2067739e+21 1.628552e-314 559.66437 233.52528
1.068918e+12 -7.131289e+21 1.6285438e-314 561.06525 233.21606
1.1070711e+12 -7.1304063e+21 1.6285437e-314 563.28345 233.04688
1.0432441e+12 -7.0547729e+21 1.6285354e-314 565.04913 232.90584
1.0267789e+12 -7.0184694e+21 1.6285314e-314 566.51062 232.73528
1.0282086e+12 -7.0031977e+21 1.6285297e-314 567.80279 232.66612
9.9563563e+11 -6.9492581e+21 1.6285238e-314 569.53455 232.47176
9.7115767e+11 -6.896647e+21 1.628518e-314 571.53625 232.20677
9.5342782e+11 -6.8511967e+21 1.628513e-314 573.29114 231.91327
9.7661394e+11 -6.8449997e+21 1.6285123e-314 575.17731 231.76096
9.7176217e+11 -6.816591e+21 1.6285092e-314 576.95551 231.62706
9.3562929e+11 -6.7695869e+21 1.6285041e-314 578.54498 231.65163
9.102721e+11 -6.7210336e+21 1.6284987e-314 580.12134 231.39735
9.3932657e+11 -6.7149853e+21 1.6284981e-314 582.08209 231.14192
9.2453798e+11 -6.672039e+21 1.6284934e-314 583.63922 230.79388
8.767507e+11 -6.6094705e+21 1.6284865e-314 585.11456 230.64789
8.8829552e+11 -6.591393e+21 1.6284845e-314 586.59186 230.33711
8.7944449e+11 -6.5612865e+21 1.6284812e-314 588.10315 230.17624
8.835266e+11 -6.5375255e+21 1.6284786e-314 589.68121 229.91208
8.5761943e+11 -6.4922238e+21 1.6284736e-314 591.07471 229.70676
8.3944971e+11 -6.4482461e+21 1.6284688e-314 592.49768 229.37355
8.2198148e+11 -6.4075876e+21 1.6284644e-314 594.1568 229.17477
8.2582975e+11 -6.3849345e+21 1.6284619e-314 595.69214 228.93356
7.8557387e+11 -6.3251672e+21 1.6284553e-314 597.14404 228.69295
7.9347647e+11 -6.3060585e+21 1.6284532e-314 598.80475 228.48695
8.0191541e+11 -6.288643e+21 1.6284513e-314 601.07105 228.47511
7.5484221e+11 -6.2246694e+21 1.6284443e-314 602.76556 228.34442
7.6458662e+11 -6.2057093e+21 1.6284422e-314 604.26703 228.05864
7.5731632e+11 -6.16601e+21 1.6284379e-314 606.68738 227.87018
7.109032e+11 -6.1032163e+21 1.628431e-314 608.71674 227.84828
7.4502911e+11 -6.1050628e+21 1.6284312e-314 610.4668 227.62141
7.0994113e+11 -6.0560681e+21 1.6284258e-314 611.24036 227.36163
6.8830796e+11 -6.0244123e+21 1.6284223e-314 611.88318 227.21204
6.7466022e+11 -5.9928331e+21 1.6284189e-314 612.79144 226.95898
6.4500125e+11 -5.8868724e+21 1.6284072e-314 618.1911 226.39746
6.5842879e+11 -5.8873903e+21 1.6284073e-314 620.26257 226.67624
6.6829694e+11 -5.8607515e+21 1.6284044e-314 622.01917 226.26517
6.655072e+11 -5.8327121e+21 1.6284013e-314 623.36627 225.98508
6.5308262e+11 -5.7992144e+21 1.6283976e-314 624.6806 225.76869
5.8737309e+11 -5.7251346e+21 1.6283895e-314 626.14282 225.73848
5.8157289e+11 -5.6959108e+21 1.6283863e-314 627.81213 225.58217
5.5550109e+11 -5.6475827e+21 1.628381e-314 629.39642 225.36714
5.782468e+11 -5.6355535e+21 1.6283797e-314 631.03644 225.00941
5.5848324e+11 -5.5915038e+21 1.6283748e-314 632.47717 224.72633
1.6024834e+12 -7.7764117e+21 1.6286145e-314 530.31348 235.22809
1.6827477e+12 -7.7808387e+21 1.628615e-314 532.43744 235.03705
1.6362664e+12 -7.7328754e+21 1.6286098e-314 534.16553 234.79135
1.6372552e+12 -7.7107402e+21 1.6286073e-314 535.82245 234.66214
1.5771676e+12 -7.6646954e+21 1.6286023e-314 536.89557 234.42188
1.6233742e+12 -7.6657312e+21 1.6286024e-314 538.27203 234.32147
1.5125156e+12 -7.58604e+21 1.6285936e-314 540.65027 234.12915
1.5401686e+12 -7.5669312e+21 1.6285915e-314 542.99817 233.97772
1.5501741e+12 -7.5444223e+21 1.6285891e-314 544.823 233.78667
1.5170517e+12 -7.5003725e+21 1.6285842e-314 545.95258 233.32375
1.4834344e+12 -7.4668748e+21 1.6285806e-314 547.02539 233.12215
1.4081172e+12 -7.4166236e+21 1.6285751e-314 548.47644 233.04979
1.4479747e+12 -7.4127865e+21 1.6285746e-314 549.73291 232.85829
1.3375009e+12 -7.3341312e+21 1.628566e-314 551.94104 232.64943
1.3333506e+12 -7.3114781e+21 1.6285635e-314 553.95166 232.66405
1.3494589e+12 -7.2902301e+21 1.6285612e-314 556.05719 232.51631
1.2918165e+12 -7.2342233e+21 1.628555e-314 557.96228 232.22961
1.331179e+12 -7.2301656e+21 1.6285546e-314 559.06732 231.99696
1.2673795e+12 -7.179401e+21 1.628549e-314 559.86102 231.60875
1.2155106e+12 -7.1327662e+21 1.6285439e-314 561.23535 231.35582
1.1396713e+12 -7.0684999e+21 1.6285369e-314 563.25922 231.09203
1.1666092e+12 -7.05861e+21 1.6285358e-314 565.0874 231.04288
1.1332939e+12 -7.0234143e+21 1.6285319e-314 566.2818 230.83348
1.0969281e+12 -6.9837917e+21 1.6285276e-314 567.50336 230.58055
1.0700725e+12 -6.9275642e+21 1.6285214e-314 569.11267 230.16895
1.0605614e+12 -6.9007813e+21 1.6285185e-314 570.80157 230.15303
1.0532638e+12 -6.8618207e+21 1.6285142e-314 572.61237 229.8119
1.0668014e+12 -6.850386e+21 1.6285129e-314 574.47345 229.72969
1.0264769e+12 -6.7926814e+21 1.6285066e-314 576.26129 229.62831
1.0122105e+12 -6.7509195e+21 1.628502e-314 577.85248 229.30922
1.0114544e+12 -6.7201509e+21 1.6284987e-314 579.75775 229.06014
1.0142861e+12 -6.6941787e+21 1.6284958e-314 581.71716 228.86997
1.0271778e+12 -6.676394e+21 1.6284939e-314 583.43872 228.60217
1.005627e+12 -6.6348528e+21 1.6284893e-314 584.90259 228.41577
9.9145705e+11 -6.6024584e+21 1.6284857e-314 586.42963 228.31691
9.5268596e+11 -6.5448303e+21 1.6284794e-314 588.00085 228.12657
9.1291085e+11 -6.4895666e+21 1.6284734e-314 589.46301 227.9921
9.2217449e+11 -6.4725205e+21 1.6284715e-314 590.98126 227.76877
9.0778436e+11 -6.43179e+21 1.628467e-314 592.61481 227.49416
9.0511835e+11 -6.4029399e+21 1.6284639e-314 594.2514 227.26498
8.8826826e+11 -6.3644251e+21 1.6284596e-314 595.64923 227.03552
8.5973598e+11 -6.318673e+21 1.6284546e-314 597.15503 226.91054
8.388452e+11 -6.2755105e+21 1.6284499e-314 598.68469 226.68996
8.8458461e+11 -6.2870938e+21 1.6284511e-314 600.80389 226.55452
8.5294645e+11 -6.2282858e+21 1.6284447e-314 602.67316 226.26625
8.3072241e+11 -6.1896945e+21 1.6284405e-314 604.63324 226.30829
8.3462573e+11 -6.1589979e+21 1.6284371e-314 606.51703 225.95734
8.129653e+11 -6.1125883e+21 1.628432e-314 607.99036 225.65765
7.8715408e+11 -6.0766541e+21 1.6284281e-314 609.0459 225.60217
7.5254687e+11 -6.0295059e+21 1.6284229e-314 609.84168 225.38592
7.4274793e+11 -6.0041957e+21 1.6284201e-314 610.69855 225.19295
7.8169781e+11 -5.9830198e+21 1.6284178e-314 612.68555 224.34528
7.7151352e+11 -5.9462704e+21 1.6284138e-314 616.54651 224.68436
6.9853368e+11 -5.8603822e+21 1.6284043e-314 618.2348 224.57646
7.4050765e+11 -5.8673223e+21 1.6284051e-314 620.29071 224.38641
7.3752497e+11 -5.8473218e+21 1.6284029e-314 621.70868 224.33197
7.163731e+11 -5.809987e+21 1.6283988e-314 623.03638 224.21402
6.8444606e+11 -5.7571552e+21 1.628393e-314 624.48834 223.97768
6.7541624e+11 -5.7228468e+21 1.6283892e-314 626.22009 223.78136
6.7478395e+11 -5.680567e+21 1.6283846e-314 627.79547 223.15955
6.8481725e+11 -5.6574681e+21 1.6283821e-314 629.38934 222.791
6.8399255e+11 -5.6302438e+21 1.6283791e-314 630.979 222.55379
1.780907e+12 -7.7646032e+21 1.6286132e-314 531.3067 233.23631
1.8232653e+12 -7.7564878e+21 1.6286123e-314 533.36127 233.11408
1.800615e+12 -7.7210714e+21 1.6286085e-314 535.10699 232.93924
1.7257383e+12 -7.6651412e+21 1.6286023e-314 536.45459 232.67828
1.6844516e+12 -7.6194657e+21 1.6285973e-314 537.80518 232.32121
1.6381906e+12 -7.5697325e+21 1.6285919e-314 540.3111 232.23189
1.6907473e+12 -7.5507678e+21 1.6285898e-314 542.44427 231.7512
1.7237596e+12 -7.5450167e+21 1.6285891e-314 544.95636 231.92815
1.6712301e+12 -7.4974947e+21 1.6285839e-314 546.30017 231.64853
1.6456669e+12 -7.4614119e+21 1.62858e-314 547.50452 231.32726
1.5918729e+12 -7.4142637e+21 1.6285748e-314 548.57153 230.99493
1.3912949e+12 -7.2683876e+21 1.6285588e-314 553.49689 230.79292
1.533572e+12 -7.2835152e+21 1.6285605e-314 555.56683 230.1855
1.4023176e+12 -7.1992484e+21 1.6285512e-314 557.57959 230.01263
1.417848e+12 -7.1763025e+21 1.6285487e-314 559.08997 229.66528
1.4247204e+12 -7.166264e+21 1.6285476e-314 559.9104 229.55623
1.3800521e+12 -7.1276006e+21 1.6285434e-314 561.25964 229.42456
1.2476715e+12 -7.0447389e+21 1.6285343e-314 563.24274 229.29601
1.3031684e+12 -7.0440003e+21 1.6285342e-314 564.92719 229.12732
1.2859886e+12 -7.0147089e+21 1.628531e-314 566.05707 228.87355
1.2422839e+12 -6.9695513e+21 1.628526e-314 567.47784 228.58475
1.1541846e+12 -6.9057983e+21 1.628519e-314 569.10956 228.36762
1.2160873e+12 -6.9021819e+21 1.6285186e-314 570.97247 228.10382
1.1739765e+12 -6.8568037e+21 1.6285136e-314 572.71289 227.88109
1.1428873e+12 -6.8162938e+21 1.6285092e-314 574.43463 227.65729
1.1660052e+12 -6.7991035e+21 1.6285073e-314 576.23083 227.45326
1.1363735e+12 -6.7642006e+21 1.6285035e-314 577.95429 227.35828
1.0938631e+12 -6.7179352e+21 1.6284984e-314 579.73083 227.18951
1.1346958e+12 -6.6985292e+21 1.6284963e-314 582.00842 226.80588
1.0894512e+12 -6.6538895e+21 1.6284914e-314 583.73065 226.74286
1.0759959e+12 -6.6169239e+21 1.6284873e-314 585.1142 226.47362
1.0509821e+12 -6.5752341e+21 1.6284828e-314 586.45978 226.32767
1.0329639e+12 -6.538854e+21 1.6284788e-314 587.90985 226.19263
1.0143407e+12 -6.4980514e+21 1.6284743e-314 589.45483 225.98442
1.0045962e+12 -6.4660263e+21 1.6284708e-314 591.02716 225.81207
9.8866732e+11 -6.4246337e+21 1.6284662e-314 592.59564 225.53693
9.7500594e+11 -6.3894381e+21 1.6284624e-314 594.14105 225.36313
9.5377176e+11 -6.3494461e+21 1.628458e-314 595.54364 225.19469
9.5395001e+11 -6.3216274e+21 1.6284549e-314 597.10101 224.90942
9.110145e+11 -6.2630401e+21 1.6284485e-314 598.65607 224.78778
9.2919733e+11 -6.2516775e+21 1.6284473e-314 600.34381 224.56082
9.1238865e+11 -6.2036421e+21 1.628442e-314 602.43262 224.27939
9.1454662e+11 -6.172207e+21 1.6284385e-314 604.24158 223.9287
9.1326841e+11 -6.1604751e+21 1.6284373e-314 605.99194 224.1331
8.8806169e+11 -6.1204111e+21 1.6284329e-314 606.94012 223.93013
8.5625838e+11 -6.0609365e+21 1.6284263e-314 608.12152 223.44536
8.5353733e+11 -6.0082534e+21 1.6284206e-314 609.95917 222.67606
8.2815235e+11 -5.9256844e+21 1.6284115e-314 616.3623 222.88069
7.7382248e+11 -5.8687229e+21 1.6284052e-314 618.13385 223.11449
8.116184e+11 -5.8641473e+21 1.6284047e-314 619.87036 222.6405
8.0948822e+11 -5.8284337e+21 1.6284008e-314 621.38007 222.19693
7.9357241e+11 -5.7833527e+21 1.6283959e-314 622.86865 221.8154
7.9996348e+11 -5.7536875e+21 1.6283926e-314 624.4422 221.35561
7.7396037e+11 -5.701225e+21 1.6283869e-314 625.88953 220.9998
7.7949895e+11 -5.6810804e+21 1.6283847e-314 627.46246 220.79629
1.8848376e+12 -7.7373024e+21 1.6286102e-314 530.94824 231.27483
1.9385489e+12 -7.7299255e+21 1.6286094e-314 533.11444 231.08888
1.8941291e+12 -7.6893436e+21 1.628605e-314 534.93366 231.03139
1.8672457e+12 -7.6476538e+21 1.6286004e-314 536.66608 230.72592
1.8956684e+12 -7.6317876e+21 1.6285987e-314 538.21375 230.42902
1.8728535e+12 -7.5957047e+21 1.6285947e-314 539.9574 230.22455
1.8348374e+12 -7.5496644e+21 1.6285897e-314 542.19336 230.06699
1.82354e+12 -7.5064254e+21 1.6285849e-314 544.21234 229.62913
1.7785152e+12 -7.4725538e+21 1.6285812e-314 546.3725 229.84378
1.7705439e+12 -7.4440731e+21 1.6285781e-314 547.96539 229.63257
1.7097684e+12 -7.3933085e+21 1.6285725e-314 548.91144 229.25334
1.6549573e+12 -7.3494074e+21 1.6285677e-314 549.60315 228.91478
1.6853597e+12 -7.3345005e+21 1.628566e-314 550.54077 228.45413
1.5891518e+12 -7.2724454e+21 1.6285592e-314 551.74023 228.24272
1.6867889e+12 -7.2998228e+21 1.6285622e-314 554.15564 228.53357
1.6365684e+12 -7.2486123e+21 1.6285566e-314 556.38574 228.38089
1.4504483e+12 -7.1402917e+21 1.6285447e-314 558.07043 228.10573
1.505617e+12 -7.1375626e+21 1.6285444e-314 559.53143 227.82846
1.4456384e+12 -7.0828889e+21 1.6285384e-314 561.05951 227.50314
1.3727131e+12 -7.0299806e+21 1.6285326e-314 563.07092 227.49919
1.5168042e+12 -7.056768e+21 1.6285356e-314 564.83264 227.0815
1.4976447e+12 -7.0264407e+21 1.6285323e-314 566.026 226.84085
1.4131756e+12 -6.9654935e+21 1.6285256e-314 567.54273 226.62358
1.3337082e+12 -6.906019e+21 1.628519e-314 569.18677 226.42423
1.3772765e+12 -6.896057e+21 1.6285179e-314 571.11084 226.21652
1.3403604e+12 -6.8570243e+21 1.6285137e-314 572.84222 226.09656
1.2668028e+12 -6.8023506e+21 1.6285077e-314 574.42389 225.93895
1.2034436e+12 -6.7481138e+21 1.6285017e-314 576.06787 225.69959
1.300008e+12 -6.759035e+21 1.6285029e-314 577.91071 225.41844
1.2689744e+12 -6.7188224e+21 1.6284985e-314 579.81244 225.25179
1.2177923e+12 -6.6727776e+21 1.6284935e-314 582.1322 225.27254
1.1843669e+12 -6.6412704e+21 1.62849e-314 583.90778 225.32056
1.1654831e+12 -6.6027556e+21 1.6284858e-314 585.40588 224.95453
1.1934654e+12 -6.5836423e+21 1.6284837e-314 586.67291 224.50532
1.1239762e+12 -6.5284507e+21 1.6284776e-314 587.86487 224.1906
1.0980275e+12 -6.5007085e+21 1.6284746e-314 589.42163 224.20851
1.0844899e+12 -6.4585774e+21 1.62847e-314 590.88123 223.83232
1.0660181e+12 -6.4189502e+21 1.6284656e-314 592.49884 223.67229
1.0676807e+12 -6.3833132e+21 1.6284617e-314 594.25207 223.20923
1.0295555e+12 -6.3246538e+21 1.6284553e-314 595.74689 222.96405
1.0280298e+12 -6.3037706e+21 1.628453e-314 596.96051 222.79768
1.0083622e+12 -6.2687191e+21 1.6284491e-314 598.42059 222.73759
9.9331251e+11 -6.2302764e+21 1.6284449e-314 599.9704 222.51653
1.0481095e+12 -6.2549966e+21 1.6284476e-314 602.04388 222.4993
9.6431309e+11 -6.1512517e+21 1.6284362e-314 603.85101 222.20509
9.4823265e+11 -6.1063148e+21 1.6284313e-314 605.20679 221.79108
9.7511552e+11 -6.1109625e+21 1.6284318e-314 606.57092 221.68704
9.3123157e+11 -6.0287673e+21 1.6284228e-314 608.72846 221.16115
8.7732794e+11 -5.9627265e+21 1.6284156e-314 610.71637 221.21669
9.1178415e+11 -5.975197e+21 1.6284169e-314 612.92853 221.37141
9.406462e+11 -5.9785162e+21 1.6284173e-314 615.03229 221.38922
9.0017012e+11 -5.9186003e+21 1.6284107e-314 616.5163 221.16878
9.0212205e+11 -5.8885703e+21 1.6284074e-314 618.08704 220.79552
2.0116115e+12 -7.6812236e+21 1.6286041e-314 532.74646 228.93256
1.971342e+12 -7.6509009e+21 1.6286008e-314 534.72321 229.13142
2.0559223e+12 -7.6645513e+21 1.6286023e-314 536.64539 229.08112
2.0338497e+12 -7.6265499e+21 1.6285981e-314 538.50122 228.85066
1.9986648e+12 -7.5777759e+21 1.6285927e-314 540.16009 228.43309
2.0111994e+12 -7.5588113e+21 1.6285907e-314 541.97675 228.3033
1.968126e+12 -7.512181e+21 1.6285855e-314 543.99438 228.1264
1.8535293e+12 -7.4344083e+21 1.628577e-314 545.78332 227.87329
1.9497372e+12 -7.4398667e+21 1.6285776e-314 547.98474 227.5565
1.9196923e+12 -7.4075489e+21 1.6285741e-314 549.33588 227.42532
1.8918201e+12 -7.3725018e+21 1.6285702e-314 550.28394 227.09003
1.7599889e+12 -7.2957605e+21 1.6285618e-314 551.29401 226.84355
1.7788728e+12 -7.2772417e+21 1.6285598e-314 552.77228 226.56406
1.7128471e+12 -7.2316428e+21 1.6285548e-314 553.85101 226.41393
1.6496253e+12 -7.1810223e+21 1.6285492e-314 555.22589 226.18608
1.6318131e+12 -7.1492944e+21 1.6285457e-314 557.15625 226.09431
1.5793665e+12 -7.101777e+21 1.6285405e-314 559.00745 225.95964
1.5799432e+12 -7.0679819e+21 1.6285368e-314 560.91827 225.60945
1.6108668e+12 -7.0571373e+21 1.6285356e-314 563.14911 225.59863
1.6467385e+12 -7.0471753e+21 1.6285345e-314 564.48816 225.31545
1.5631482e+12 -6.9953029e+21 1.6285288e-314 565.82867 225.2731
1.5155397e+12 -6.9421018e+21 1.628523e-314 567.48004 224.88615
1.548855e+12 -6.9263843e+21 1.6285213e-314 569.28381 224.60973
1.4925874e+12 -6.8788668e+21 1.6285161e-314 570.94672 224.46674
1.5088875e+12 -6.8607128e+21 1.6285141e-314 572.69855 224.30209
1.4423669e+12 -6.8023506e+21 1.6285077e-314 574.31439 223.98434
1.3861821e+12 -6.7535767e+21 1.6285023e-314 575.98468 223.81291
1.3633672e+12 -6.7185251e+21 1.6284985e-314 577.81561 223.66818
1.4219165e+12 -6.7135081e+21 1.6284979e-314 579.95471 223.47803
1.3064945e+12 -6.6499803e+21 1.628491e-314 581.89453 223.65642
1.3469297e+12 -6.6372126e+21 1.6284896e-314 583.81842 223.40977
1.3297498e+12 -6.5964821e+21 1.6284851e-314 585.57141 223.03841
1.3433289e+12 -6.5736083e+21 1.6284826e-314 586.90363 222.66943
1.2951971e+12 -6.5343549e+21 1.6284783e-314 588.00793 222.50079
1.2343672e+12 -6.4882381e+21 1.6284732e-314 589.38946 222.37323
1.199567e+12 -6.445661e+21 1.6284685e-314 590.96167 222.10234
1.1864829e+12 -6.4157031e+21 1.6284653e-314 592.77216 221.97669
1.141651e+12 -6.3702528e+21 1.6284603e-314 594.60388 221.81427
1.0976427e+12 -6.3295943e+21 1.6284558e-314 596.12103 221.69902
1.0965705e+12 -6.2989743e+21 1.6284524e-314 597.39148 221.29185
1.0846959e+12 -6.2612702e+21 1.6284483e-314 598.45343 220.88872
1.0735081e+12 -6.2266645e+21 1.6284445e-314 599.81018 220.62587
1.0526724e+12 -6.1825382e+21 1.6284397e-314 601.24298 220.35763
1.0352314e+12 -6.1439469e+21 1.6284354e-314 603.46777 220.36607
1.0205944e+12 -6.1095619e+21 1.6284317e-314 604.93231 220.21709
1.0003495e+12 -6.0645529e+21 1.6284267e-314 606.03442 219.82548
1.0380626e+12 -6.0616751e+21 1.6284264e-314 608.39587 219.56239
9.8308732e+11 -5.9926124e+21 1.6284188e-314 610.492 219.59383
1.0269026e+12 -6.005817e+21 1.6284203e-314 612.80383 219.58844
2.0969614e+12 -7.643596e+21 1.6286e-314 532.13086 226.84712
2.136736e+12 -7.6300177e+21 1.6285985e-314 534.41736 226.68701
2.1218106e+12 -7.6077339e+21 1.628596e-314 536.42261 226.82593
2.14971e+12 -7.5971819e+21 1.6285949e-314 538.31628 226.76396
2.1073518e+12 -7.5602164e+21 1.6285908e-314 540.04352 226.75104
2.107874e+12 -7.5315104e+21 1.6285877e-314 541.97266 226.53203
2.0463288e+12 -7.4860601e+21 1.6285827e-314 543.70685 226.5127
2.0720294e+12 -7.4694553e+21 1.6285809e-314 545.70325 226.34778
2.0567192e+12 -7.4201679e+21 1.6285754e-314 547.54437 225.75136
2.0358284e+12 -7.3952991e+21 1.6285727e-314 549.28827 225.81853
1.9944317e+12 -7.3588514e+21 1.6285687e-314 550.56103 225.68352
1.9290655e+12 -7.3010027e+21 1.6285624e-314 552.0105 225.31306
1.8902252e+12 -7.2603442e+21 1.6285579e-314 553.26514 225.03996
1.844651e+12 -7.2234507e+21 1.6285539e-314 554.07349 224.81447
1.8290104e+12 -7.1934928e+21 1.6285506e-314 555.14105 224.51131
1.8266742e+12 -7.1586664e+21 1.6285468e-314 556.85346 224.11174
1.781511e+12 -7.1121082e+21 1.6285417e-314 558.71283 223.92319
1.6566895e+12 -7.0386905e+21 1.6285336e-314 560.68262 223.95282
1.7269211e+12 -7.0332277e+21 1.628533e-314 562.79492 223.61627
1.6769753e+12 -6.9919792e+21 1.6285285e-314 563.97229 223.4317
1.6955571e+12 -6.9737576e+21 1.6285265e-314 565.5993 223.20454
1.7129572e+12 -6.9529465e+21 1.6285242e-314 567.54132 223.01167
1.6779924e+12 -6.9122925e+21 1.6285197e-314 569.23071 222.81647
1.635524e+12 -6.8694948e+21 1.628515e-314 570.79761 222.6183
1.6305213e+12 -6.8445539e+21 1.6285123e-314 572.49536 222.49985
1.5876953e+12 -6.797185e+21 1.6285071e-314 574.20557 222.22768
1.5704326e+12 -6.7723927e+21 1.6285044e-314 575.8064 222.22108
1.6089709e+12 -6.752766e+21 1.6285022e-314 577.74609 221.82355
1.5298328e+12 -6.6940301e+21 1.6284958e-314 579.84265 221.76729
1.4823071e+12 -6.647616e+21 1.6284907e-314 581.88043 221.66234
1.5572656e+12 -6.642599e+21 1.6284901e-314 583.78821 221.22833
1.4270294e+12 -6.5667448e+21 1.6284818e-314 585.23865 221.12698
1.4246103e+12 -6.5416598e+21 1.6284791e-314 586.77008 220.93283
1.4040488e+12 -6.5168675e+21 1.6284764e-314 587.86548 220.82579
1.323235e+12 -6.4641078e+21 1.6284706e-314 589.23419 220.74751
1.3213109e+12 -6.4351857e+21 1.6284674e-314 591.10919 220.54173
1.2739499e+12 -6.3943786e+21 1.6284629e-314 592.87738 220.50729
1.2607556e+12 -6.3597729e+21 1.6284591e-314 594.66003 220.25864
1.3353293e+12 -6.3456091e+21 1.6284576e-314 596.46539 219.57051
1.2861815e+12 -6.3018521e+21 1.6284528e-314 597.54718 219.29719
1.2696339e+12 -6.2752899e+21 1.6284498e-314 598.38794 219.03632
1.1805731e+12 -6.214194e+21 1.6284431e-314 599.492 218.76976
1.1288416e+12 -6.1677079e+21 1.628438e-314 600.92163 218.55124
1.1196875e+12 -6.1379706e+21 1.6284348e-314 602.65765 218.37148
1.0622386e+12 -6.0708264e+21 1.6284274e-314 604.57776 218.2364
1.0765181e+12 -6.0683179e+21 1.6284271e-314 605.77087 218.18233
1.1575663e+12 -6.0669128e+21 1.628427e-314 607.58612 217.49474
9.8763657e+11 -5.9135112e+21 1.6284102e-314 609.88953 217.3506
1.0430381e+12 -5.9455363e+21 1.6284137e-314 612.53888 217.65083
1.0961993e+12 -5.9634651e+21 1.6284156e-314 614.92236 217.57657
2.264499e+12 -7.5946014e+21 1.6285946e-314 535.75928 224.73381
2.2377813e+12 -7.558442e+21 1.6285906e-314 537.87781 224.67578
2.2623557e+12 -7.5454581e+21 1.6285892e-314 539.72357 224.57407
2.2491898e+12 -7.5138023e+21 1.6285857e-314 541.58734 224.41411
2.1844273e+12 -7.4706353e+21 1.628581e-314 543.39654 224.50946
2.204273e+12 -7.4459916e+21 1.6285783e-314 545.45532 224.2206
2.2142512e+12 -7.4327105e+21 1.6285768e-314 547.22211 224.25008
2.1483081e+12 -7.3821666e+21 1.6285713e-314 548.8606 224.12445
2.170821e+12 -7.3650484e+21 1.6285694e-314 550.53503 223.89327
2.1447901e+12 -7.3187829e+21 1.6285643e-314 552.13898 223.43024
2.0897042e+12 -7.2730353e+21 1.6285593e-314 553.16962 223.143
2.0818976e+12 -7.2508281e+21 1.6285569e-314 553.86572 222.85086
1.9961083e+12 -7.190615e+21 1.6285503e-314 554.86542 222.52333
1.8959976e+12 -7.1281185e+21 1.6285434e-314 556.40063 222.44398
1.9390438e+12 -7.1061319e+21 1.628541e-314 558.44812 221.9659
1.8607592e+12 -7.0562501e+21 1.6285355e-314 560.72034 222.16921
1.7994605e+12 -6.9990634e+21 1.6285292e-314 562.15405 221.77393
1.8083671e+12 -6.9868901e+21 1.6285279e-314 563.55145 221.74573
1.8159808e+12 -6.9597379e+21 1.6285249e-314 565.32709 221.45044
1.8387685e+12 -6.9385575e+21 1.6285226e-314 567.28394 221.19144
1.7766183e+12 -6.8953184e+21 1.6285179e-314 569.18689 221.28851
1.7336277e+12 -6.852818e+21 1.6285132e-314 570.81873 221.12158
1.7089988e+12 -6.817181e+21 1.6285093e-314 572.32074 220.89232
1.7306865e+12 -6.7938614e+21 1.6285067e-314 573.90601 220.49155
