# .PCD v0.7 - Point Cloud Data file format
VERSION 0.7
FIELDS x y z
SIZE 4 4 4
TYPE F F F
COUNT 1 1 1
WIDTH 1716
HEIGHT 1
VIEWPOINT 0 0 0 1 0 0 0
POINTS 1716
DATA ascii
-25.9583 2.4883699 -1028.95
-27.4816 1.97891 -1026.51
-27.9259 2.22119 -1025.62
-29.0653 1.83859 -1023.52
-30.039801 1.83804 -1022.19
-30.325399 1.4087501 -1021.38
-30.4112 1.38449 -1020.21
-31.2565 1.4325 -1019.97
-31.405899 1.36447 -1018.79
-31.6812 0.91342199 -1017.89
-32.175201 0.57684302 -1017.13
-32.909698 0.260254 -1015.3
-33.397202 0.42925999 -1014.3
-33.703098 -0.107117 -1013.25
-34.1693 0.078582801 -1012.27
-34.194801 -0.91128498 -1010.57
-34.349499 -1.15039 -1008.91
-35.043301 -1.5527 -1007.94
-34.423698 -1.50894 -1007.04
-34.895302 -2.7030301 -1003.51
12.872 -3.48315 -1048.45
9.3125 -2.50125 -1047.99
7.38727 -2.3066101 -1047.67
6.1002798 -1.45016 -1047.7
2.48663 -0.47476199 -1047.1
0.99279797 -0.368561 -1046.77
0.79070997 -0.045349099 -1046.23
-0.92480499 0.20269801 -1046.09
-1.58606 0.357178 -1046.13
-3.48615 1.0181 -1045.55
-4.2603798 0.71435499 -1044.79
-4.8333702 1.36298 -1044.6
-5.75879 1.31625 -1044.21
-6.23737 1.30679 -1044.02
-7.1958599 1.8071001 -1043.52
-8.2229605 1.8290401 -1043.16
-8.7584801 1.8485399 -1043.04
-9.8115797 1.84799 -1042.6801
-10.0006 2.1301601 -1042.03
-10.5815 2.19327 -1041.91
-11.2599 1.8497 -1041.12
-12.9205 2.3961799 -1040.52
-13.3053 2.2585101 -1040.17
-13.6277 2.5856299 -1039.63
-14.243 2.6101699 -1039.51
-14.7626 2.5950899 -1039.25
-15.5843 2.85309 -1038.45
-15.9171 2.6906099 -1038.02
-16.7192 2.94119 -1038.1801
-17.3643 2.9454 -1036.99
-17.825399 2.8397801 -1036.6801
-18.310699 2.7390399 -1036.36
-18.6315 3.09445 -1035.77
-19.200701 3.04706 -1035.53
-19.6353 2.9279499 -1035.13
-20.159901 2.8394799 -1034.83
-20.329201 3.0669899 -1034.0601
-21.0452 3.11304 -1033.9301
-21.3459 2.8787799 -1033.39
-22.2251 3.11292 -1032.41
-22.7444 3.02139 -1032.05
-23.026699 2.707 -1031.4399
-23.9795 3.0160501 -1030.51
-24.5376 2.94647 -1030.16
-25.335899 3.0450699 -1029
-26.112801 2.57391 -1027.98
-26.704201 2.5736401 -1027.7
-26.8444 2.5564899 -1026.5699
-27.2952 2.3247399 -1025.99
-27.8853 2.7436199 -1025.49
-28.901899 2.3175399 -1024.42
-29.5303 2.6228001 -1022.66
-30.2591 1.95401 -1021.23
-30.645201 2.10864 -1020.33
-30.9541 1.67529 -1019.51
-31.6873 1.4768699 -1017.74
-32.054901 1.03809 -1016.9
-32.351799 1.1301 -1015.87
-33.298302 0.97564697 -1014.12
-33.82 0.57800299 -1013.27
-34.2104 -0.25277701 -1010.42
-34.7411 -0.27597001 -1009.15
-35.161098 -1.29816 -1005.95
-35.442001 -1.65631 -1004.11
-35.672401 -2.3263199 -1001.78
13.5207 -3.2223799 -1048.11
11.4106 -2.86115 -1048.0699
8.7926598 -1.88358 -1047.8199
7.7344999 -1.68527 -1047.8101
6.6275601 -1.52774 -1047.74
4.7210698 -0.81216401 -1047.23
3.5922201 -0.62863201 -1047.1801
3.12024 -0.079406701 -1046.9399
1.58099 0.0673218 -1046.67
-0.75085402 0.65447998 -1045.8101
-2.39398 0.84692401 -1045.64
-4.1210899 1.64566 -1045.3
-5.8371 1.9628 -1044.1801
-6.52563 1.7025501 -1043.49
-8.1850595 2.36237 -1043.02
-8.8047504 2.4640801 -1042.97
-9.73071 2.36584 -1042.5
-9.8877602 2.5406799 -1041.8101
-10.5449 2.6533201 -1041.77
-11.1964 2.8291299 -1040.88
-12.3193 2.8585501 -1040.5601
-13.451 2.8938 -1040.21
-13.5356 3.0238299 -1039.4399
-14.2402 3.1475799 -1039.41
-14.5862 2.97791 -1038.97
-15.4223 3.26407 -1038.1899
-15.7854 3.0864 -1037.77
-16.606701 3.3592801 -1037.92
-17.0737 3.2091701 -1037.54
-17.434 3.5794401 -1036.96
-17.6821 3.2727699 -1036.42
-18.2815 3.2964201 -1036.22
-18.5821 3.5826099 -1035.6
-19.0023 3.46417 -1035.23
-19.660101 3.5018599 -1035.0601
-20.050699 3.32324 -1034.62
-20.8967 3.58725 -1033.67
-21.275101 3.3866301 -1033.1899
-21.9774 3.4595301 -1033.0601
-22.330299 3.8211999 -1032.39
-22.620701 3.5169401 -1031.8199
-23.0361 3.3139601 -1031.36
-23.594801 3.2606499 -1031.04
-23.983601 3.6117599 -1030.39
-24.340401 3.3180799 -1029.84
-24.911301 3.2887299 -1029.5
-24.909901 3.25543 -1028.42
-25.7659 3.4233401 -1028.39
-26.110701 3.1078801 -1027.76
-26.378599 3.26035 -1026.95
-26.833 3.06198 -1026.41
-27.242399 3.3338599 -1025.7
-27.715799 3.1243601 -1025.21
-28.1285 2.8483 -1024.55
-28.897499 2.7505801 -1023.1
-29.6404 2.5989699 -1021.54
-30.1434 2.3689301 -1020.97
-30.357201 2.44034 -1019.92
-31.3752 1.91479 -1018.65
-31.8505 2.1547201 -1017.83
-32.861801 1.38434 -1014.99
-32.952 1.27496 -1013.62
-33.273701 0.688721 -1012.55
-34.1735 0.74139398 -1012.24
-34.310501 0.391541 -1010.39
-34.231499 -0.070678703 -1008.52
-35.094398 -0.33508301 -1007.68
-35.105202 -0.83456397 -1005.74
-35.202202 -1.3845201 -1003.69
15.8242 -3.8374 -1047.8199
11.4232 -2.3448801 -1047.9
8.3038301 -1.26529 -1047.6801
6.2775302 -0.47137499 -1047.3101
5.2912002 -0.39862099 -1047.15
3.5660999 0.506073 -1047
2.62451 0.55197102 -1046.75
1.70428 0.56536901 -1046.4301
0.0812378 0.75543201 -1046.25
-1.36255 1.36026 -1045.7
-2.4112501 1.4778399 -1045.5601
-3.3909299 2.01846 -1045.15
-3.96997 2.0899401 -1045.02
-4.6113901 1.75745 -1044.27
-5.5350299 2.27701 -1043.77
-6.1577101 2.40939 -1043.74
-7.3092699 2.5180399 -1043.54
-7.3248301 2.5792501 -1042.71
-8.7634296 2.9445801 -1042.8101
-9.7501202 2.9634099 -1041.58
-10.4392 3.10989 -1041.5699
-11.9788 3.5926499 -1040.88
-12.1563 3.2873499 -1040.3
-12.7419 3.2844501 -1040.13
-13.3903 3.4277 -1039.1899
-14.603 3.5311601 -1038.9
-15.0494 3.4421999 -1038.59
-16.0058 3.8275101 -1037.9
-16.965599 3.68082 -1037.29
-17.8036 3.9648399 -1036.4301
-18.271 3.85706 -1036.11
-18.901199 4.0020399 -1035.02
-19.577299 4.0496202 -1034.86
-19.915199 3.79498 -1034.35
-20.2736 3.6240201 -1033.89
-20.904499 4.1963501 -1033.55
-21.2374 3.9570301 -1033.05
-21.839399 3.95087 -1032.79
-22.6227 4.1135302 -1031.72
-23.068899 3.9349699 -1031.28
-23.511 3.7535999 -1030.8199
-23.7959 4.0208998 -1030.09
-24.2635 3.8224199 -1029.61
-24.767099 3.7090499 -1029.21
-25.090401 3.9649 -1028.5
-25.568199 3.73926 -1028.04
-25.934099 3.46786 -1027.4301
-26.4643 3.87848 -1026.9
-26.844299 3.60098 -1026.3199
-27.7351 3.6636 -1025.08
-28.006399 3.25894 -1024.33
-28.695999 3.1295199 -1022.78
-29.4266 3.0764501 -1022.44
-30.052099 2.8589499 -1020.76
-30.9804 2.8308401 -1019.3
-31.2407 2.3352399 -1018.4
-31.528799 2.4762001 -1017.38
-33.630199 1.61954 -1012.82
-33.872101 1.1095901 -1011.76
-33.931 0.63147002 -1009.86
-34.563702 0.72668499 -1008.72
-34.452301 -0.311676 -1006.88
-34.716801 -0.655182 -1005.14
-34.911098 -1.06726 -1003.21
-35.6311 -1.35141 -1001.47
13.631 -2.2567101 -1047.72
11.6284 -1.94058 -1047.61
10.0366 -1.63388 -1047.5699
8.6263399 -0.97543299 -1047.22
6.85675 -0.0169678 -1047.1899
5.2665401 0.224915 -1047.0699
4.2902799 0.28121901 -1046.86
2.6359899 1.10544 -1046.61
1.80981 1.0367399 -1046.22
0.87695301 1.04361 -1045.92
-1.36981 1.95682 -1045.6
-2.37451 2.05792 -1045.46
-3.20294 2.4616101 -1044.8199
-3.96173 2.20978 -1044.17
-4.7153902 2.39975 -1044.27
-5.4793701 2.7379799 -1043.61
-6.1763301 2.9012799 -1043.65
-7.1150498 2.83002 -1043.23
-8.5322304 3.27985 -1042.48
-9.50317 3.2109101 -1042.05
-9.6641798 3.44333 -1041.37
-10.2311 3.4603901 -1041.25
-11.0812 3.2615399 -1040.65
-11.9297 4.0811801 -1040.71
-12.0162 3.67804 -1040.03
-12.6518 3.74753 -1039.92
-13.3567 3.99753 -1039.03
-14.1992 4.2174702 -1039.14
-14.505 3.9906299 -1038.7
-14.9819 3.9277301 -1038.39
-15.4106 3.8169301 -1038.0601
-16.3927 4.2290301 -1037.39
-16.927601 4.1917701 -1037.13
-17.1672 4.4816599 -1036.48
-17.723801 4.47363 -1036.27
-18.1618 4.3313298 -1035.91
-18.526699 4.17871 -1035.4399
-19.064501 4.6858201 -1035.05
-19.554701 4.5833402 -1034.73
-20.081499 4.5120201 -1034.41
-20.333099 4.2297702 -1033.85
-20.718901 4.60745 -1033.24
-21.2766 4.5509601 -1032.98
-21.8354 4.4791002 -1032.66
-22.138599 4.2161899 -1032.1
-22.4594 4.50983 -1031.45
-23.0082 4.4244699 -1031.0699
-23.443701 4.2515602 -1030.63
-23.797199 4.5492601 -1030
-24.136499 4.24579 -1029.39
-24.6168 4.0956702 -1028.96
-25.1675 4.5120802 -1028.48
-25.8286 3.9425399 -1027.23
-26.6472 3.9586501 -1025.98
-27.5341 4.0366802 -1024.78
-28.0002 3.7845199 -1024.21
-28.5341 4.1922898 -1023.61
-28.949301 3.8914499 -1022.93
-29.0884 3.3612101 -1021.96
-29.5298 3.6623199 -1021.22
-30.02 3.3896201 -1020.62
-30.435801 3.06903 -1019.86
-30.986099 3.41693 -1019.17
-31.2045 2.89291 -1018.2
-31.301901 2.8748801 -1017
-31.8703 2.625 -1016.36
-32.504299 2.40942 -1015.76
-32.835899 2.54391 -1014.73
-33.059898 1.91547 -1013.51
-33.3643 1.98184 -1012.41
-33.983898 1.74124 -1011.76
-33.464699 0.76611298 -1009.21
-34.7202 -0.133057 -1005.01
-34.874298 -0.62420702 -1002.95
14.2882 -1.93777 -1047.47
7.8977699 -0.170166 -1047.28
5.9087501 0.64294398 -1046.88
4.4109502 0.77227801 -1046.65
2.7149701 1.61703 -1046.42
1.76434 1.6568 -1046.16
1.18445 1.7445101 -1046.14
-1.27325 2.4354601 -1045.42
-2.3477199 2.59268 -1045.34
-3.0200801 2.79181 -1044.5
-4.0261202 2.7753601 -1044.1
-4.63696 2.89627 -1044.09
-5.4558101 3.2646501 -1043.47
-5.9133902 3.21051 -1043.26
-7.1973901 3.4455299 -1043.2
-7.3494902 3.6499901 -1042.54
-7.7356601 3.5562699 -1042.24
-8.66541 4.0385699 -1041.6801
-9.61273 3.9179399 -1041.22
-10.2645 4.0054598 -1041.15
-10.7874 4.0367699 -1041.01
-11.8737 4.5696402 -1040.53
-11.9367 4.1809101 -1039.85
-12.6805 4.3330402 -1039.85
-13.1691 4.2810998 -1039.62
-14.047 4.6456599 -1038.9
-14.2592 4.3710899 -1038.34
-15.0104 4.50635 -1038.33
-15.3404 4.9086599 -1037.77
-15.8276 4.8264499 -1037.49
-16.759001 4.6462998 -1036.86
-17.6064 4.9551702 -1036.02
-18.1409 4.92801 -1035.76
-18.377701 4.6112099 -1035.17
-19.334499 4.9936199 -1034.4
-19.8361 4.90833 -1034.0699
-20.2889 4.7529302 -1033.67
-20.6262 5.1102901 -1033.04
-21.090099 4.9587998 -1032.6801
-21.461399 4.7403302 -1032.1899
-22.442101 5.0029602 -1031.3
-22.873501 4.8062401 -1030.8199
-23.5007 4.8334398 -1030.6
-23.651899 4.96381 -1029.76
-24.085899 4.7351398 -1029.23
-24.5905 4.62393 -1028.8199
-25.0284 4.8999 -1028.2
-25.476299 4.7242999 -1027.72
-25.9083 4.5141602 -1027.2
-26.5966 4.4498901 -1025.84
-27.1255 4.31845 -1025.39
-27.9965 4.3669701 -1024.09
-28.226299 4.49017 -1023.14
-28.6458 4.1820402 -1022.5
-29.134001 3.94806 -1021.92
-29.916401 3.8734701 -1020.33
-30.522301 3.7089801 -1019.89
-30.4149 3.5211501 -1018.46
-31.158501 3.4417701 -1018.06
-32.0984 3.4116499 -1016.48
-32.310799 2.86292 -1015.41
-32.544102 2.8511701 -1014.23
-33.199799 2.6147799 -1013.59
-33.328201 2.47174 -1012.27
-33.700001 2.03458 -1011.35
-34.055199 1.77853 -1009.69
-34.358398 1.11081 -1008.39
-34.300701 0.594208 -1006.43
-34.993198 0.0100708 -1002.9
-35.487 -0.88583398 -1001.12
14.3599 -1.40201 -1047.28
12.1909 -0.91357398 -1047.34
10.2087 -0.086822502 -1047.0601
8.5806904 0.213654 -1047.03
5.9915199 1.15292 -1046.6899
4.3374 1.41336 -1046.58
3.5255699 1.87848 -1046.1
1.80035 2.1826501 -1046.02
1.08276 2.02759 -1045.51
-0.040649399 2.6733699 -1045.28
-0.60272199 2.76193 -1045.22
-1.45514 2.70789 -1044.83
-3.0922899 3.37637 -1044.45
-3.74054 3.4917901 -1044.4301
-4.5535898 3.87042 -1043.79
-4.8761601 3.6987 -1043.46
-6.32623 3.6680601 -1042.89
-7.7495098 4.10291 -1042.15
-9.30725 4.6387601 -1041.53
-10.166 4.4841299 -1040.95
-10.6753 4.4955401 -1040.77
-11.8743 4.6701398 -1039.65
-12.555 4.7803302 -1039.6
-13.338 5.0699801 -1038.79
-13.9536 5.1646099 -1038.6899
-14.2366 4.90906 -1038.21
-15.216 5.3917198 -1037.51
-15.7659 5.3657498 -1037.3101
-16.723499 5.1909499 -1036.7
-17.177601 5.0928602 -1036.38
-17.4813 5.4380202 -1035.77
-17.899 5.2708998 -1035.38
-18.4907 5.28827 -1035.1899
-18.910101 5.1321101 -1034.78
-19.375 5.60886 -1034.33
-19.8181 5.4513202 -1033.92
-20.163 5.7399602 -1033.33
-21.0194 5.4186401 -1032.51
-22.0432 5.2276902 -1031.78
-22.386801 5.5236802 -1031.17
-22.685499 5.2230802 -1030.55
-23.317301 5.2234502 -1030.33
-23.438299 5.3017602 -1029.39
-24.128401 5.29141 -1029.2
-24.4457 5.0211501 -1028.6
-24.856199 5.2969398 -1027.91
-25.776199 4.9376202 -1026.95
-26.1308 4.6234698 -1026.3199
-26.9825 4.7125201 -1025.0699
-27.930799 4.8552198 -1023.94
-28.4522 4.6307402 -1022.17
-28.9128 4.3770399 -1021.57
-29.6989 4.3345599 -1021.25
-29.9648 4.47858 -1020.29
-30.223 4.0262098 -1019.41
-30.5847 4.2547002 -1018.52
-30.855301 3.77826 -1017.65
-31.461399 3.6049199 -1017.06
-31.476 3.4637799 -1015.67
-32.197701 3.32074 -1015.15
-32.5485 3.37885 -1014.14
-32.806198 2.83041 -1013.03
-33.036098 2.78845 -1011.8
-33.507301 1.86652 -1008.98
-34.188099 2.00266 -1007.91
-34.614498 1.4037499 -1006.69
-34.488998 0.77490199 -1004.47
18.3132 -2.38748 -1046.9
15.578 -1.15491 -1047
12.1637 -0.35388201 -1047.26
6.9057002 1.10107 -1046.9
5.4057002 1.82346 -1046.58
4.5004902 1.8357199 -1046.3
3.6511199 2.3192699 -1045.85
1.84918 2.67188 -1045.86
-1.29767 3.4556301 -1045.21
-2.13959 3.49948 -1044.95
-2.9630101 3.78021 -1044.1899
-4.7515302 4.1412001 -1043.23
-5.9320698 4.26932 -1043.0601
-7.0258799 4.4789701 -1041.99
-7.7653198 4.6673899 -1042.04
-8.4776602 4.9421401 -1041.26
-9.5123301 4.9397302 -1040.88
-10.3252 5.16678 -1041.02
-10.7512 5.0906701 -1040.74
-10.9443 5.3681898 -1040.08
-11.9805 5.34512 -1039.66
-12.4364 5.2691998 -1039.37
-13.1135 5.35602 -1039.33
-13.3447 5.6648302 -1038.67
-14.3774 5.6254601 -1038.22
-14.816 5.5176101 -1037.89
-15.1298 5.8821702 -1037.33
-15.6693 5.8538499 -1037.08
-16.1404 5.8020301 -1036.77
-16.65 5.7399302 -1036.52
-17.3995 5.9096699 -1035.5699
-17.972401 5.9088101 -1035.34
-18.5345 5.8746901 -1035.09
-18.6399 5.9955101 -1034.3
-19.327801 6.0759301 -1034.16
-19.759501 5.9110098 -1033.76
-20.548 6.0982099 -1032.76
-21.067101 6.00354 -1032.46
-21.4457 5.7877498 -1031.95
-21.718 5.9965501 -1031.23
-22.377001 6.03967 -1031.04
-22.7789 5.8221102 -1030.53
-23.065399 6.0774202 -1029.83
-23.6884 6.01511 -1029.5601
-24.0263 5.7140498 -1028.9399
-24.538099 5.6267099 -1028.5699
-24.750099 5.7883601 -1027.7
-25.5214 5.8692298 -1027.5601
-25.801001 5.5222802 -1026.89
-26.4911 5.5000901 -1025.51
-26.932899 5.2407799 -1024.9
-27.884199 5.37814 -1023.71
-28.2073 5.0328398 -1023
-28.653299 5.4058499 -1022.27
-29.869101 5.0596299 -1021.34
-29.880501 5.0012798 -1020.1
-30.240499 4.64398 -1019.32
-30.2857 4.5961599 -1018.1
-31.1744 4.6358299 -1017.82
-31.2006 4.45755 -1016.54
-31.611099 4.1034899 -1015.74
-33.2006 3.42435 -1011.83
-33.828899 2.64926 -1009.2
-34.243198 2.60446 -1007.85
-34.381302 1.73456 -1006.22
-34.1208 1.00735 -1003.84
-34.855499 0.994385 -1002.37
13.8643 -0.178802 -1047.01
10.7155 0.98907501 -1046.87
8.7240601 1.25568 -1046.65
7.12573 1.99121 -1046.47
5.4087501 2.3179901 -1046.47
5.0828199 2.2493601 -1046.2
3.5906999 2.8982799 -1045.8
1.93365 3.1291201 -1045.66
1.36462 3.2044101 -1045.62
0.424133 3.7586999 -1045.23
-1.44366 3.8004799 -1044.6899
-2.9187601 4.2797899 -1044.04
-3.7734399 4.7117901 -1043.45
-4.70929 4.6602802 -1043.0699
-5.88135 4.8038001 -1042.91
-6.15063 5.1736102 -1042.38
-6.8909898 5.3414602 -1042.46
-7.64679 5.1405301 -1041.84
-10.1149 5.5834398 -1040.6801
-10.8896 5.7737999 -1040.79
-11.7839 5.7520399 -1039.34
-12.3698 5.78229 -1039.1899
-13.2483 6.1813002 -1038.48
-14.291 6.1300702 -1038.02
-14.5641 5.8927002 -1037.53
-15.373 6.1923499 -1036.67
-16.004 6.2142301 -1036.55
-16.5347 6.198 -1036.27
-16.9606 6.5822101 -1035.8101
-17.8531 6.3510399 -1035.12
-18.283899 6.2030001 -1034.74
-18.775499 6.6624498 -1034.3199
-19.2733 6.53406 -1033.99
-19.651501 6.3485398 -1033.54
-20.064199 6.1863699 -1033.12
-20.441799 6.5252099 -1032.52
-21.4121 6.27701 -1031.8199
-21.8834 6.68011 -1031.29
-22.311501 6.50385 -1030.86
-22.839701 6.4196801 -1030.49
-23.242001 6.7766399 -1029.91
-23.5201 6.4218402 -1029.25
-24.0075 6.3142099 -1028.84
-24.6019 6.1944299 -1027.42
-25.0763 6.0604901 -1026.97
-26.546801 6.0830998 -1025.4301
-27.389601 6.1862798 -1024.15
-27.6639 5.8159199 -1023.36
-28.1457 5.5479999 -1022.81
-28.614401 5.2670598 -1020.98
-29.191299 5.1166401 -1020.51
-29.6152 5.3504901 -1019.68
-30.2764 5.2291002 -1019.24
-30.4433 5.2287002 -1018.13
-30.560101 5.1760898 -1016.96
-31.4785 4.4972801 -1015.41
-31.995199 4.2308002 -1014.72
-32.1129 4.0769701 -1013.43
-32.641201 3.7188101 -1012.61
-32.451099 4.0936599 -1012.27
-33.099701 3.85532 -1011.59
-33.8853 3.72244 -1011.06
-33.5672 3.0241399 -1008.8
-33.608002 2.6819501 -1007.05
-34.602699 2.5353999 -1006.4
-34.348499 1.8150899 -1004.04
-34.376999 1.15231 -1001.64
17.658001 -1.04196 -1046.8
11.4113 1.27985 -1046.61
8.7913198 1.70895 -1046.48
7.29285 2.41241 -1046.2
6.6996498 2.5383601 -1046.23
5.2590899 3.15628 -1045.8199
3.6814001 3.3053899 -1045.6
3.0229499 3.4918799 -1045.6899
2.0018899 3.5738499 -1045.48
0.45483401 4.2276602 -1045.09
-2.01227 5.0124202 -1044.53
-3.461 4.8848901 -1043.8199
-4.3350201 5.3368802 -1043.26
-4.7101402 5.1907301 -1042.95
-5.2567101 5.2466402 -1042.84
-6.1503301 5.7270498 -1042.27
-6.8364902 5.8745098 -1042.27
-7.5925899 5.6523099 -1041.65
-8.4260902 5.4815998 -1041.1
-9.2832603 6.3548002 -1041.1801
-10.0445 6.1061702 -1040.51
-10.559 6.2203102 -1039.42
-11.5185 6.5849299 -1039.73
-12.496 6.4620099 -1039.21
-13.0613 6.4891701 -1039.04
-13.1633 6.6764202 -1038.27
-13.6688 6.65277 -1038.04
-14.7234 6.5848398 -1037.5699
-15.1988 6.4927702 -1037.28
-15.3347 6.66959 -1036.53
-16.0709 6.7838702 -1036.48
-16.534901 6.72293 -1036.1801
-16.8365 6.9816899 -1035.58
-17.283501 6.9071999 -1035.25
-17.799999 6.8159499 -1034.9399
-18.1614 7.1465502 -1034.4
-18.6327 7.04425 -1034.05
-20.049 7.2322698 -1032.9
-20.4069 7.0255399 -1032.38
-20.8221 6.8375201 -1031.95
-21.2899 6.7135901 -1031.59
-21.640301 7.0571299 -1030.92
-22.0903 6.8882098 -1030.51
-22.555401 6.7538099 -1030.09
-23.480301 6.94278 -1029.0699
-24.0364 6.8682599 -1028.74
-24.240999 6.5001798 -1028.03
-24.84 6.9674702 -1027.5699
-25.4305 6.9051199 -1027.21
-25.575399 6.4506202 -1026.38
-26.113501 6.8815899 -1025.8199
-26.408899 6.5477901 -1025.16
-26.8239 6.33569 -1024.5601
-27.680099 6.3895602 -1023.24
-27.980301 6.01547 -1022.49
-28.370199 6.28476 -1021.7
-28.881599 6.0743699 -1021.15
-29.8104 6.0141902 -1019.75
-29.819901 5.3751502 -1018.6
-30.5853 5.8700299 -1018.18
-31.5956 5.1234698 -1015.44
-32.012199 5.2799401 -1014.5
-32.349899 4.7858601 -1013.56
-33.039101 4.3626699 -1011.37
-33.220501 3.29526 -1008.29
-33.788898 3.3559301 -1007.06
-34.308998 2.82986 -1005.86
20.2917 -1.39764 -1046.01
15.6514 0.42919901 -1046.5601
11.4743 1.72949 -1046.45
9.9187603 1.98175 -1046.36
7.8220201 2.8355701 -1046.12
6.5696998 3.15411 -1046.23
5.2522001 3.6668401 -1045.7
4.1317101 3.8766201 -1045.66
3.08533 3.9735401 -1045.52
2.18433 4.5205102 -1045.0601
0.629089 4.6677198 -1044.79
-0.91198701 5.3749099 -1044.47
-1.67194 5.2758198 -1044.04
-2.7028201 5.19238 -1043.5601
-3.5728099 5.67242 -1042.99
-4.6315899 5.7185702 -1042.77
-5.2849698 5.83606 -1042.72
-6.8250098 6.4370399 -1042.14
-7.5292401 6.1940598 -1041.47
-8.3239698 5.9949002 -1040.87
-9.1689501 6.8239102 -1040.96
-9.9706402 6.6029701 -1040.3199
-10.7176 6.8064299 -1040.38
-11.3643 7.02914 -1039.46
-12.3522 6.8966699 -1038.95
-12.9218 6.92944 -1038.8
-13.0007 7.04877 -1037.99
-14.0176 6.95752 -1037.51
-15.0805 7.4495802 -1036.9301
-15.3888 7.2353201 -1036.49
-15.921 7.1778002 -1036.21
-16.243999 7.4902 -1035.66
-16.8459 7.5157199 -1035.47
-17.173401 7.3026099 -1035.02
-17.6735 7.2463698 -1034.73
-18.151699 7.6640902 -1034.26
-18.508699 7.4798899 -1033.83
-18.9736 7.3521099 -1033.45
-19.5389 7.3210101 -1033.2
-20.8123 7.40662 -1031.85
-21.675501 7.6071501 -1030.84
-22.276501 7.57654 -1030.5699
-22.756201 7.4633498 -1030.1801
-22.9464 7.65311 -1029.35
-23.3745 7.4428701 -1028.88
-23.879801 7.3247399 -1028.4399
-24.156 7.0070801 -1027.84
-24.5912 7.34903 -1027.16
-25.190399 7.29391 -1026.86
-25.570601 7.0397301 -1026.28
-25.9814 7.3670301 -1025.5699
-26.1227 6.9428701 -1024.71
-26.7637 6.8594398 -1024.38
-27.1556 7.1368399 -1023.65
-27.2955 6.6610398 -1022.74
-27.885099 7.0150499 -1022.17
-28.7397 6.45117 -1020.89
-29.5079 6.3484502 -1019.36
-30.4249 6.2734699 -1017.85
-30.8864 5.7852502 -1015.82
-31.2941 5.40555 -1014.97
-31.667801 5.5405302 -1013.97
-32.132999 5.17697 -1013.17
-32.633999 5.3154302 -1012.14
-33.025002 4.8867502 -1011.24
-33.3298 3.9175401 -1008.22
-33.9076 4.0332899 -1007
-34.788502 3.3011799 -1004.15
-34.9011 2.1826501 -1002.11
9.3966103 2.6126101 -1046.21
8.3884897 3.23593 -1045.99
6.82513 3.4647501 -1045.87
5.6847501 4.2543302 -1045.75
4.2278399 4.3496699 -1045.46
3.0337501 4.5625901 -1045.45
2.29932 4.9910002 -1044.84
0.67510998 5.1495099 -1044.63
-1.16345 5.8706698 -1044.12
-2.5838001 5.67102 -1043.3199
-3.5515101 6.23001 -1042.85
-4.4243798 6.12112 -1042.4301
-5.9129601 6.5363798 -1042.59
-5.8615699 6.0597501 -1041.83
-7.5762901 6.7769499 -1041.39
-9.1508799 6.94168 -1040.05
-10.6866 7.3418298 -1040.24
-10.7889 6.9967299 -1039.58
-11.5201 7.24896 -1038.78
-12.3036 7.3987398 -1038.8
-13.7327 7.7170401 -1037.9301
-14.0612 7.5110798 -1037.45
-15.0247 7.8958702 -1036.77
-15.1802 7.5750098 -1036.15
-15.9514 7.7286401 -1036.15
-16.2978 8.0486097 -1035.59
-16.457899 7.7283902 -1034.97
-17.0359 7.71732 -1034.78
-17.573601 7.6901898 -1034.5
-18.4263 7.95963 -1033.62
-19.0313 7.9293199 -1033.41
-20.002399 8.3066702 -1032.6
-20.261101 8.0132799 -1032.01
-20.861601 7.9667101 -1031.76
-21.273899 7.7939801 -1031.3199
-21.6301 8.1345196 -1030.66
-22.0275 7.9552598 -1030.23
-22.403099 7.7186298 -1029.6801
-22.9006 8.2072401 -1029.1801
-23.2743 7.94736 -1028.63
-23.771 7.7944598 -1028.22
-24.5823 7.9544702 -1027.05
-25.0499 7.7545199 -1026.5699
-26.099501 7.48669 -1024.5699
-26.8738 7.4885602 -1024.37
-27.1297 7.6250601 -1023.48
-27.3834 7.2192702 -1022.7
-28.671801 6.9129601 -1020.66
-29.4807 6.8023701 -1019.19
-29.6852 6.3308101 -1018.22
-30.176001 6.5912199 -1017.46
-30.719101 6.2241802 -1015.54
-31.3766 6.0429702 -1014.95
-32.073101 5.6697102 -1012.95
-32.5368 5.8519301 -1011.94
-32.802898 5.3442101 -1010.88
-32.887501 5.4198298 -1009.77
-33.816299 3.6062 -1005.03
13.5898 2.38571 -1046.2
11.7041 2.6198399 -1045.98
8.3544903 3.8264799 -1045.9
7.36237 3.91766 -1045.78
5.7446899 4.7544899 -1045.5699
4.1801801 4.9345698 -1045.39
3.1795001 5.01437 -1045.1899
1.52826 5.4459801 -1044.29
-0.81616199 5.9244399 -1044.34
-1.04205 6.3441501 -1043.89
-1.60193 6.3340502 -1043.71
-2.5936899 6.2518301 -1043.21
-4.17908 6.9127202 -1042.73
-5.0016499 6.7839098 -1042.21
-5.7472501 6.9475999 -1042.3
-6.49683 6.7618399 -1041.74
-7.4237099 7.20398 -1041.14
-8.3282499 7.5383 -1041.39
-9.04706 7.3650198 -1039.85
-10.5446 7.7684898 -1040.01
-10.8662 8.15378 -1039.63
-11.6978 7.9607501 -1038.96
-12.8147 7.9428701 -1037.59
-13.8113 8.3088999 -1037.89
-13.9327 7.9423199 -1037.1899
-15.2455 8.1361704 -1036.09
-15.8744 8.2145996 -1035.97
-16.2472 8.5795298 -1035.4399
-16.641899 8.4149799 -1035.04
-17.0676 8.30511 -1034.67
-17.511101 8.1988497 -1034.33
-18.445499 8.5108604 -1033.52
-18.9266 8.41681 -1033.1899
-19.4394 8.3189402 -1032.87
-19.7866 8.7213697 -1032.29
-20.310301 8.6198397 -1031.92
-20.6959 8.4156799 -1031.48
-20.9188 8.6578999 -1030.7
-21.965799 8.5003099 -1030.02
-22.523199 8.3955698 -1029.6899
-23.3174 8.5501699 -1028.58
-23.605499 8.23172 -1027.92
-24.5418 8.4545603 -1026.86
-24.7929 8.0940905 -1026.17
-25.573099 7.6127 -1025.03
-27.3895 7.7561598 -1022.59
-27.9175 8.0825796 -1021.96
-28.5804 7.3694201 -1020.46
-28.9792 7.0549898 -1019.81
-29.4417 7.33917 -1019.06
-29.7955 6.9808302 -1018.29
-30.0494 7.1311002 -1017.27
-30.7393 6.9541001 -1015.65
-31.0336 6.49863 -1014.69
-31.9398 6.18753 -1012.74
-32.7384 6.0736399 -1011.03
-34.381802 4.8368502 -1005.91
15.9124 1.8186001 -1046.01
13.5998 2.93243 -1046.0601
11.6149 3.2472799 -1045.95
6.5246 4.46524 -1045.35
4.2698398 5.43753 -1045.1801
3.2329099 5.5496202 -1045.02
2.30615 5.5513301 -1044.74
-0.261475 6.4875202 -1044.4
-2.1928699 6.9749799 -1043.48
-2.5722699 6.85922 -1043.12
-3.1496 6.8776598 -1043.03
-5.0255699 7.34973 -1042.12
-5.69696 7.4766798 -1042.14
-6.5724502 7.9101 -1041.55
-7.3606601 7.6886001 -1040.98
-8.7416401 8.1696196 -1040.27
-9.3594999 8.2608004 -1040.1899
-10.3077 8.1326303 -1039.73
-11.7741 8.53302 -1038.98
-12.4049 8.7026701 -1037.97
-12.9045 8.6290598 -1037.6801
-13.5377 8.64569 -1037.5
-15.1199 9.0664997 -1036.66
-15.7199 8.62082 -1035.6801
-16.691 8.9872103 -1034.96
-17.0378 8.7981005 -1034.52
-17.4993 8.7196999 -1034.2
-17.971399 8.6314096 -1033.87
-18.330601 8.9833097 -1033.28
-18.9137 8.9693003 -1033.03
-19.316099 8.8093596 -1032.61
-20.182899 9.0811501 -1031.6801
-20.726101 9.0134602 -1031.38
-21.509501 8.6395597 -1030.46
-22.8444 8.7128296 -1028.99
-23.265301 9.0795603 -1028.37
-23.740299 8.9287701 -1027.9301
-23.9974 8.5859098 -1027.27
-24.460501 8.8882799 -1026.66
-24.8922 8.7188396 -1026.17
-25.639999 8.1625996 -1024.99
-25.9361 8.3591003 -1024.16
-26.643 8.32306 -1023.88
-26.825701 8.4273701 -1022.95
-27.989201 8.0610399 -1020.84
-28.8915 8.1642799 -1020.7
-28.995501 7.6129799 -1019.7
-29.216101 7.7413001 -1018.78
-29.962299 7.70016 -1017.32
-31.1208 7.2916298 -1015.01
-32.139999 6.2839999 -1011.64
-33.0984 6.2492099 -1010.1
-33.285999 6.0390902 -1008.57
15.9808 2.3426199 -1045.83
14.3574 2.66254 -1045.85
12.6953 3.01367 -1045.91
10.126 3.9781201 -1045.6899
8.5030499 4.8229098 -1045.5
7.5001798 4.9528799 -1045.4
5.89819 5.20505 -1045.33
4.3316698 5.9664001 -1045.01
3.16925 6.2012 -1044.99
0.365906 6.98456 -1044.39
-0.24231 7.0844102 -1044.35
-1.16254 7.04178 -1043.96
-2.2572 7.6391301 -1043.5601
-2.49792 7.4099698 -1043.09
-3.9656401 7.9338999 -1042.4301
-4.8889799 7.7975798 -1041.9399
-6.4511099 8.4086304 -1041.47
-7.27075 8.26752 -1040.9
-8.24121 8.1921396 -1040.47
-9.94135 8.8444204 -1040.1801
-10.1866 8.5957603 -1039.64
-10.6353 8.5324097 -1039.38
-11.5297 8.84793 -1038.64
-12.0883 8.89645 -1038.46
-13.8259 8.9423504 -1036.86
-14.3022 8.8719196 -1036.58
-14.8845 9.4090595 -1036.28
-15.0847 9.1253405 -1035.7
-16.1313 9.0278597 -1035.2
-16.390301 9.3572998 -1034.54
-17.046101 9.4056997 -1034.4
-17.3466 9.1635103 -1033.9
-18.3368 9.5939598 -1033.16
-18.6637 9.3409996 -1032.6801
-19.157801 9.2698698 -1032.33
-19.7391 9.2291298 -1032.08
-20.0394 9.5392199 -1031.4
-20.580299 9.4801903 -1031.1
-20.8151 9.1509705 -1030.46
-21.480801 9.1772203 -1030.28
-21.8895 9.5866699 -1029.7
-22.657301 9.1371803 -1028.6801
-23.5487 9.2618999 -1027.62
-24.136499 9.22052 -1027.3
-24.762899 9.1189003 -1025.9
-25.0728 8.8179302 -1025.27
-25.947701 8.8763103 -1024.0601
-26.707899 8.9075899 -1023.84
-26.9366 9.04984 -1022.94
-27.373501 8.7963896 -1022.32
-27.6567 8.3957195 -1021.56
-28.2453 8.1710796 -1019.87
-28.8713 8.6234999 -1019.33
-29.249599 8.3592796 -1018.72
-31.0555 7.9407001 -1016.22
-31.184299 7.9937401 -1015.05
-31.775801 7.7623301 -1014.44
-32.643902 7.4685998 -1012.42
-32.896099 6.9024 -1011.33
-33.886799 6.0198998 -1007.2
-34.125999 5.8880901 -1005.71
-34.319302 5.0978999 -1004.33
16.4179 2.8981299 -1045.89
12.8257 4.0148001 -1045.55
10.8127 4.3136601 -1045.41
8.5378399 5.3552198 -1045.34
7.5043302 5.5142498 -1045.26
5.1203599 6.3013902 -1044.7
3.32758 6.7070599 -1044.79
1.36475 6.9191298 -1044.55
0.515625 7.4285598 -1044.12
-0.77404797 7.7189598 -1044.16
-1.69043 7.5974398 -1043.71
-2.2028201 8.1365099 -1043.5
-3.06793 7.9974399 -1042.97
-3.4465301 7.9296899 -1042.66
-4.526 8.5181904 -1042.35
-5.4260898 8.4423504 -1041.83
-5.8848901 8.3630104 -1041.59
-6.8471699 8.9110699 -1041.28
-7.3418002 8.8741798 -1041.0601
-8.2851 8.8156404 -1040.67
-9.2490196 9.2895803 -1040.11
-9.8624296 9.2899799 -1040
-10.3093 9.2259502 -1039.7
-10.7929 9.7662001 -1039.24
-12.0371 9.4428701 -1038.35
-12.5391 9.4038095 -1038.11
-12.9301 9.8107004 -1037.65
-13.3837 9.6942101 -1037.24
-13.7037 9.4042101 -1036.67
-15.6328 9.6568604 -1035.34
-16.536301 10.0274 -1034.5601
-16.856501 9.8148499 -1034.0601
-17.305201 9.7176504 -1033.73
-17.8563 9.6623497 -1033.47
-18.2234 10.0417 -1032.9301
-18.680099 9.9169903 -1032.55
-18.976 9.7015104 -1032.02
-19.5795 9.6960096 -1031.78
-19.9981 10.0831 -1031.24
-20.3717 9.8646202 -1030.74
-20.9786 9.8531504 -1030.54
-21.1495 9.9693604 -1029.7
-21.8484 10.0504 -1029.55
-22.248199 9.7942495 -1029.04
-22.771799 9.7217999 -1028.67
-22.970301 9.8741102 -1027.8199
-23.479401 9.7174101 -1027.4301
-24.235701 9.7775297 -1026.2
-25.233999 9.4623098 -1025.3
-25.525801 9.6487398 -1024.49
-26.5494 9.8944397 -1023.44
-26.709999 9.4276695 -1022.56
-27.225 9.2272596 -1022.04
-27.542801 8.8922997 -1021.32
-27.9543 8.5868502 -1020.68
-28.5518 8.9913597 -1020.09
-29.486 9.1289997 -1018.87
-30.3922 8.6528597 -1016.54
-30.9354 8.2976999 -1014.58
-31.704901 8.2345304 -1014.15
-32.011799 7.7137499 -1013.15
-32.366901 7.7937899 -1011.98
-32.838699 7.4078698 -1011.14
-33.2062 7.3991399 -1009.89
-33.3536 6.5570698 -1008.36
-33.516499 6.28058 -1006.75
-33.921001 6.18539 -1005.26
-34.635101 6.2631798 -1003.99
-34.2299 4.6248798 -1001.36
16.6005 3.3524201 -1045.61
14.9172 3.6441 -1045.55
9.7608004 5.0675402 -1045.24
7.6630902 5.96878 -1045.02
6.8048701 5.9706998 -1044.74
4.36096 7.1649499 -1044.92
2.9719801 7.2610202 -1044.63
1.73334 7.54108 -1044.7
-0.0073852502 7.9828501 -1043.91
-1.7687401 8.72437 -1043.65
-2.13129 8.6313496 -1043.35
-3.0102501 8.5531301 -1042.91
-3.94293 9.0268602 -1042.45
-4.4292002 9.0025902 -1042.29
-5.2429199 8.8471098 -1041.6899
-6.737 9.3885202 -1041.14
-7.9826002 9.13025 -1040.22
-8.9116802 9.9629803 -1040.3199
-10.8597 9.8728304 -1038.42
-12.0106 9.9444304 -1038.2
-13.4366 10.3023 -1037.25
-13.7496 10.0549 -1036.67
-14.0386 9.7916002 -1036.0699
-14.6522 10.3589 -1035.79
-14.9557 10.1382 -1035.3
-15.4626 10.1043 -1035.04
-15.903 9.9732103 -1034.71
-16.366899 10.4458 -1034.25
-17.339399 10.2859 -1033.63
-17.7299 10.1383 -1033.22
-18.625401 10.4515 -1032.37
-19.1544 10.3842 -1032.08
-19.630301 10.2853 -1031.73
-19.909901 10.4898 -1031.01
-20.8503 10.2691 -1030.27
-21.0194 10.3828 -1029.4399
-21.6395 10.3917 -1029.22
-22.1292 10.2332 -1028.8101
-22.6425 10.1572 -1028.42
-22.851 10.3003 -1027.58
-23.427 10.2085 -1027.27
-24.157 10.2255 -1026
-24.4645 9.9383898 -1025.36
-25.1633 9.9548597 -1025.12
-25.362101 10.0771 -1024.21
-25.8416 9.87677 -1023.71
-25.989 9.9468403 -1022.67
-27.115601 9.69034 -1021.81
-27.6835 9.5294504 -1021.34
-28.304399 9.36621 -1019.64
-28.781799 9.1325703 -1019.1
-29.897301 8.8656902 -1017.05
-30.759899 8.8471403 -1015.56
-31.7547 8.0372 -1012.69
-31.5109 8.3713398 -1012.25
-32.153 8.1073599 -1011.57
-32.8022 8.3516197 -1010.74
-33.163601 7.8520799 -1009.62
-33.039501 7.3276401 -1007.7
-33.233398 6.5683298 -1006.24
-33.933201 6.6570101 -1004.99
-34.6544 5.3216901 -1001.27
13.7314 4.7968102 -1044.96
9.4202299 6.1947598 -1044.87
7.7252798 6.5517902 -1044.92
3.56775 7.7020302 -1044.6
1.74457 8.0515099 -1044.61
0.89379901 8.4988098 -1044.12
0.171082 8.3558702 -1043.64
-0.95050001 8.4518099 -1043.4301
-1.88239 8.9627399 -1042.97
-3.02844 9.1061096 -1042.86
-4.02106 9.6556997 -1042.46
-4.3232999 9.4907503 -1042.11
-5.3592501 9.5098 -1041.78
-6.4049101 9.54041 -1041.51
-7.0795298 10.2221 -1041.38
-7.3862901 10.0469 -1040.92
-11.0447 10.5975 -1038.55
-11.2384 10.2903 -1037.97
-13.3093 10.7839 -1037.01
-13.6107 10.5517 -1036.4301
-14.1861 10.462 -1036.1
-14.5225 10.8441 -1035.54
-14.8641 10.6452 -1035.0699
-16.7034 10.8261 -1033.66
-17.6994 10.6884 -1033.08
-18.5007 10.852 -1032.13
-19.0338 10.7825 -1031.83
-19.515699 10.6771 -1031.48
-19.2589 10.9824 -1031.09
-19.8627 10.9668 -1030.85
-20.292101 10.8476 -1030.45
-20.8368 10.7633 -1030.12
-21.1649 11.0312 -1029.47
-21.736 10.9858 -1029.1801
-21.963499 10.6523 -1028.51
-22.3972 10.9914 -1027.9301
-22.890699 10.818 -1027.49
-23.068199 10.4448 -1026.76
-23.878099 10.5733 -1026.6899
-24.1292 10.761 -1025.8199
-24.573 10.5655 -1025.35
-24.973 10.3374 -1024.77
-25.510401 10.7459 -1024.23
-25.923599 10.4756 -1023.66
-26.0476 10.5573 -1022.61
-26.738199 10.0005 -1022.45
-27.5408 9.9769001 -1021.04
-27.958401 10.3223 -1020.29
-28.111099 9.7849398 -1019.29
-28.942699 9.7944298 -1017.88
-29.507099 9.6874704 -1017.54
-30.617201 9.2168303 -1015.16
-31.1343 8.9539804 -1014.53
-31.014799 9.3598003 -1014.24
-31.488899 9.0746803 -1013.5
-31.851101 9.1400499 -1012.47
-32.447201 8.8631897 -1011.74
-32.4753 8.6111498 -1010.2
-32.572399 7.8552198 -1008.82
-33.151402 7.9734201 -1007.73
-32.674599 6.6659498 -1005.52
-34.0228 4.5991502 -996.67999
14.5011 5.5237699 -1045.3199
11.3767 5.97824 -1045.11
8.8266001 6.9198599 -1044.95
7.1232901 7.2677302 -1045
5.5296602 7.5257001 -1044.9
4.6571698 8.0453796 -1044.59
1.9596601 8.9368601 -1044.1899
0.92022699 9.0217304 -1043.98
-0.166199 9.2259197 -1043.85
-0.61340302 9.22122 -1042.8101
-1.63904 9.6746798 -1043.25
-2.8615699 9.4922199 -1042.5699
-3.07025 9.8054504 -1041.98
-4.0363798 9.8141804 -1041.66
-4.8421602 10.0536 -1041.83
-6.5241699 10.7425 -1041.39
-8.5814199 10.7688 -1039.6
-8.4907198 10.2691 -1038.72
-9.6294603 10.7636 -1039.17
-10.0504 11.2095 -1038.8199
-11.7947 10.8862 -1037.72
-13.0234 11.1371 -1036.5699
-13.6963 11.1651 -1036.4
-13.9782 11.3809 -1035.64
-14.4701 11.3381 -1035.34
-14.7418 11.0857 -1034.85
-15.4204 11.1743 -1034.72
-15.6102 10.8707 -1034.14
-16.3428 11.4981 -1033.99
-16.687099 11.3073 -1033.53
-17.127701 11.1839 -1033.1801
-17.591299 11.0962 -1032.8199
-18.0784 11.5194 -1032.37
-18.3939 11.2783 -1031.89
-18.975201 11.2848 -1031.65
-19.219801 11.4846 -1030.9301
-19.7756 11.4118 -1030.65
-20.0595 11.1573 -1030.05
-21.1509 11.5452 -1029.3199
-21.608 11.3783 -1028.9399
-21.9828 11.1469 -1028.38
-22.367399 11.5264 -1027.74
-22.685101 11.219 -1027.16
-23.2297 11.1014 -1026.8
-24.592199 11.1 -1025.23
-24.951 10.8487 -1024.63
-25.7323 10.907 -1023.3
-26.6252 11.0146 -1022.05
-26.860701 10.5959 -1021.24
-27.6439 10.5941 -1019.76
-28.3519 10.5164 -1019.39
-28.598 10.1107 -1018.58
-28.731899 10.1507 -1017.48
-29.292299 9.9827299 -1017.03
-29.680599 10.1779 -1016.26
-30.355801 10.1268 -1015.9
-30.577101 9.6936998 -1014.96
-31.044701 9.9676199 -1014.17
-31.77 9.8086901 -1013.67
-31.6572 9.5111399 -1012.16
-32.3461 9.3404799 -1011.52
-32.691101 8.4991503 -1008.82
-32.883701 8.3517199 -1007.29
-33.7271 8.0687904 -1006.52
-33.9603 7.7593098 -1004.8
-34.184399 6.8593102 -1002.98
-34.142601 5.3540602 -996.62799
18.4676 4.47855 -1044.9
12.4008 6.3978901 -1045.22
9.8635302 7.3361802 -1045.03
8.2620201 7.6188002 -1044.97
7.21802 7.74719 -1044.88
3.1415999 8.7357502 -1044.23
2.00073 9.4326801 -1044.04
1.04889 9.44174 -1043.74
0.0130615 9.5607595 -1043.52
-0.68945301 9.8110704 -1042.74
-1.5563999 10.1467 -1043.03
-2.3035901 9.9988699 -1042.53
-3.8646901 10.6081 -1042.02
-5.3732901 10.6319 -1041.59
-5.7005 11.0452 -1041.08
-6.2171001 11.0564 -1040.9301
-7.0462599 10.8662 -1040.27
-7.5788598 10.8625 -1040.08
-8.5773296 10.8622 -1038.73
-9.5932598 11.2643 -1039.05
-10.1566 11.428 -1038.05
-10.995 11.7211 -1038.17
-12.5422 11.7906 -1036.7
-13.0613 11.6974 -1036.4301
-14.4712 11.8697 -1035.24
-14.6739 11.5582 -1034.64
-15.2562 12.0645 -1034.35
-15.712 11.9881 -1034.02
-16.023199 11.7661 -1033.54
-16.612101 11.7494 -1033.33
-17.100599 11.693 -1033.03
-17.415501 11.9392 -1032.41
-18.036301 11.9887 -1032.23
-18.430799 11.8156 -1031.78
-18.898199 11.7096 -1031.4399
-19.2502 12.0221 -1030.85
-19.794901 11.9822 -1030.55
-20.233299 11.8167 -1030.12
-20.5756 11.5869 -1029.59
-20.923599 11.8897 -1028.97
-21.3435 11.7354 -1028.52
-21.902599 11.6484 -1028.17
-22.069901 11.7955 -1027.3101
-23.0042 11.4907 -1026.4301
-23.558201 11.4173 -1026.09
-24.4897 11.5995 -1024.99
-25.0877 11.5217 -1023.47
-25.7096 11.4293 -1023.13
-26.1224 11.1954 -1022.54
-26.895 11.2074 -1021.13
-27.3888 11.5274 -1020.46
-27.5313 11.0434 -1019.51
-29.0807 10.9273 -1017.69
-29.226101 10.3945 -1016.75
-30.0259 10.3362 -1015.33
-30.6793 10.1593 -1013.68
-31.569599 10.1243 -1013.3
-31.472099 9.9282799 -1011.81
-31.808901 9.3810997 -1010.77
-32.181301 9.51614 -1009.71
-32.547401 8.9512596 -1008.55
-33.1702 8.1462698 -1005.77
-32.946499 7.51331 -1003.52
-34.010399 5.6525002 -995.89001
17.7943 5.20297 -1044.92
12.4744 6.8911099 -1045.13
8.8883696 7.9822698 -1044.8
7.35638 8.1777 -1044.65
4.1918898 9.1789198 -1044.37
3.1104701 9.8737497 -1044.11
1.01434 9.9997902 -1043.64
0.80828899 9.7627897 -1043.17
-0.41992199 10.509 -1043
-1.46753 10.5879 -1042.8
-1.4529999 10.179 -1042.14
-2.9481201 10.7696 -1041.55
-3.6608901 10.9897 -1041.65
-4.65942 11.0075 -1041.37
-6.13062 11.5634 -1040.73
-6.3740802 11.2905 -1040.24
-8.61835 11.8826 -1039.4
-9.2467003 11.5298 -1038.5699
-10.0276 11.7732 -1038.6899
-9.9882803 11.8342 -1037.73
-11.0886 11.8801 -1037.4
-11.6145 11.8915 -1037.27
-12.5236 12.1968 -1036.51
-12.8578 11.963 -1036.01
-13.6486 12.1568 -1035.04
-14.5007 12.416 -1035.15
-14.4698 11.8939 -1034.29
-16.102699 12.3227 -1033.5
-16.606501 12.2498 -1033.22
-16.9641 12.5888 -1032.63
-17.3016 12.4034 -1032.16
-18.007401 12.4799 -1032.08
-18.2351 12.1773 -1031.46
-18.616699 12.567 -1030.91
-19.207899 12.5483 -1030.67
-19.556499 12.3079 -1030.14
-20.0182 12.2133 -1029.79
-20.601601 12.6757 -1029.37
-20.8165 12.3521 -1028.71
-22.076799 12.3661 -1027.1899
-22.815399 12.4279 -1027.0601
-22.9296 12.0103 -1026.22
-23.560101 12.5354 -1025.77
-24.032 12.3477 -1025.3
-24.565701 12.2131 -1024.91
-25.0198 12.024 -1023.27
-25.6854 11.9513 -1021.76
-26.714199 11.6152 -1020.81
-27.606899 11.6374 -1019.47
-28.2153 11.4965 -1019
-28.8887 11.2502 -1017.3
-29.371799 10.9637 -1015.52
-30.2167 11.1269 -1015.49
-30.492201 10.7744 -1014.74
-31.1306 10.3288 -1012.73
-31.3641 10.4311 -1011.62
-31.764299 9.8523903 -1010.57
-32.507599 9.4879503 -1008.42
-32.8008 9.3996897 -1006.95
-33.2491 8.8176298 -1005.77
-33.0891 6.2079501 -997.29199
18.5774 5.4085102 -1044.53
12.0616 7.4502001 -1044.9399
8.8224497 8.5690899 -1044.75
5.2520099 9.6166401 -1044.37
4.5955801 9.7744799 -1044.4399
2.2904699 10.3445 -1043.58
1.94165 10.2289 -1043.25
-0.35882601 11.001 -1042.8
-1.21149 10.9507 -1042.39
-2.0770299 10.9017 -1042.01
-3.11993 11.4851 -1041.5699
-3.7402301 11.5993 -1041.58
-4.5645099 11.4699 -1041.13
-6.07025 12.0674 -1040.53
-6.4194298 11.8988 -1040.11
-7.3531499 11.7921 -1039.58
-7.5395498 12.0351 -1038.87
-8.5109301 11.9022 -1038.36
-9.0774498 11.959 -1038.27
-9.9901104 12.3014 -1038.53
-10.2845 12.5292 -1037.85
-10.809 12.6123 -1037.83
-12.3452 12.5479 -1036.12
-13.1945 12.2229 -1035.33
-13.7188 12.7002 -1034.98
-14.2802 12.7594 -1034.8
-14.463 12.3953 -1034.1801
-15.4376 12.7646 -1033.49
-15.9268 12.7241 -1033.1899
-16.568501 12.7516 -1033.04
-17.318701 12.9563 -1032.04
-17.8463 12.9282 -1031.77
-18.328899 12.807 -1031.4399
-18.6831 13.135 -1030.84
-19.548201 12.8672 -1030.03
-20.020201 12.7179 -1029.65
-20.814899 12.8901 -1028.5699
-21.187599 12.7023 -1028.08
-21.678801 12.5674 -1027.6899
-22.2372 13.065 -1027.21
-22.6131 12.8329 -1026.67
-23.479401 13.0144 -1025.5601
-23.9683 12.8833 -1025.09
-24.7323 12.3625 -1023.93
-25.4713 12.3885 -1022.59
-26.388 12.4404 -1021.37
-26.8354 12.2086 -1020.81
-27.1049 12.3604 -1019.91
-27.5611 12.0879 -1019.29
-27.8594 11.7198 -1018.5
-28.4426 12.0703 -1017.88
-29.0135 11.8738 -1017.34
-29.2052 11.396 -1016.4
-30.17 11.6848 -1015.49
-30.2992 11.1126 -1014.42
-30.677601 11.1969 -1013.32
-31.290199 11.0247 -1012.77
-31.7381 10.4142 -1010.43
-32.3741 9.95364 -1008.17
-32.900799 9.1064501 -1005.24
-33.335602 8.2901897 -1001.27
-33.463001 5.8638 -993.245
10.4529 8.7967196 -1044.6
9.52069 8.8680696 -1044.42
7.30408 9.3579702 -1044.58
5.9040499 9.9997902 -1044.1899
4.7094698 10.2253 -1044.2
3.6071801 10.3853 -1044.11
2.25879 10.9013 -1043.5
1.91119 10.808 -1043.2
1.0956399 10.6047 -1042.62
-0.172668 11.4518 -1042.49
-1.16028 11.4547 -1042.1801
-2.8067601 11.7885 -1041.11
-3.62378 12.0541 -1041.3101
-4.5396099 12.0407 -1040.95
-6.3284302 12.3315 -1039.9
-6.87146 12.4001 -1039.76
-8.53687 12.9302 -1039.08
-8.9411001 12.3957 -1038
-9.5167198 12.9508 -1037.73
-10.6085 12.9669 -1037.45
-11.8061 13.0852 -1036.25
-12.3245 12.9935 -1035.92
-13.0198 13.1105 -1034.92
-13.6367 13.14 -1034.76
-14.2247 13.2125 -1034.61
-15.5398 13.4055 -1033.47
-16.923 13.1018 -1032.47
-17.2162 13.3882 -1031.8199
-17.635401 13.2869 -1031.4399
-17.989201 13.0634 -1030.98
-19.097 13.562 -1030.29
-19.3601 13.2586 -1029.6801
-19.974501 13.2608 -1029.46
-20.657801 13.3664 -1028.26
-21.141399 13.2301 -1027.89
-21.7166 13.1497 -1027.5699
-22.107201 13.5049 -1026.9301
-22.5599 13.3501 -1026.46
-22.9286 13.1106 -1025.9301
-23.899799 13.3486 -1024.88
-24.184401 13.0333 -1024.22
-25.7533 13.0425 -1021.58
-26.0928 12.7126 -1020.97
-26.8102 12.7119 -1020.65
-27.1196 12.8832 -1019.8
-27.462601 12.5211 -1019.05
-27.8981 12.2229 -1018.38
-28.563 12.0482 -1016.74
-29.134899 11.9293 -1016.29
-29.778601 11.9342 -1014.93
-30.5576 11.8469 -1014.53
-30.4568 11.5814 -1012.96
-31.0114 11.4216 -1012.48
-31.5228 10.8245 -1010.05
-32.220402 10.6939 -1009.49
-32.0826 10.3442 -1007.72
-33.011002 10.1601 -1007.12
-32.5037 10.3016 -1006.34
-33.083099 9.8358498 -1005.31
16.538 6.8426499 -1044.3
12.6035 8.4392996 -1044.66
11.6798 8.5030203 -1044.53
10.0637 9.28195 -1044.3
7.36237 9.8556805 -1044.4301
6.4355502 10.4719 -1044.08
4.7211299 10.7434 -1044.02
3.7613499 10.8078 -1043.8
2.8549199 11.3621 -1043.36
1.82434 11.4448 -1043.1801
-1.06616 11.9354 -1041.9399
-1.40271 11.8214 -1041.64
-2.60413 12.5853 -1041.46
-3.5332601 12.5247 -1041.09
-3.81494 12.3702 -1040.71
-4.87256 12.4451 -1040.51
-6.0483999 12.6646 -1039.51
-7.2339501 12.7465 -1039.26
-7.86725 12.9193 -1038.27
-9.8858004 13.3326 -1037.3
-10.5768 13.4435 -1037.28
-10.9664 13.3279 -1036.9399
-11.7896 13.6012 -1036.14
-12.1848 13.4395 -1035.6801
-13.3824 13.5139 -1034.36
-14.134 13.6657 -1034.4
-14.5289 13.5273 -1033.99
-15.0326 13.4774 -1033.74
-15.2416 13.7008 -1033
-16.055599 13.8805 -1033.05
-16.8246 13.5862 -1032.24
-17.113899 13.8847 -1031.5699
-18.0539 13.7012 -1030.9
-19.330299 13.7831 -1029.51
-19.9221 13.7848 -1029.25
-20.2358 13.5298 -1028.71
-20.653 13.8849 -1028.12
-21.0924 13.7654 -1027.6899
-21.729799 13.7503 -1027.4399
-22.4284 13.7947 -1026.2
-22.8328 13.5837 -1025.7
-23.7204 13.7151 -1024.5699
-23.9858 13.3647 -1023.87
-24.289801 13.5896 -1023.1
-25.049 13.6205 -1022.89
-25.3708 13.2991 -1022.22
-25.7978 13.5817 -1021.51
-26.094801 13.2474 -1020.83
-26.4659 12.9394 -1020.18
-27.4951 13.0569 -1018.95
-27.7759 12.6601 -1018.11
-28.831699 12.9337 -1017.03
-28.913 12.478 -1016.13
-29.4531 12.297 -1015.73
-29.884199 12.4736 -1014.85
-30.110399 11.9323 -1013.83
-31.5618 11.7061 -1011.64
-32.374802 11.3717 -1009.53
-32.5504 11.2996 -1008.13
-33.238098 10.5664 -1005.31
-32.974499 8.8786898 -1000.17
11.7982 8.9628296 -1044.26
7.46387 10.3311 -1044.1801
6.6503301 10.8466 -1043.6899
5.4305401 11.0693 -1043.72
2.99524 11.8078 -1043.05
2.13428 11.7647 -1042.71
0.97399902 11.9186 -1042.6
0.0012207 12.4588 -1042.14
-0.19207799 12.1855 -1041.6
-1.28174 12.2672 -1041.39
-1.85724 12.3666 -1041.33
-2.76208 12.7805 -1040.8
-3.7476201 12.796 -1040.53
-4.6911602 12.7967 -1040.22
-5.9023399 13.5009 -1039.97
-6.04913 13.1768 -1039.38
-6.7179599 13.299 -1039.39
-7.24475 13.7847 -1039.05
-7.9672198 13.4437 -1038.24
-8.5019503 13.4351 -1038
-9.5874004 13.9734 -1037.61
-10.6122 13.9911 -1037.24
-11.7524 14.1403 -1036.02
-12.3719 14.1215 -1035.8
-13.437 14.0843 -1034.3199
-14.3366 13.9145 -1033.66
-15.22 14.156 -1033.78
-15.6934 14.1642 -1032.5601
-16.374701 14.2409 -1032.4399
-16.7472 14.0743 -1032.02
-17.046 14.4035 -1031.37
-18.097 14.2679 -1030.79
-18.508499 14.1339 -1030.39
-18.9153 14.5408 -1029.83
-19.3262 14.3692 -1029.36
-19.708401 14.1562 -1028.88
-20.1523 14.0314 -1028.5
-20.5958 14.4184 -1027.92
-21.0383 14.2578 -1027.51
-21.3253 13.9622 -1026.88
-21.862499 13.8806 -1026.53
-22.3339 14.2253 -1025.98
-22.636801 13.9182 -1025.33
-23.4009 14.0099 -1025.22
-23.612 14.115 -1024.3199
-24.0569 13.9576 -1023.84
-24.8853 14.0135 -1022.58
-25.070499 13.5729 -1021.79
-26.074699 13.7464 -1020.67
-26.610399 13.631 -1020.2
-26.8979 13.226 -1019.42
-27.2645 13.4479 -1018.57
-27.7353 13.1638 -1017.91
-28.7122 13.4582 -1016.97
-28.9678 13.0804 -1016.2
-29.5417 12.6771 -1014.17
-30.386499 12.7346 -1013.93
-30.491199 12.1621 -1012.9
-31.5765 12.3092 -1011.55
-31.2225 11.1241 -1009.58
-32.245201 11.8386 -1009.28
-32.402599 11.7069 -1007.76
-32.378101 10.6946 -1005.96
-32.078201 10.8719 -1005.3
-33.540798 10.4932 -1003.1
-33.408298 9.5931101 -1000.19
14.4411 8.9497099 -1044.01
11.825 9.45963 -1044.08
10.2447 10.2549 -1043.84
7.2223501 10.7085 -1043.67
5.4874902 11.5675 -1043.48
3.40558 11.8094 -1043.2
2.07166 12.3372 -1042.61
0.97637898 12.5023 -1042.53
-1.02905 12.9734 -1041.6899
-1.80267 12.8157 -1041.16
-2.6781001 13.25 -1040.64
-3.5218501 13.5408 -1040.85
-4.2155199 13.3106 -1040.25
-4.9274902 13.6134 -1039.51
-6.1259799 13.7133 -1039.33
-8.1915302 14.1316 -1038.3199
-8.8866596 14.4183 -1037.47
-9.5901499 14.5532 -1037.53
-10.4205 14.3857 -1036.9399
-11.4457 14.8846 -1036.36
-11.8905 14.7834 -1036.0601
-12.1671 14.5011 -1035.47
-12.7784 14.4894 -1035.21
-13.3359 14.5799 -1034.0601
-14.1558 14.7981 -1034.16
-15.2128 14.2503 -1032.86
-15.6445 14.7021 -1032.36
-16.1957 14.6825 -1032.11
-16.947901 14.8643 -1031.11
-17.3605 14.7433 -1030.74
-18.084801 14.8525 -1030.64
-18.452299 14.6313 -1030.2
-18.9202 15.0802 -1029.6899
-19.325399 14.9107 -1029.23
-19.9041 14.8504 -1028.95
-20.129801 14.5635 -1028.35
-20.399799 14.7284 -1027.58
-21.070601 14.7882 -1027.4
-21.441601 14.5263 -1026.86
-22.313101 14.7215 -1025.8199
-22.507601 14.3211 -1025.05
-24.049299 14.4766 -1023.68
-24.210699 14.5493 -1022.73
-25.9877 14.2177 -1020.45
-26.5142 14.0596 -1019.93
-26.6591 13.5678 -1019
-27.283001 13.9673 -1018.4
-28.2152 13.596 -1017.41
-28.7491 14.0157 -1016.8
-28.9307 13.5009 -1015.85
-29.322399 13.2039 -1015.18
-29.496799 13.2291 -1013.95
-30.747299 12.917 -1011.8
-31.1705 12.5476 -1010.95
-31.4006 12.3706 -1009.37
-31.9478 12.1295 -1008.75
-32.828499 11.1801 -1004.42
-33.1064 10.6726 -1002.45
-32.986801 9.6882896 -999.37701
12.3953 9.84161 -1043.86
11.4663 10.5302 -1043.59
8.5680504 11.1617 -1043.77
7.59656 11.3041 -1043.71
5.1198702 12.0202 -1043.04
3.72717 12.5303 -1042.49
2.60797 12.7444 -1042.5
1.42224 12.9782 -1042.53
0.59185803 13.4256 -1042.03
-0.044738799 13.1349 -1041.26
-0.96533197 13.4476 -1041.54
-2.6461201 13.7461 -1040.48
-3.2732501 13.8446 -1040.47
-4.2257099 14.3185 -1040.01
-5.9191298 14.5131 -1039.75
-6.6898799 14.3118 -1039.11
-6.8443599 14.5112 -1038.35
-7.15729 14.2759 -1037.85
-8.2771597 14.3303 -1037.53
-10.5326 14.9979 -1036.92
-12.6621 14.9549 -1034.97
-13.2482 15.078 -1033.84
-14.0304 15.2463 -1033.88
-14.243 14.9618 -1033.27
-14.6728 14.8727 -1032.95
-15.1555 15.3165 -1032.51
-15.574 15.1963 -1032.14
-16.1497 15.1626 -1031.91
-16.5369 15.0529 -1031.54
-17.471399 15.3808 -1030.7
-17.9678 15.2916 -1030.39
-18.381599 15.1284 -1029.95
-18.5898 15.3325 -1029.22
-19.2416 15.347 -1029.02
-19.667299 15.1879 -1028.62
-20.3988 15.2461 -1027.46
-20.914499 15.1587 -1027.1
-21.3888 15.0234 -1026.6899
-22.2327 15.1561 -1025.6
-22.6896 14.9892 -1025.14
-23.0207 14.739 -1024.55
-23.595301 15.1377 -1024.01
-24.4858 15.309 -1022.89
-24.633801 14.8531 -1022.04
-24.992201 14.56 -1021.4
-26.074301 14.7819 -1020.37
-26.321501 14.4176 -1019.58
-27.9606 13.8904 -1016.89
-28.472799 14.2629 -1016.19
-28.700899 13.8595 -1015.34
-29.625099 13.9348 -1014.02
-30.0574 13.6699 -1013.33
-30.459999 13.3112 -1012.59
-30.690201 13.423 -1011.51
-31.878099 12.5673 -1008.43
-32.495399 12.6231 -1007.2
-32.1819 11.9168 -1004.92
-32.6544 11.4661 -1003.92
19.5513 8.1841402 -1043.22
15.7587 9.5853596 -1043.33
10.4166 11.27 -1043.46
9.3803701 11.4063 -1043.35
7.8007798 12.0562 -1043.02
7.4498901 12.0002 -1042.77
5.71667 12.322 -1042.78
4.6834698 12.4558 -1042.6801
3.34955 12.9341 -1042.0699
0.69415301 13.8339 -1041.75
-0.16369601 13.7743 -1041.3199
-0.80468798 13.8744 -1041.3199
-1.51685 14.1301 -1040.52
-2.3220799 14.3877 -1040.6899
-3.2049 14.3179 -1040.3
-4.80511 14.9701 -1039.8101
-5.7959599 14.5203 -1038.75
-6.7927198 14.9843 -1038.12
-7.9783902 15.0541 -1037.79
-8.8966103 14.9669 -1037.35
-9.4900503 15.594 -1037.15
-10.3468 15.4323 -1036.61
-11.6384 15.6931 -1035.47
-11.9268 15.4377 -1034.91
-12.6398 15.5067 -1034.8199
-13.2158 15.6088 -1033.6801
-13.9214 15.6977 -1033.63
-14.1487 15.4049 -1033.03
-15.1036 15.811 -1032.33
-15.5665 15.7051 -1031.99
-15.9904 15.5888 -1031.63
-16.509001 15.5666 -1031.37
-16.907499 15.3937 -1030.9399
-17.354799 15.787 -1030.45
-17.819401 15.6649 -1030.11
-18.174101 15.9563 -1029.49
