# .PCD v0.7 - Point Cloud Data file format
VERSION 0.7
FIELDS x y z
SIZE 4 4 4
TYPE F F F
COUNT 1 1 1
WIDTH 1665
HEIGHT 1
VIEWPOINT 0 0 0 1 0 0 0
POINTS 1665
DATA ascii
-28.7852 19.094101 -993.14502
-28.5923 18.9963 -992.61603
-28.5189 18.908501 -992.026
-28.5242 18.873501 -991.45599
-28.024 18.5508 -989.836
-27.7416 18.395399 -988.73999
-28.041401 18.3808 -987.617
-27.3955 18.1768 -987.11902
-26.9627 18.004299 -986.08301
-27.376101 18.0867 -985.51202
-27.331699 18.0513 -985.00098
-26.6607 17.7985 -984.52802
-26.554701 17.6672 -983.48102
-26.453501 17.5828 -982.99597
-26.482599 17.530899 -982.49103
-25.820601 17.3176 -982.05603
-25.3682 17.110201 -981.09198
-24.768499 16.785801 -979.16699
-24.300501 16.5994 -978.22699
-23.542 16.2938 -976.88
-22.991301 16.062401 -976.00299
-22.742599 15.9915 -975.552
-22.131701 15.7518 -974.68402
-21.807699 15.6331 -973.79102
-21.325899 15.4517 -973.41901
-20.3724 15.116 -972.17499
-19.917999 14.9603 -971.34497
-19.366301 14.7846 -970.539
-15.3658 13.5359 -966.80499
-11.2687 12.3552 -963.797
-15.539 20.761 -1029.0699
-17.1859 20.7609 -1027.0699
-18.378799 20.835899 -1025.42
-19.627701 20.9263 -1023.9
-21.254299 21.202499 -1022.47
-21.476101 21.0681 -1021.32
-22.873199 21.2153 -1019.99
-23.2675 21.2043 -1018.94
-23.429701 21.1063 -1017.98
-24.425699 21.230101 -1016.87
-24.4151 21.0956 -1016.01
-25.518999 21.1626 -1014.12
-26.0161 21.1824 -1013.21
-25.8619 21.0287 -1012.41
-26.502701 21.0902 -1011.51
-26.791 21.059401 -1010.67
-26.9133 21.005899 -1009.88
-27.2987 20.996799 -1009.06
-27.537701 20.9377 -1008.22
-27.679399 20.910101 -1007.51
-27.863001 20.857599 -1006.77
-27.929701 20.8078 -1006.08
-28.056601 20.7638 -1005.38
-28.284901 20.724001 -1004.63
-28.361099 20.674999 -1003.94
-28.2988 20.5877 -1003.28
-28.589001 20.4807 -1001.88
-28.931499 20.5158 -1001.14
-28.764999 20.3948 -1000.54
-28.7344 20.247601 -999.23499
-28.8395 20.1565 -997.94897
-29.082899 20.129801 -997.289
-28.651899 19.8111 -995.52698
-28.991301 19.847 -994.84399
-28.634001 19.621 -993.71301
-28.7516 19.6101 -993.10901
-28.282301 19.4091 -992.62701
-28.1758 19.301901 -992.03601
-28.224701 19.2304 -990.88202
-27.919399 19.0555 -989.76898
-28.0833 19.0784 -989.18799
-27.7353 18.8657 -988.14398
-27.7101 18.7516 -986.51398
-27.374001 18.4965 -984.88
-26.576799 18.235701 -984.45801
-26.2253 18.0331 -983.44397
-26.558599 18.075399 -982.86603
-26.5058 18.0042 -982.38098
-26.277599 17.870399 -981.367
-25.650299 17.6563 -980.95398
-25.2437 17.512699 -980.49402
-24.681499 17.2861 -979.55701
-25.2136 17.4142 -978.98798
-24.388399 17.0798 -977.646
-24.021799 16.9321 -976.72302
-22.840599 16.523899 -975.453
-22.537701 16.3652 -974.54602
-20.8293 15.8042 -972.95203
-20.3997 15.6542 -972.091
-19.183901 15.2815 -970.92401
-19.232901 15.2954 -970.46399
-18.057899 14.8961 -969.33801
-17.5399 14.7122 -968.55798
-16.797701 14.5025 -968.22601
-16.1297 14.2911 -967.48499
-14.9091 13.9592 -966.39697
-16.6992 21.246201 -1027.33
-19.4326 21.466499 -1024.01
-19.7416 21.3386 -1022.77
-21.2742 21.539101 -1021.43
-21.882601 21.5704 -1020.24
-22.5427 21.573299 -1019.13
-23.3909 21.6443 -1018
-23.6665 21.595699 -1017.03
-24.268801 21.5989 -1016.06
-24.931801 21.6369 -1015.07
-25.841801 21.6677 -1013.25
-25.7908 21.5499 -1012.43
-26.322901 21.5781 -1011.53
-26.621901 21.5485 -1010.67
-26.512199 21.4063 -1009.93
-27.2124 21.5243 -1009.04
-27.550301 21.415501 -1007.51
-27.9139 21.4077 -1006.72
-27.805201 21.285 -1006.06
-27.6779 21.1896 -1005.44
-28.048599 21.155001 -1004.65
-28.103901 21.117701 -1003.97
-28.090799 21.046301 -1003.27
-28.449699 21.0777 -1002.54
-28.4506 20.901899 -1001.19
-28.623199 20.8701 -1000.52
-28.6017 20.5797 -997.96503
-28.6675 20.5422 -997.328
-28.656099 20.4506 -996.70099
-28.5012 20.2202 -994.901
-28.4333 20.1474 -994.31702
-28.358101 20.057899 -993.73999
-28.3638 19.922501 -991.95898
-27.842199 19.734699 -991.46198
-28.250099 19.7911 -990.81299
-28.1912 19.7111 -990.22699
-28.1576 19.564501 -989.08301
-27.6859 19.361799 -988.02698
-27.635401 19.297001 -987.47699
-27.5236 19.205099 -986.94501
-27.4464 19.1474 -986.40399
-27.1777 18.9583 -985.35901
-26.604099 18.6661 -984.328
-26.977301 18.7246 -983.78198
-26.721399 18.646299 -982.73102
-25.7103 18.1642 -980.88898
-25.505199 18.0772 -979.87903
-24.056801 17.5779 -978.56799
-24.327499 17.628901 -978.05798
-24.068501 17.5252 -977.61902
-23.674601 17.3587 -976.71802
-23.0026 17.107599 -975.83099
-22.191299 16.828501 -975
-22.0247 16.7232 -974.09497
-21.9417 16.696199 -973.638
-20.416901 16.182199 -972.01703
-16.2558 14.8212 -967.36102
-14.0025 14.1225 -965.185
-11.8621 13.5418 -963.94299
-17.8832 21.876301 -1025.74
-20.312 22.0404 -1022.69
-21.877899 22.300501 -1021.33
-21.9848 22.1856 -1020.28
-23.3407 22.225 -1018.03
-23.608 22.1425 -1017.04
-24.5347 22.2411 -1016.02
-24.888201 22.222799 -1015.06
-24.856701 22.056601 -1014.24
-25.2432 22.059 -1013.35
-25.577 22.045601 -1012.47
-26.0977 21.963699 -1010.78
-26.707001 22.032499 -1009.88
-26.7752 21.930901 -1009.15
-27.011999 21.9063 -1008.33
-27.43 21.9011 -1007.51
-27.280399 21.780899 -1006.82
-27.3563 21.7127 -1006.12
-27.936501 21.6012 -1003.97
-28.245501 21.451401 -1001.88
-28.1292 21.340401 -1001.23
-28.271999 21.2855 -999.89099
-28.2824 21.119699 -998.62903
-28.469801 21.076401 -997.95801
-28.333 20.9818 -997.35199
-28.548401 20.891399 -996.08502
-28.807501 20.9182 -995.41602
-28.424101 20.7442 -994.86102
-28.3853 20.691999 -994.26099
-28.503599 20.6626 -993.63501
-28.7087 20.681101 -992.98999
-28.0667 20.3699 -991.90002
-28.212999 20.322399 -991.28101
-28.275101 20.2997 -990.677
-28.0233 20.111601 -989.55298
-28.1605 20.0795 -988.95697
-27.5811 19.8515 -988.52399
-27.774401 19.8759 -987.91101
-27.6357 19.7852 -987.38098
-27.6628 19.6903 -986.30499
-27.277201 19.5021 -985.78699
-26.473101 19.2556 -983.79199
-25.4457 18.676399 -980.82599
-25.4807 18.6581 -980.30798
-24.6952 18.330601 -979.41199
-23.820999 17.9354 -977.56097
-23.3339 17.788 -976.63098
-22.9888 17.611799 -975.71198
-22.908899 17.5548 -975.23798
-22.404699 17.341801 -974.35303
-21.7477 17.101 -973.50702
-20.538 16.6668 -971.854
-19.177299 16.2146 -970.25403
-18.2598 15.9337 -969.5
-16.010599 15.2302 -967.24597
-15.5541 15.0933 -966.46802
-13.6954 14.5374 -965.10303
-16.431299 22.181299 -1026.24
-18.2173 22.349199 -1024.52
-20.344801 22.677401 -1022.81
-20.1462 22.451599 -1021.76
-21.719101 22.6663 -1020.38
-21.777 22.5315 -1019.36
-23.031401 22.730499 -1018.14
-23.5396 22.701599 -1017.12
-23.5403 22.567699 -1016.2
-24.4517 22.6623 -1015.15
-24.4683 22.5599 -1014.32
-25.1693 22.641199 -1013.36
-25.5103 22.5179 -1011.66
-25.940701 22.521299 -1010.78
-26.2386 22.489599 -1009.96
-26.614 22.4834 -1009.12
-27.118 22.507999 -1008.29
-26.9846 22.371099 -1007.59
-26.9659 22.2668 -1006.86
-27.0438 22.188299 -1006.17
-27.4193 22.233601 -1005.43
-27.495501 22.159201 -1004.7
-27.893299 22.1812 -1003.94
-27.7724 22.064699 -1003.25
-27.6999 21.958799 -1002.6
-27.852699 21.918699 -1001.9
-27.9445 21.8556 -1001.24
-28.2104 21.776899 -999.883
-28.4543 21.6469 -997.89899
-28.247999 21.532101 -997.297
-28.3512 21.5068 -996.66199
-28.221901 21.391199 -996.021
-28.456499 21.381701 -995.35498
-28.271 21.2607 -994.74402
-28.347799 21.214701 -994.11401
-28.4802 21.1814 -993.48401
-28.4202 20.9939 -991.71002
-28.1064 20.825701 -991.19098
-28.2519 20.816601 -990.57703
-28.0056 20.68 -990.052
-27.771999 20.5867 -989.51001
-28.1619 20.6427 -988.883
-27.567699 20.425501 -988.41498
-27.5506 20.378799 -987.85699
-27.385599 20.297001 -987.35199
-27.494101 20.2498 -986.26398
-26.867201 20.0159 -985.25
-26.820999 19.968599 -984.716
-26.7349 19.7939 -983.112
-26.301201 19.566299 -982.10602
-25.8363 19.3279 -981.13501
-25.5305 19.1961 -980.67297
-25.620501 19.171801 -980.15302
-24.835699 18.8668 -979.23401
-24.750299 18.807699 -978.75
-24.1523 18.5783 -977.83899
-24.184799 18.5453 -977.349
-23.540199 18.341299 -976.46399
-22.9109 18.102301 -975.60101
-22.7202 18.0382 -975.125
-22.4069 17.882401 -974.23199
-21.6861 17.6101 -973.39899
-21.0674 17.4039 -972.57599
-20.754299 17.3004 -972.16901
-20.0259 17.058701 -971.34198
-17.8272 16.325399 -968.58698
-16.6485 15.968 -967.46399
-14.9612 15.4535 -966.01703
-15.2567 22.550699 -1026.62
-19.147499 23.030899 -1023.17
-20.689501 22.9764 -1020.65
-22.710199 23.226299 -1018.23
-22.9424 23.1199 -1017.25
-23.524 23.0177 -1015.36
-24.173 23.068501 -1014.39
-24.6474 23.089199 -1013.46
-25.118099 23.0863 -1012.55
-25.689301 23.126801 -1011.64
-25.751301 23.035299 -1010.84
-25.8046 22.9366 -1010.05
-26.539 22.9172 -1008.37
-26.828199 22.916901 -1007.57
-26.9562 22.830999 -1006.83
-26.9825 22.7505 -1006.14
-27.386 22.797899 -1005.38
-27.172199 22.6378 -1004.73
-27.382999 22.5968 -1004
-27.5474 22.472601 -1002.61
-27.893999 22.487801 -1001.87
-28.367001 22.4799 -1000.43
-28.0495 22.331699 -999.81201
-28.256201 22.130501 -997.76599
-28.3962 22.0674 -997.12402
-28.486 22.0455 -996.466
-28.5109 21.975401 -995.82501
-28.436501 21.880199 -995.22803
-28.186701 21.6682 -994.04498
-28.566099 21.722099 -993.39801
-28.090099 21.524 -992.302
-28.2521 21.471399 -991.677
-28.1112 21.400299 -991.12299
-28.2071 21.370501 -990.52502
-28.249001 21.3661 -989.93701
-27.816299 21.1646 -989.44299
-27.820299 21.1208 -988.84601
-27.680401 21.052 -988.336
-27.836599 21.0247 -987.75299
-27.6196 20.892599 -987.21997
-27.2707 20.695999 -986.13397
-27.292101 20.6334 -985.57001
-26.6497 20.3314 -984.03497
-26.727501 20.270201 -983.48798
-26.386999 20.113199 -982.48297
-26.168501 20.000601 -981.99402
-25.961901 19.9132 -981.51001
-25.2558 19.6287 -980.578
-25.399799 19.610001 -979.54498
-24.5529 19.322399 -979.138
-24.382401 19.205099 -978.16602
-23.549601 18.848801 -976.35101
-23.242599 18.7376 -975.914
-21.821501 18.184799 -973.26398
-21.494101 18.0835 -972.854
-19.9224 17.554701 -971.26001
-19.221901 17.3183 -970.01501
-18.472799 17.0623 -969.25
-18.0868 16.938101 -968.85699
-16.5229 16.447701 -967.35602
-14.2657 15.7619 -965.19702
-12.3969 15.2445 -963.862
-18.8479 23.5327 -1023.33
-19.8965 23.5445 -1021.92
-20.596399 23.5945 -1020.73
-21.194099 23.6105 -1019.56
-21.992901 23.6248 -1018.41
-22.686701 23.6667 -1017.32
-23.8792 23.715401 -1015.31
-24.119101 23.6401 -1014.4
-24.506001 23.6255 -1013.5
-24.9354 23.6115 -1012.58
-24.9603 23.5201 -1011.79
-25.4849 23.5502 -1010.89
-25.8169 23.5326 -1010.03
-26.6388 23.4245 -1007.6
-27.0634 23.424999 -1006.78
-27.093599 23.195499 -1004.71
-27.3015 23.155701 -1003.98
-27.711599 23.2064 -1003.16
-27.7292 23.120501 -1002.45
-28.1793 23.1422 -1001.65
-28.0128 23.015699 -1000.98
-27.971701 22.918301 -1000.33
-28.1583 22.867001 -999.60999
-27.9834 22.75 -999.008
-27.989799 22.683201 -998.36401
-28.511801 22.7428 -997.612
-28.3549 22.646 -997.03101
-28.370399 22.549 -996.409
-28.3547 22.483 -995.78699
-28.396999 22.427299 -994.52301
-28.060499 22.2675 -993.99902
-28.145901 22.234301 -993.38
-28.242599 22.188801 -992.77802
-28.346399 22.1668 -992.16699
-28.2115 22.042299 -991.59601
-28.2185 21.9224 -990.39203
-28.1462 21.795799 -989.836
-27.7742 21.6479 -989.315
-27.8885 21.6122 -988.677
-27.6164 21.475401 -988.16498
-27.413401 21.287701 -986.53497
-27.188499 21.1201 -985.47302
-26.9081 20.947399 -984.41302
-26.857201 20.916599 -983.87799
-26.821501 20.882999 -983.34802
-26.491501 20.6751 -982.34601
-26.2059 20.5592 -981.87097
-25.828699 20.4238 -981.39899
-25.742201 20.353901 -980.91602
-25.379299 20.1777 -979.93903
-25.0846 20.0089 -978.466
-24.3321 19.746401 -978.05499
-24.0886 19.615101 -977.13501
-23.0888 19.264299 -975.81
-22.940399 19.156601 -974.87097
-22.0972 18.8641 -974.04401
-21.808901 18.749001 -973.138
-20.8454 18.4165 -972.36102
-20.3557 18.2526 -971.52502
-20.069201 18.1378 -971.12201
-19.334 17.916401 -970.31702
-18.1807 17.5341 -969.16699
-16.2374 16.909901 -966.86102
-15.3714 16.6509 -966.14203
-14.1719 16.301901 -965.08801
-16.9475 23.9897 -1025.2
-18.4813 24.0854 -1023.48
-19.1432 24.023899 -1022.16
-20.025801 24.0737 -1020.89
-20.849701 24.0716 -1019.68
-21.3627 24.058001 -1018.59
-21.8085 24.0436 -1017.51
-22.6898 24.1388 -1016.43
-23.2176 24.127001 -1015.43
-23.858 24.162001 -1014.46
-24.0168 24.0681 -1013.6
-24.6133 24.1234 -1012.67
-24.961201 24.0811 -1011.77
-25.207899 24.042999 -1010.94
-26.1532 24.183599 -1009.96
-26.123899 24.037399 -1009.19
-26.438601 24.0173 -1008.36
-26.401699 23.926701 -1007.63
-26.455999 23.857 -1006.86
-26.6136 23.834499 -1006.11
-27.4715 23.8859 -1004.49
-27.3876 23.7325 -1003.76
-27.916901 23.7787 -1002.92
-27.726299 23.634199 -1002.29
-28.0406 23.493601 -1000.21
-28.3407 23.461399 -999.51202
-28.3118 23.2568 -997.59802
-28.0797 23.153099 -997.02197
-28.4174 23.1798 -996.31799
-28.3715 23.031 -995.05902
-28.3109 22.8468 -993.82001
-28.119301 22.6971 -993.22198
-27.976999 22.518299 -992.05298
-28.100599 22.478201 -991.44202
-28.158199 22.455799 -990.85303
-28.1015 22.3454 -989.68402
-28.097799 22.2845 -989.11401
-27.871201 22.179701 -988.55603
-27.628401 22.0693 -988.04901
-27.632299 22.0016 -987.48499
-27.569799 21.929701 -986.94
-27.2808 21.7633 -985.88397
-26.9009 21.566099 -984.828
-26.859301 21.462299 -983.77698
-26.6339 21.3591 -983.25598
-26.2341 21.1635 -982.28101
-25.83 20.968399 -981.29401
-25.406401 20.756201 -980.31299
-25.0287 20.627399 -979.85303
-25.209499 20.6304 -979.34198
-24.8265 20.5089 -978.88501
-24.819599 20.459299 -978.40198
-24.3937 20.311501 -977.94897
-23.277901 19.856199 -975.69299
-21.721399 19.292999 -973.53003
-21.202 19.095699 -972.69702
-20.799299 18.9293 -971.828
-19.8353 18.645399 -971.06598
-19.1054 18.384399 -969.82599
-18.238899 18.1161 -969.073
-16.2003 17.452299 -966.79602
-15.7863 17.3351 -966.42499
-13.6962 16.709801 -964.68103
-12.7382 16.4081 -964.013
-11.4296 16.0819 -963.01202
-10.4507 15.8111 -962.388
-14.4839 24.278299 -1027.83
-15.6155 24.177601 -1025.5699
-19.2813 24.684999 -1022.27
-19.3771 24.498699 -1021.11
-20.9666 24.764099 -1019.71
-21.874399 24.810301 -1018.51
-21.9468 24.651699 -1017.53
-22.8759 24.7474 -1016.42
-23.5651 24.809799 -1015.42
-23.1903 24.571899 -1014.6
-24.2829 24.7428 -1013.58
-24.7855 24.7621 -1012.62
-24.733 24.602301 -1011.83
-24.8174 24.5077 -1010.99
-25.299299 24.5357 -1010.1
-25.623699 24.507999 -1009.26
-26.064199 24.5312 -1008.36
-26.004 24.3904 -1007.6
-26.4781 24.404499 -1006.74
-26.9778 24.431801 -1005.9
-27.011499 24.358299 -1005.16
-27.0488 24.2446 -1004.43
-27.470501 24.277399 -1003.63
-27.6418 24.224001 -1002.91
-27.932301 24.1548 -1001.53
-27.4743 23.952299 -1000.91
-28.020201 24.032101 -1000.17
-28.2162 24.037201 -999.46002
-27.8913 23.910601 -998.849
-28.235901 23.786301 -997.47998
-28.323099 23.7241 -996.828
-28.4081 23.573099 -995.51202
-28.328199 23.487101 -994.90997
-28.349701 23.422899 -994.27802
-28.322599 23.3354 -993.66901
-28.412701 23.3113 -993.04602
-28.200399 23.1444 -991.89301
-28.045 22.983 -990.73901
-27.924999 22.8416 -989.591
-28.088301 22.8167 -989.01099
-27.746 22.6828 -988.45801
-27.8286 22.647301 -987.88898
-27.453199 22.4468 -986.83899
-27.2971 22.362499 -986.33002
-27.254299 22.2862 -985.78497
-26.8304 22.036301 -984.20599
-26.5126 21.806299 -983.19598
-26.299999 21.712799 -982.68597
-26.2068 21.620199 -981.67102
-26.299601 21.6019 -981.146
-26.1947 21.546101 -980.10901
-25.0856 21.0905 -978.28802
-24.0734 20.7034 -976.953
-23.4415 20.463301 -976.08301
-23.0399 20.3283 -975.65503
-22.6563 20.1805 -974.75299
-22.091101 19.9468 -973.89203
-21.125601 19.6481 -973.104
-20.174801 19.3165 -971.40802
-19.6122 19.0905 -970.59302
-18.241199 18.665701 -969.01202
-17.201099 18.3354 -967.86798
-16.0485 17.978201 -966.75201
-15.3624 17.7799 -966.02002
-13.0407 17.075899 -964.30603
-11.855 16.7589 -963.29199
-12.6559 24.597799 -1028.79
-17.4205 25.070999 -1023.98
-18.123699 25.028999 -1022.59
-19.683901 25.1985 -1021.09
-20.370399 25.267 -1019.88
-21.578899 25.326401 -1018.62
-21.771799 25.239 -1017.59
-21.955099 25.1091 -1016.64
-22.9751 25.2784 -1015.57
-23.657301 25.2808 -1014.51
-23.8202 25.0625 -1012.79
-24.6584 25.163799 -1011.8
-25.0264 25.1527 -1010.9
-25.2369 25.098499 -1009.98
-25.9021 25.128901 -1009.03
-25.940399 25.0123 -1008.23
-26.433001 25.0403 -1007.37
-26.6509 24.9967 -1006.59
-26.6675 24.890699 -1005.85
-26.899401 24.849199 -1005.1
-26.973 24.8027 -1004.39
-27.0951 24.750601 -1003.66
-27.4277 24.781601 -1002.89
-27.8337 24.7141 -1001.45
-27.6777 24.583 -1000.75
-27.938499 24.546 -1000.01
-27.9174 24.431801 -999.32898
-28.2274 24.3647 -997.97101
-28.126801 24.261999 -997.33197
-28.4561 24.132799 -995.39099
-28.65 24.1374 -994.72601
-28.2901 23.947701 -994.15997
-28.3918 23.936001 -993.53302
-28.376101 23.876101 -992.94202
-28.264601 23.767 -992.36401
-28.151699 23.6852 -991.80103
-28.252899 23.636499 -991.17401
-28.1364 23.573799 -990.59802
-28.136 23.504601 -990.02002
-28.048201 23.416401 -989.46802
-27.8018 23.2918 -988.94598
-27.8575 23.227699 -988.34601
-27.764 23.1854 -987.79797
-27.358 22.916 -986.77197
-27.1416 22.8004 -986.25299
-26.877899 22.638399 -985.19702
-26.4354 22.3545 -983.62701
-26.463301 22.325701 -983.099
-24.9557 21.741199 -980.19702
-25.0009 21.7176 -979.711
-24.889799 21.563499 -978.26202
-23.914301 21.248699 -977.401
-23.371401 21.032101 -976.50403
-23.361799 20.9921 -976.04401
-22.7229 20.761801 -975.172
-22.5809 20.695 -974.71698
-21.619699 20.3281 -973.44501
-21.3482 20.243299 -973
-20.570601 20.0128 -972.216
-20.480499 19.9617 -971.76099
-19.972601 19.809799 -971.38
-18.320101 19.245899 -969.38397
-17.893101 19.0924 -968.58899
-16.542 18.6991 -967.474
-15.7816 18.4592 -966.73602
-14.5799 18.104401 -965.651
-13.3424 17.7295 -964.612
-11.7202 17.293301 -963.25598
-14.0331 25.129101 -1026.51
-16.7703 25.496599 -1024.27
-17.8687 25.5438 -1022.71
-19.079399 25.633699 -1021.34
-19.095301 25.444901 -1020.19
-20.975599 25.7414 -1018.8
-21.2134 25.6441 -1017.75
-22.254499 25.7995 -1016.62
-21.9191 25.546499 -1015.77
-23.1723 25.7127 -1014.64
-23.120001 25.558901 -1013.8
-23.8347 25.6483 -1012.74
-24.854601 25.749599 -1011.61
-25.577299 25.524 -1009.02
-26.0096 25.545 -1008.11
-26.314301 25.525299 -1007.34
-26.5166 25.4886 -1006.57
-26.656799 25.433901 -1005.82
-27.200899 25.5135 -1005.02
-27.107901 25.3029 -1003.51
-27.3505 25.2036 -1002.73
-27.3932 25.1336 -1002.03
-27.8022 25.1632 -1001.24
-27.8514 25.067801 -1000.55
-28.0767 24.9771 -999.18298
-28.1047 24.934 -998.52002
-28.2698 24.8901 -997.86102
-28.416201 24.8591 -997.17603
-28.2425 24.7384 -996.59198
-28.311899 24.6502 -995.94501
-28.4743 24.6604 -995.27197
-28.857599 24.7078 -994.56097
-28.5165 24.518999 -994.01703
-28.5697 24.420601 -992.802
-28.2759 24.2826 -992.26001
-28.105801 24.1817 -991.69897
-28.127701 24.1364 -991.08398
-28.1387 24.056 -990.52399
-27.9767 23.9261 -989.97803
-27.814301 23.8566 -989.40802
-27.629801 23.625601 -987.755
-27.3757 23.506901 -987.24103
-27.1752 23.3617 -986.16901
-26.614901 23.1623 -985.12201
-26.944901 23.1931 -984.59497
-26.846901 23.1395 -983.55402
-26.2875 22.785299 -981.56799
-24.9576 22.182899 -979.18597
-24.038401 21.8319 -977.80402
-23.9512 21.771 -977.336
-23.2136 21.518 -976.48602
-22.927799 21.3766 -975.56702
-22.6381 21.2729 -975.11401
-21.587299 20.891001 -973.39301
-21.2223 20.740601 -972.979
-19.866501 20.2906 -971.34198
-19.292 20.0847 -970.53802
-18.3727 19.7889 -969.32397
-15.7288 18.958599 -966.69202
-14.0363 18.4611 -965.27301
-12.3882 17.9783 -963.89398
-11.1033 17.627501 -962.896
-15.6379 25.796 -1024.6899
-17.98 26.1397 -1022.81
-18.2864 26.002701 -1021.57
-19.743 26.1905 -1020.21
-20.7549 26.2283 -1018.9
-21.0273 26.1178 -1017.82
-22.022301 26.128099 -1015.77
-23.154499 26.254801 -1014.55
-23.3589 26.184401 -1013.58
-24.112801 26.1917 -1012.49
-24.843901 26.0881 -1010.66
-24.900499 26.0163 -1009.85
-25.726 26.114799 -1008.92
-25.988899 26.0742 -1008.08
-26.453199 26.119699 -1007.22
-27.296801 25.983601 -1004.8
-27.058701 25.8214 -1004.08
-27.7096 25.8256 -1002.52
-27.8853 25.696301 -1001.12
-27.9212 25.6131 -1000.42
-28.369101 25.6376 -999.68201
-28.0131 25.4891 -999.10498
-28.207199 25.3932 -997.77197
-28.1737 25.298599 -997.112
-28.5446 25.3318 -996.41998
-28.3382 25.206499 -995.80402
-28.4767 25.177601 -995.14099
-28.4172 25.105 -994.56
-28.438999 25.0378 -993.91699
-28.252701 24.8957 -993.35699
-28.0186 24.6625 -991.65198
-28.0313 24.6036 -991.05499
-28.088499 24.553301 -990.453
-28.0331 24.478001 -989.89099
-27.935699 24.3473 -988.78003
-27.391199 24.150801 -988.30298
-27.449699 24.144199 -987.73499
-27.4028 24.0739 -987.17603
-27.226299 23.9601 -986.67499
-26.6436 23.7307 -986.20398
-26.961901 23.8071 -985.65503
-26.6649 23.659201 -985.08801
-26.9023 23.6579 -984.552
-26.559999 23.503201 -984.104
-26.1656 23.3272 -983.07501
-26.352501 23.3374 -982.51001
-24.382099 22.589899 -979.68298
-24.7992 22.667101 -979.159
-24.832899 22.594101 -978.16101
-23.7299 22.257999 -977.80499
-23.7719 22.2204 -977.32599
-23.1682 21.991199 -975.961
-22.711201 21.822901 -975.53302
-22.281099 21.6891 -975.12097
-21.9513 21.5131 -974.21698
-21.4797 21.358299 -973.35699
-20.7498 21.1064 -972.52802
-20.006201 20.8533 -971.724
-19.5749 20.7001 -970.875
-17.787701 20.116899 -968.91699
-17.3948 20.013201 -968.54303
-15.2112 19.3274 -966.28699
-13.3994 18.816099 -964.896
-12.2148 18.4557 -963.87
-10.4323 17.950701 -962.56
-15.2578 26.2542 -1024.95
-16.3414 26.320601 -1023.29
-18.141199 26.556101 -1021.69
-18.948999 26.5653 -1020.41
-19.523701 26.4368 -1019.21
-20.9744 26.7162 -1017.8
-21.992201 26.8372 -1016.58
-22.3671 26.726801 -1015.47
-23.2286 26.742701 -1014.36
-24.3596 26.6518 -1011.56
-25.112101 26.7425 -1010.57
-25.478001 26.739201 -1009.67
-26.4282 26.688499 -1007.84
-26.276899 26.527399 -1007.07
-26.525801 26.485701 -1006.26
-26.823601 26.485001 -1005.47
-26.9797 26.4254 -1004.71
-27.4095 26.445101 -1003.91
-27.2957 26.312 -1003.21
-27.547501 26.2743 -1002.44
-27.6998 26.2355 -1001.74
-27.910299 26.205299 -1001.01
-27.9715 26.1444 -1000.31
-28.0982 26.0926 -999.62701
-28.239 26.035601 -998.94202
-28.2689 26.005699 -998.28802
-28.1423 25.898399 -997.68402
-28.1793 25.8223 -997.01202
-28.2342 25.7348 -996.38702
-28.0406 25.4928 -994.56598
-27.995399 25.406 -993.95099
-28.235399 25.3979 -993.30103
-28.2048 25.331301 -992.71503
-28.121 25.178801 -990.97302
-27.4872 24.9153 -990.51202
-27.6917 24.9179 -989.89203
-27.7255 24.8601 -989.32098
-27.2034 24.6273 -988.28101
-27.2995 24.6276 -987.70599
-26.756001 24.2416 -985.62299
-26.548 24.1686 -985.04602
-26.246799 23.9888 -984.12799
-26.35 24.0233 -983.43903
-25.8759 23.8713 -983.04498
-26.2034 23.908701 -982.526
-24.459 23.167 -980.66901
-25.338301 23.382 -980.021
-24.950701 23.247601 -979.59998
-24.885599 23.197201 -979.09497
-24.577299 23.035299 -978.15198
-23.4272 22.677799 -977.78699
-23.3806 22.603201 -976.85303
-22.936001 22.446301 -975.95001
-22.548 22.2939 -975.51501
-22.088699 22.105301 -974.62799
-21.2208 21.7973 -973.34003
-20.562599 21.570601 -972.51001
-19.1469 21.0646 -970.44202
-18.704201 20.945299 -970.06097
-16.904301 20.3571 -968.12299
-16.1346 20.127199 -967.37097
-14.6123 19.6639 -965.90198
-12.2507 18.976999 -963.81403
-10.0182 18.3582 -962.18903
-13.2856 26.438 -1025.66
-17.2899 27.1534 -1023.27
-17.150299 26.8487 -1022
-18.944901 27.0889 -1020.47
-19.8962 27.214701 -1019
-21.343399 27.298201 -1017.54
-21.8536 27.059099 -1015.44
-22.5861 27.1467 -1014.43
-23.858999 27.3276 -1013.29
-23.5816 27.1255 -1012.48
-25.121799 27.2012 -1010.39
-25.6968 27.1014 -1008.63
-26.452101 27.1388 -1006.89
-26.906 27.1129 -1006.08
-26.725901 26.9699 -1005.39
-27.0457 26.876499 -1003.87
-27.3034 26.8501 -1003.12
-27.4576 26.813801 -1002.38
-27.8202 26.801701 -1001.62
-28.1936 26.8083 -1000.87
-27.774 26.6434 -1000.25
-28.1537 26.6346 -999.52301
-28.120501 26.530399 -998.88
-27.999001 26.267 -997.00201
-27.8447 26.159401 -996.41302
-27.815901 25.891001 -993.92999
-27.9133 25.8458 -993.328
-27.9023 25.821501 -992.73297
-27.9918 25.7701 -992.14301
-27.786699 25.640301 -991.59601
-27.802299 25.616501 -991.00702
-27.7307 25.5242 -990.43298
-27.822001 25.4993 -989.849
-27.500099 25.348301 -989.31403
-27.3456 25.253099 -988.77197
-27.006399 25.061399 -987.71997
-27.156601 25.051701 -987.133
-27.035601 24.9576 -986.60602
-26.887899 24.8445 -986.09601
-26.6446 24.726299 -985.62
-26.4104 24.592899 -984.52502
-26.156601 24.4597 -984.078
-26.037201 24.3825 -983.01398
-25.7059 24.227501 -982.46899
-25.4056 23.918501 -979.98102
-24.462 23.613701 -979.10303
-24.4125 23.5292 -978.13599
-23.4489 23.202101 -977.25598
-23.333 23.1262 -976.80603
-22.0912 22.651699 -975.04797
-22.129801 22.638901 -974.56799
-20.9818 22.219101 -972.85901
-20.5888 22.112801 -972.44501
-19.8846 21.864599 -971.63
-16.940901 20.917801 -968.06403
-15.5544 20.443501 -966.98798
-13.3696 19.8141 -964.802
-11.5587 19.2892 -963.45801
-8.1889601 18.414 -961.25299
-16.4676 27.426901 -1022.21
-18.6819 27.600401 -1020.31
-20.1334 27.7369 -1018.78
-20.351601 27.587601 -1017.67
-21.795401 27.7974 -1016.41
-22.410299 27.8445 -1015.35
-22.309299 27.6367 -1014.45
-24.48 27.708599 -1011.18
-24.9258 27.690001 -1010.23
-25.463301 27.724001 -1009.32
-25.761 27.672701 -1008.47
-26.199499 27.6812 -1007.61
-26.405001 27.659901 -1006.81
-26.506399 27.566 -1006.07
-26.7068 27.511 -1005.28
-26.769199 27.437201 -1004.56
-27.3312 27.5131 -1003.7
-27.2335 27.3885 -1003.03
-27.598301 27.382099 -1002.27
-27.619301 27.232599 -1000.92
-27.5089 27.093901 -1000.24
-27.3871 26.9725 -999.61798
-27.950701 26.9767 -998.22699
-27.494101 26.806 -997.69702
-27.832001 26.738501 -996.37701
-27.831301 26.677601 -995.73901
-27.515699 26.5432 -995.16699
-27.9072 26.4937 -993.87701
-27.444201 26.304001 -993.38
-27.673599 26.2456 -992.15698
-27.934799 26.2768 -991.51599
-27.549101 26.0935 -990.98199
-27.6243 26.076 -990.40198
-27.229401 25.8514 -989.30798
-27.251801 25.7948 -988.75299
-27.179899 25.656601 -987.63898
-26.891399 25.533899 -987.12402
-26.950899 25.4953 -986.57202
-26.6392 25.351801 -986.07001
-26.609301 25.274599 -984.92297
-26.2192 25.091 -984.51099
-25.9135 24.9167 -984.06598
-25.884899 24.8365 -983.5
-25.8729 24.868999 -982.99597
-24.794701 24.291599 -979.49597
-24.087 24.0816 -979.07397
-24.2764 24.0459 -978.08502
-23.305799 23.695601 -977.22498
-22.7251 23.4916 -976.32599
-22.006701 23.207001 -974.995
-21.9573 23.171 -974.52899
-21.2258 22.9221 -973.68701
-20.501301 22.6724 -972.87402
-20.1033 22.5277 -972.00897
-19.286699 22.251301 -971.203
-18.405701 21.931499 -969.98901
-17.9841 21.809099 -969.60303
-17.6667 21.666201 -968.76202
-17.180799 21.538601 -968.41803
-16.334101 21.2675 -967.66302
-14.9626 20.8519 -966.58099
-13.6479 20.4445 -965.112
-12.6766 20.1751 -964.43903
-12.2813 20.070601 -964.08801
-19.0259 28.211599 -1020.14
-20.327299 28.3377 -1018.74
-20.0711 28.127199 -1017.71
-22.436001 28.353901 -1015.18
-23.269899 28.3447 -1013.97
-23.9035 28.376101 -1012.95
-24.003099 28.257999 -1012.01
-24.509399 28.277599 -1011.07
-24.7953 28.2138 -1010.16
-25.8972 28.1611 -1007.56
-26.0755 28.123899 -1006.77
-26.2768 28.0431 -1006
-26.4972 27.9886 -1005.23
-26.5966 27.8202 -1003.77
-26.7222 27.804399 -1003.07
-27.027201 27.780899 -1002.31
-27.3699 27.7999 -1001.58
-27.375999 27.6178 -1000.22
-27.675699 27.6315 -999.547
-27.7383 27.5868 -998.87201
-27.727301 27.3279 -996.96399
-27.5585 27.2076 -996.36798
-27.8297 27.2251 -995.685
-27.768999 27.1385 -995.09198
-27.6595 26.967699 -993.87799
-27.760401 26.932899 -993.26599
-27.6404 26.8123 -992.70801
-27.4498 26.677999 -991.55499
-27.510099 26.625601 -990.966
-27.2535 26.512699 -990.41901
-27.3505 26.4842 -989.81299
-27.2502 26.377001 -989.27197
-27.1868 26.313601 -988.71698
-26.8036 26.107 -987.65002
-26.443899 25.875099 -986.59302
-26.4918 25.798599 -985.53699
-26.142 25.693501 -984.96002
-26.1639 25.6737 -984.46399
-26.360201 25.708 -983.948
-26.4424 25.5194 -982.72998
-25.405001 25.2274 -982.534
-24.903299 25.074699 -982.00897
-25.126801 24.9359 -979.89203
-24.345301 24.706499 -979.5
-23.139601 24.199301 -977.198
-22.5525 23.9564 -975.836
-21.7365 23.681 -974.974
-21.1607 23.440901 -974.133
-20.433001 23.1521 -972.35797
-19.2978 22.7607 -971.15503
-18.313 22.4548 -969.93799
-17.7157 22.2183 -969.15698
-16.6422 21.886299 -968.00299
-16.321501 21.799299 -967.60101
-15.04 21.3892 -966.521
-13.5065 20.9503 -965.07501
-11.6212 20.433201 -963.73602
-10.9489 20.242701 -963.04102
-16.587799 28.375299 -1021.88
-18.930799 28.8002 -1020.14
-20.713699 28.811199 -1017.42
-21.587 28.7831 -1016.09
-22.558901 28.8958 -1014.93
-23.0914 28.890499 -1013.9
-23.551701 28.858601 -1012.92
-24.0627 28.869301 -1011.92
-24.8384 28.9167 -1010.91
-24.787201 28.7756 -1010.08
-25.1511 28.7813 -1009.18
-25.423201 28.720699 -1008.34
-25.973 28.744101 -1007.47
-26.030199 28.6373 -1006.7
-26.507799 28.662001 -1005.91
-26.778 28.655399 -1005.14
-26.508101 28.4853 -1004.48
-27.130899 28.554199 -1003.66
-26.9277 28.433901 -1002.98
-27.148399 28.366899 -1002.27
-27.152 28.2973 -1001.59
-27.275 28.2495 -1000.9
-27.218 28.070999 -999.578
-27.5793 28.0278 -998.22198
-27.686199 27.987801 -997.60602
-27.582199 27.7862 -996.33801
-27.495399 27.7027 -995.71899
-27.509501 27.562099 -994.48199
-27.546101 27.5177 -993.83698
-27.354099 27.420401 -993.29498
-27.539801 27.398199 -992.66199
-27.4849 27.3006 -992.09601
-27.27 27.2159 -991.53601
-27.3699 27.1339 -990.935
-27.0193 26.9998 -990.41199
-27.371099 27.041599 -989.77399
-26.9709 26.805799 -988.71802
-26.806499 26.6392 -987.60303
-26.5571 26.5285 -987.08197
-26.301201 26.364799 -986.01398
-26.2269 26.2894 -985.53003
-26.244301 26.2519 -984.89398
-25.8615 26.041 -984.5
-25.030001 25.865801 -982.51501
-23.682301 25.047501 -979.03802
-23.317101 24.9172 -978.57001
-22.842699 24.708401 -977.646
-23.166201 24.76 -977.14502
-22.0063 24.3305 -975.367
-21.833401 24.230301 -974.91302
-21.345301 24.036501 -974.04401
-20.7437 23.8244 -973.17902
-19.9177 23.561001 -972.38501
-19.6425 23.441799 -971.505
-18.9858 23.2358 -970.68201
-18.291401 22.996599 -969.89697
-17.672199 22.806999 -969.08301
-15.7584 22.165899 -967.20801
-15.0029 21.9781 -966.46198
-14.5365 21.8452 -966.10199
-13.7239 21.5868 -965.38501
-11.6402 20.986401 -963.67401
-17.8643 29.380899 -1021.65
-17.633499 29.052 -1020.33
-19.917101 29.344299 -1018.43
-21.134899 29.444 -1017.09
-21.9333 29.465099 -1015.91
-22.269501 29.3922 -1014.87
-23.3636 29.5242 -1013.74
-23.628599 29.437799 -1012.8
-23.941401 29.3967 -1011.85
-24.617599 29.451799 -1010.89
-25.0394 29.430599 -1009.96
-25.3918 29.4186 -1009.08
-25.391199 29.1672 -1007.53
-25.8015 29.176701 -1006.75
-25.9774 29.133499 -1005.97
-26.1453 29.0737 -1005.22
-26.9618 29.0697 -1003.66
-26.492001 28.8811 -1003.05
-26.9151 28.8946 -1002.29
-27.202499 28.874001 -1001.56
-26.954901 28.738199 -1000.93
-27.116301 28.696501 -1000.22
-27.303499 28.6679 -999.53003
-27.180799 28.5683 -998.91699
-27.264799 28.3564 -996.97601
-27.684299 28.379801 -996.29303
-27.3188 28.2181 -995.72803
-27.577101 28.216499 -995.04303
-27.3438 28.083099 -994.46899
-27.310499 28.0228 -993.85498
-27.335199 27.9559 -993.245
-27.498501 27.936899 -992.64301
-27.1399 27.6619 -990.922
-26.673401 27.471399 -990.42499
-27.063601 27.5179 -989.77698
-26.725901 27.362801 -989.263
-26.485399 27.216 -988.14398
-26.613899 27.120701 -987.03302
-26.533701 27.056 -986.48199
-26.020399 26.847099 -986.00598
-26.1439 26.8522 -985.46997
-25.882299 26.7736 -984.89502
-25.798 26.7335 -984.41803
-25.000099 26.394199 -983.50897
-25.3542 26.3484 -982.43402
-25.056 26.0749 -979.802
-24.5474 25.882401 -979.414
-23.337299 25.5126 -979.02301
-22.9937 25.243601 -976.64203
-22.5394 25.064199 -975.72699
-21.526501 24.6714 -974.435
-21.0928 24.517401 -974.00897
-20.0952 24.1616 -972.29797
-19.6735 24.012199 -971.44202
-17.104401 23.176901 -968.67603
-16.3542 22.9587 -967.91699
-15.6389 22.718901 -967.15997
-14.5034 22.369499 -966.052
-12.688 21.8554 -964.65997
-9.0200195 20.848801 -962.03003
-13.6868 29.232901 -1024.13
-16.8036 29.6633 -1021.57
-18.9762 29.8377 -1019.72
-21.3267 30.0509 -1016.9
-21.8125 30.012699 -1015.82
-21.930799 29.858101 -1014.86
-22.965799 30.0163 -1013.73
-23.6467 30.016399 -1012.7
-24.232 29.9049 -1010.92
-24.649401 29.9324 -1010.02
-25.1866 29.924601 -1009.15
-25.25 29.8295 -1008.35
-25.101999 29.6873 -1007.59
-25.754299 29.745899 -1006.75
-25.6628 29.608 -1006.03
-26.007799 29.611 -1005.25
-26.16 29.5651 -1004.53
-26.341299 29.4979 -1003.77
-26.9662 29.563801 -1002.95
-26.446699 29.353701 -1002.35
-26.8577 29.3729 -1001.6
-26.9674 29.3473 -1000.9
-26.871201 29.189899 -1000.23
-26.8832 29.121599 -999.58099
-27.4055 29.077299 -998.19202
-26.862101 28.8216 -997.01501
-27.152201 28.7432 -995.70502
-27.0156 28.6581 -995.104
-27.054001 28.600599 -994.487
-27.252399 28.579201 -993.79999
-27.045601 28.437201 -993.26001
-27.072001 28.377899 -992.66699
-27.071699 28.334801 -992.07397
-27.004601 28.2528 -991.50098
-26.992399 28.199699 -990.89801
-26.751499 28.064501 -990.35901
-26.728201 28.011 -989.78198
-26.7761 27.8825 -988.64001
-26.5644 27.6996 -987.534
-26.214199 27.5683 -987.03601
-26.048901 27.493099 -986.52197
-26.077 27.374399 -985.42499
-25.5811 27.226101 -984.90302
-25.576099 27.119301 -983.91101
-25.2458 26.879499 -982.46503
-24.978201 26.608 -979.74597
-23.3722 26.085699 -978.97998
-23.654699 26.088301 -977.95801
-22.6682 25.7582 -977.104
-22.992399 25.8132 -976.58801
-22.190901 25.5296 -975.73102
-21.7428 25.3613 -975.28003
-20.9865 25.0329 -973.49298
-20.5508 24.8867 -973.09302
-19.556499 24.5518 -971.84998
-19.4303 24.5026 -971.41498
-18.225201 24.1194 -970.22601
-17.372601 23.836 -969.00897
-16.942499 23.708401 -968.64099
-13.8867 22.7414 -965.66498
-12.592 22.4035 -964.61298
-10.9282 21.908199 -963.25702
-18.395399 30.3062 -1019.72
-19.565201 30.3463 -1018.31
-21.017599 30.547899 -1016.91
-21.940599 30.605801 -1015.74
-21.719999 30.3967 -1014.85
-22.696699 30.500401 -1013.74
-23.1819 30.483999 -1012.79
-23.587601 30.4706 -1011.86
-24.127399 30.4797 -1010.95
-24.2763 30.3887 -1010.11
-24.415899 30.2929 -1009.28
-24.6138 30.297001 -1008.45
-25.478001 30.3491 -1007.51
-25.3843 30.207899 -1006.78
-25.603901 30.177099 -1006.04
-25.732401 30.109501 -1005.28
-26.0513 30.1064 -1004.53
-26.249599 30.0455 -1003.74
-26.605301 30.035601 -1002.98
-26.198299 29.825899 -1002.38
-26.490499 29.8482 -1001.63
-26.808701 29.8356 -1000.9
-26.805201 29.764099 -1000.21
-26.8729 29.6737 -999.54303
-27.064501 29.6581 -998.86298
-27.292 29.5651 -997.54498
-27.093599 29.275801 -995.66101
-27.052299 29.072201 -993.81201
-27.0741 29.009899 -993.21399
-27.066099 28.950001 -992.62598
-27.113199 28.9023 -992.02301
-26.7764 28.7374 -991.48297
-26.7645 28.6478 -990.89502
-27.0096 28.674 -990.28198
-26.628 28.5371 -989.75201
-26.3367 28.268999 -988.08301
-26.184299 28.175501 -987.54498
-26.155399 28.122999 -986.995
-25.9256 28.001801 -986.48102
-25.733 27.861 -985.435
-25.287201 27.5746 -984.40198
-25.4251 27.559099 -983.867
-24.8925 27.4 -982.36298
-24.3654 27.1325 -981.83197
-24.9611 27.2402 -981.27698
-23.5627 26.6443 -978.43701
-22.6047 26.278799 -977.04797
-22.817801 26.3255 -976.55603
-22.431 26.1502 -975.63501
-21.499399 25.813999 -974.79102
-21.347 25.756001 -974.34802
-20.8477 25.5739 -973.46698
-19.9876 25.2843 -972.646
-19.121799 24.9907 -971.83502
-19.317801 25.037201 -971.37598
-18.2013 24.6709 -970.17603
-17.735201 24.501801 -969.35699
-16.4958 24.1033 -968.21899
-15.6665 23.8489 -967.47101
-14.9273 23.632401 -966.71503
-13.7931 23.301201 -965.60999
-12.5966 22.9618 -964.55603
-10.7212 22.4223 -963.22998
-19.4984 31.102699 -1019.43
-19.974701 30.980101 -1018.18
-20.372499 30.9191 -1017.02
-20.839199 30.8638 -1015.94
-22.1285 31.0371 -1014.76
-22.1047 30.911699 -1013.87
-22.660601 30.908199 -1012.93
-23.1738 30.8897 -1011.93
-23.747101 30.913601 -1011.01
-23.785101 30.7759 -1010.22
-23.958401 30.719101 -1009.34
-24.3435 30.707899 -1008.51
-24.627701 30.6518 -1007.66
-25.0704 30.6796 -1006.86
-25.6987 30.716 -1005.99
-25.4545 30.576799 -1005.3
-25.9424 30.6161 -1004.51
-25.946899 30.496599 -1003.77
-25.9942 30.417999 -1003.07
-26.215799 30.394699 -1002.34
-26.494499 30.2736 -1000.92
-26.548 30.2029 -1000.24
-26.674999 30.1744 -999.54199
-26.7987 30.114401 -998.86798
-26.8043 30.030899 -998.22498
-26.819901 29.951599 -997.578
-26.667801 29.8297 -996.98102
-26.715 29.650801 -995.07202
-26.864201 29.603901 -994.44598
-26.8892 29.5492 -993.79901
-27.1248 29.535101 -993.15399
-27.006701 29.4513 -992.57501
-26.6826 29.247101 -991.46997
-26.627701 29.176201 -990.87598
-26.5466 29.0858 -990.30603
-26.296101 28.8853 -989.18701
-26.5396 28.9156 -988.57898
-26.048599 28.649099 -987.53198
-25.9562 28.576401 -986.97803
-25.077499 28.107 -984.38098
-25.481899 28.1357 -983.80499
-25.451 28.1138 -982.66101
-24.8137 27.903299 -982.29199
-24.2225 27.4321 -979.27698
-23.191401 27.046301 -977.909
-22.7034 26.8281 -976.98401
-22.3748 26.6229 -975.59399
-21.3456 26.298201 -974.755
-20.311199 25.9709 -973.93701
-20.8221 26.0828 -973.40997
-20.0681 25.8494 -973.039
-19.788099 25.73 -972.62903
-18.0707 25.130501 -970.13898
-17.354099 24.8873 -968.90302
-16.432301 24.6084 -968.16302
-15.7228 24.391399 -967.40399
-14.5948 24.0571 -966.29401
-13.248 23.6509 -965.229
-10.1458 22.7882 -962.86401
-15.3771 31.1905 -1023.18
-18.379299 31.3855 -1019.59
-19.665001 31.495899 -1018.24
-19.9443 31.404699 -1017.12
-21.0842 31.5061 -1015.95
-21.903799 31.5151 -1014.85
-21.9333 31.392099 -1013.96
-22.392599 31.3624 -1013.01
-22.893101 31.3848 -1012.01
-23.7386 31.466801 -1011.02
-24.089001 31.400101 -1010.15
-24.1376 31.309 -1009.32
-24.646999 31.3431 -1008.44
-24.907499 31.2661 -1007.61
-24.9471 31.1619 -1006.85
-25.039101 31.0914 -1006.13
-25.584499 31.184299 -1005.26
-25.4114 31.0005 -1004.57
-25.851 31.0154 -1003.78
-26.200899 31.018299 -1003.02
-26.3109 30.952299 -1002.3
-26.7325 30.8881 -1000.87
-26.432899 30.703699 -1000.21
-26.751301 30.731899 -999.51599
-26.5203 30.591101 -998.88098
-26.528099 30.399 -997.61102
-26.424 30.3116 -996.96899
-26.862499 30.2801 -995.62299
-26.5418 30.074499 -994.45398
-26.496599 29.9702 -993.82898
-26.6936 29.965 -993.19299
-26.559 29.8487 -992.62299
-26.5408 29.794701 -992.02301
-26.544001 29.722799 -991.44397
-26.3407 29.592899 -990.89099
-26.4734 29.592699 -990.27698
-26.513201 29.516701 -989.685
-26.1779 29.375401 -989.15698
-26.17 29.3118 -988.599
-26.1625 29.260099 -988.005
-25.8414 29.122499 -987.51099
-25.857 29.0613 -986.95898
-25.499399 28.854601 -985.87903
-25.333401 28.765699 -985.42401
-25.366501 28.731001 -984.776
-24.7971 28.5739 -982.60797
-23.0462 27.596399 -978.854
-22.852699 27.4811 -978.38501
-22.265301 27.252501 -977.46198
-22.3627 27.258699 -976.97198
-22.204 27.1171 -975.55499
-21.253201 26.8193 -975.177
-21.1996 26.771799 -974.72498
-20.6807 26.5688 -973.37598
-19.547199 26.160601 -972.159
-19.099501 25.988001 -971.29797
-18.487101 25.792101 -970.92102
-17.9779 25.6224 -970.09003
-17.355499 25.4286 -969.28699
-15.6675 24.900299 -967.35999
-13.9042 24.356199 -965.91998
-12.9152 24.066999 -964.81702
-11.4302 23.645399 -963.80701
-9.7095299 23.171801 -962.48901
-14.3618 31.474899 -1023.26
-16.3451 31.704201 -1021.38
-17.3685 31.681601 -1019.86
-18.743 31.8274 -1018.49
-19.524401 31.8703 -1017.31
-21.120701 31.7533 -1014.15
-22.3986 31.962601 -1013.02
-22.9422 31.943199 -1012.04
-23.0154 31.8141 -1011.17
-23.705 31.856199 -1010.2
-23.6238 31.7356 -1009.44
-24.7906 31.8004 -1007.62
-24.8076 31.742599 -1006.88
-24.967899 31.6217 -1006.1
-25.288 31.633301 -1005.3
-25.359699 31.503599 -1004.6
-25.3881 31.399799 -1003.84
-25.7316 31.4503 -1003.08
-25.941601 31.3792 -1002.33
-25.807899 31.268999 -1001.67
-26.486601 31.3503 -1000.85
-25.9168 31.1429 -1000.25
-26.2903 31.1493 -999.56201
-26.531099 30.876801 -996.92603
-26.4846 30.8013 -996.28998
-26.504801 30.730301 -995.66101
-26.205299 30.5667 -995.06897
-26.524401 30.5784 -994.40698
-26.743299 30.5702 -993.75403
-26.845699 30.5145 -993.13202
-26.632799 30.3981 -992.55499
-26.370501 30.284599 -992.013
-26.532499 30.1924 -990.81
-26.449499 30.0847 -990.23102
-26.4799 30.0375 -989.63202
-26.127001 29.921801 -989.13098
-25.8652 29.6451 -987.45203
-25.648001 29.5215 -986.94098
-25.8538 29.535101 -986.354
-25.2563 29.3195 -985.85699
-24.9417 29.145201 -984.78101
-25.1057 29.182301 -983.78699
-23.8225 28.370199 -979.20801
-22.8165 28.009199 -978.83099
-23.015699 28.0229 -977.83502
-22.0585 27.714001 -977.44299
-22.169701 27.733999 -976.95398
-21.4077 27.4333 -976.07599
-22.0942 27.611401 -975.51703
-21.050501 27.224701 -974.224
-20.479099 27.021099 -973.35498
-19.8743 26.814301 -972.96802
-19.376301 26.626101 -972.117
-18.917101 26.4667 -971.27399
-17.995001 26.1712 -970.479
-17.2675 25.9324 -969.69
-16.6523 25.730101 -968.88
-16.168301 25.573999 -968.08899
-13.937 24.8743 -965.86499
-13.4645 24.7556 -965.508
-12.5798 24.5044 -964.80902
-10.7368 23.977699 -963.46802
-16.5205 32.283001 -1021.35
-17.7964 32.376801 -1019.93
-18.2964 32.264599 -1018.66
-19.427601 32.383598 -1017.38
-20.570999 32.521801 -1016.17
-20.898199 32.4221 -1015.13
-21.0518 32.296902 -1014.19
-21.8214 32.382599 -1013.16
-22.192499 32.3055 -1012.21
-23.311501 32.4529 -1011.12
-23.439899 32.373199 -1010.27
-23.9189 32.3703 -1009.35
-24.2152 32.302502 -1008.49
-24.6772 32.2117 -1006.88
-24.6506 32.096802 -1006.14
-25.1614 32.152199 -1005.32
-25.7166 32.071499 -1003.76
-25.2274 31.8613 -1003.13
-25.059 31.699699 -1002.46
-25.923599 31.6586 -1000.25
-26.111401 31.634199 -999.56201
-26.1462 31.5525 -998.896
-26.3339 31.4993 -998.20502
-26.2766 31.260201 -996.30103
-26.459499 31.248899 -995.62097
-26.275101 31.1033 -995.02502
-26.1698 30.8162 -992.60303
-26.4417 30.811199 -991.96802
-26.3069 30.7031 -991.401
-25.950399 30.498199 -990.27899
-26.0292 30.4545 -989.67499
-25.979 30.3246 -988.53497
-25.674101 30.124399 -987.43103
-25.3792 29.997499 -986.91699
-25.567699 29.9802 -986.354
-25.510401 29.883499 -985.29199
-24.807899 29.610701 -984.26898
-24.9531 29.6283 -983.75299
-22.733801 28.4659 -977.83398
-22.0557 28.2048 -976.914
-22.227699 28.2381 -976.41699
-20.760599 27.718599 -975.138
-20.9032 27.707899 -974.18903
-20.4097 27.5219 -973.31097
-19.640301 27.2691 -972.927
-19.568399 27.2209 -972.03802
-18.680799 26.937901 -971.255
-17.989401 26.695101 -970.42999
-17.385099 26.450899 -969.19098
-16.950899 26.333401 -968.79303
-15.5081 25.884501 -967.68799
-14.444 25.556801 -966.56299
-12.1448 24.8829 -964.39801
-11.2054 24.6222 -963.73602
-7.73633 23.6994 -961.508
-12.9724 32.376701 -1023.87
-16.0793 32.820499 -1021.61
-17.8053 33.0238 -1020.05
-18.6516 32.782001 -1017.6
-20.1966 33.0154 -1016.28
-20.245399 32.883701 -1015.31
-21.254999 32.9715 -1014.21
-22.2955 32.928398 -1012.17
-22.4147 32.798302 -1011.32
-22.8167 32.780499 -1010.4
-23.3365 32.818901 -1009.49
-23.7883 32.780998 -1008.61
-23.9144 32.677101 -1007.77
-24.431601 32.716702 -1006.9
-24.805901 32.750599 -1006.09
-24.9855 32.555 -1004.61
-25.2286 32.553902 -1003.82
-25.1796 32.4202 -1003.14
-25.068501 32.285801 -1002.44
-25.495501 32.280998 -1001.69
-25.7687 32.261902 -1000.94
-25.7507 32.1693 -1000.24
-26.0958 32.176498 -999.53101
-25.875999 31.8657 -997.60199
-26.215401 31.8118 -996.26398
-26.376301 31.7661 -995.59399
-26.231001 31.678301 -995.00403
-26.0396 31.556499 -994.40002
-26.261101 31.521799 -993.755
-26.313299 31.4732 -993.14203
-25.9037 31.315599 -992.59497
-26.0294 31.228901 -991.39398
-26.1513 31.1539 -990.784
-26.064501 31.069401 -990.21997
-25.868 30.9888 -989.633
-25.7791 30.8988 -989.08801
-25.589899 30.7162 -987.96802
-25.477501 30.629499 -987.42902
-25.3862 30.561001 -986.86798
-25.335699 30.4951 -986.33398
-24.7572 30.1168 -984.21503
-24.616699 30.027399 -983.77899
-24.589701 29.837601 -982.14301
-23.579201 29.450399 -981.16901
-22.7022 29.0445 -978.271
-22.5898 28.9893 -977.78101
-21.950701 28.75 -976.88501
-22.256201 28.781099 -976.37701
-21.729099 28.5919 -975.46698
-20.782301 28.285601 -975.10699
-20.7197 28.207001 -974.15997
-20.3594 28.034599 -973.26703
-19.380199 27.7453 -972.46503
-18.592501 27.434401 -971.20502
-17.8599 27.210199 -970.38599
-16.202299 26.673599 -968.40601
-14.0116 25.9848 -966.133
-13.091 25.709999 -965.43799
-7.6717501 24.2376 -961.46698
-15.6792 33.3899 -1021.92
-18.0837 33.490398 -1018.9
-18.9876 33.5037 -1017.62
-19.8423 33.526699 -1016.4
-20.2087 33.431599 -1015.37
-20.785 33.421398 -1014.29
-21.391001 33.464401 -1013.28
-22.1194 33.338299 -1011.38
-23.015499 33.417 -1010.36
-23.1647 33.358398 -1009.52
-23.554199 33.290401 -1008.65
-23.5963 33.226299 -1007.82
-23.9568 33.0508 -1006.24
-24.494301 33.078899 -1005.41
-24.864 33.084801 -1004.58
-24.8344 32.987301 -1003.89
-25.401501 32.9235 -1002.36
-25.673201 32.902599 -1001.62
-25.2729 32.687302 -1000.97
-25.4268 32.649799 -1000.27
-25.6887 32.667999 -999.56201
-25.796 32.605202 -998.89203
-25.9599 32.527699 -998.21198
-25.915199 32.4771 -997.578
-26.020599 32.3344 -996.26599
-26.135401 32.273701 -995.61902
-26.2271 32.155201 -994.33197
-26.261 32.084801 -993.70502
-26.162201 31.9776 -993.12097
-25.997299 31.9021 -992.54199
-25.7563 31.7451 -991.987
-25.7484 31.6877 -991.414
-25.6712 31.565399 -990.80798
-25.840401 31.5742 -990.211
-25.462299 31.411301 -989.66803
-25.899799 31.4503 -989.052
-25.750601 31.372299 -988.47302
-25.448799 31.253901 -987.94299
-25.3398 31.157499 -987.39301
-25.4058 31.046801 -986.27502
-25.1996 30.906401 -985.23999
-24.736799 30.750799 -984.67902
-24.529699 30.6623 -984.211
-24.3859 30.571899 -983.75702
-24.9526 30.681999 -982.55402
-23.7712 30.0979 -981.06201
-22.655001 29.5832 -978.20697
-21.8901 29.269699 -976.83301
-20.9993 28.902201 -974.99597
-20.538 28.716299 -974.11603
-19.9554 28.489401 -973.26202
-19.2157 28.2227 -972.435
-18.375999 27.968201 -971.62
-17.618999 27.650101 -969.927
-16.9245 27.4268 -969.12799
-16.021 27.1364 -968.39099
-15.3135 26.9193 -967.617
-14.069 26.534401 -966.08301
-11.8168 25.894899 -964.33502
-10.1191 25.4265 -962.987
-9.5535898 25.273001 -962.67603
-7.7157001 24.798201 -961.396
-16.025101 33.867699 -1020.74
-16.790199 33.798698 -1019.26
-18.315399 33.971901 -1017.82
-18.6063 33.848701 -1016.7
-19.3999 33.852402 -1015.56
-20.2117 33.880402 -1014.46
-21.523001 33.929501 -1012.41
-22.2526 33.826302 -1010.52
-22.9774 33.867699 -1009.56
-23.133101 33.771599 -1008.71
-23.672501 33.8055 -1007.8
-23.989799 33.754902 -1006.97
-24.2195 33.707699 -1006.16
-24.108 33.571499 -1005.46
-24.1439 33.4617 -1004.72
-24.7346 33.5317 -1003.89
-24.9785 33.4986 -1003.14
-25.141701 33.432499 -1002.39
-25.436199 33.438801 -1001.63
-25.1096 33.235802 -1001.02
-25.5926 33.252399 -1000.23
-25.3585 33.136501 -999.591
-25.6157 33.1157 -998.88501
-25.7952 33.0742 -998.19202
-25.913099 32.8764 -996.23297
-26.040001 32.741901 -994.94897
-25.48 32.5313 -994.42499
-25.809299 32.544701 -993.73297
-25.764 32.440601 -993.13898
-26.005699 32.457802 -992.50702
-25.5968 32.277401 -991.987
-25.797501 32.262402 -991.35602
-25.721399 32.102402 -990.15997
-25.770599 32.0546 -989.56
-25.4144 31.7994 -987.89697
-25.0853 31.599899 -986.81403
-25.112499 31.556 -986.25897
-24.7295 31.3901 -985.76801
-24.660299 31.292999 -985.26202
-24.291401 31.1334 -984.72302
-24.341101 31.039801 -983.70898
-23.9678 30.879601 -983.10699
-24.081499 30.728701 -981.02197
-23.049601 30.3528 -979.60303
-22.431299 30.098499 -978.68799
-22.4121 30.025999 -977.69501
-21.7861 29.791401 -976.79401
-21.257 29.564301 -975.43402
-20.4389 29.2735 -974.55603
-20.189899 29.0954 -973.16901
-19.1017 28.757299 -972.38702
-17.8102 28.337 -970.72699
-17.391199 28.1682 -969.90302
-16.9368 28.0382 -969.50201
-16.319901 27.8132 -968.72699
-15.6604 27.6035 -967.94397
-14.8938 27.3671 -967.18103
-14.3853 27.223301 -966.82703
-13.3195 26.934401 -965.70697
-13.0104 26.7969 -965.33801
-12.1847 26.5429 -964.62903
-11.1543 26.2735 -963.96899
-8.4287701 25.5417 -962.00403
-18.2355 34.3736 -1016.88
-19.5909 34.494202 -1015.6
-19.664101 34.356998 -1014.65
-20.860399 34.4888 -1013.47
-21.086901 34.421398 -1012.48
-21.9168 34.4594 -1011.43
-22.152901 34.405201 -1010.54
-22.745701 34.426701 -1009.59
-22.5424 34.236698 -1008.83
-23.2896 34.267601 -1007.88
-23.639299 34.298199 -1007.03
-23.6383 34.138199 -1006.27
-24.0186 34.133301 -1005.47
-24.2535 33.995399 -1003.93
-24.632799 33.967602 -1003.19
