# .PCD v0.7 - Point Cloud Data file format
VERSION 0.7
FIELDS x y z
SIZE 4 4 4
TYPE F F F
COUNT 1 1 1
WIDTH 1571
HEIGHT 1
VIEWPOINT 0 0 0 1 0 0 0
POINTS 1571
DATA ascii
-12.5249 -36.7729 -969.55103
-12.1024 -36.775398 -969.315
-11.6484 -36.795399 -969.03998
-11.1147 -36.7855 -968.487
-10.6165 -36.813599 -968.414
-10.1183 -36.8339 -968.29999
-9.5988998 -36.864899 -968.02899
-9.0738297 -36.867001 -967.68903
-8.5625896 -36.870098 -967.55798
-8.12321 -36.9226 -967.39502
-7.6942501 -36.922001 -967.22498
-7.2698202 -36.9459 -967.03302
-6.80165 -36.9716 -967.12598
-5.8894801 -36.971199 -965.85999
-5.3576198 -36.995602 -965.66199
-4.8200002 -37.003601 -965.40601
-4.3008099 -37.037399 -965.39801
-3.7927499 -37.053699 -965.29102
-3.3147099 -37.076099 -965.078
-2.8719399 -37.112701 -965.073
-2.39853 -37.132999 -964.664
-1.39109 -37.194599 -964.698
-0.81374502 -37.200199 -964.56201
-0.26228699 -37.2407 -964.185
0.80309099 -37.275101 -964.21997
1.82505 -37.323002 -964.03302
2.2805901 -37.340599 -964.07501
2.74208 -37.372101 -964.01501
3.2333901 -37.3941 -964
4.3842702 -37.422401 -963.64502
5.4844499 -37.4837 -963.534
6.0764499 -37.512199 -963.79797
7.1472998 -37.5872 -963.73999
7.62637 -37.629398 -963.802
8.1101904 -37.667801 -963.995
9.8228302 -37.711899 -963.95898
10.4125 -37.757401 -963.98602
10.9982 -37.776001 -963.88599
11.5758 -37.818401 -963.93402
12.1487 -37.8624 -964.185
12.6651 -37.889801 -964.30298
13.165 -37.898399 -964.17401
13.6558 -37.906601 -964.03003
14.1717 -37.969398 -964.57501
15.3607 -38.026501 -964.65302
17.5662 -38.147999 -963.94501
18.131001 -38.216301 -964.33899
18.6661 -38.2089 -964.37598
19.8081 -38.289902 -964.67401
20.496 -38.355 -965.39203
21.189301 -38.412102 -965.83099
21.8592 -38.445 -965.76398
22.4771 -38.483898 -966.237
23.1238 -38.5275 -966.38397
23.769199 -38.5951 -966.85498
24.3626 -38.627701 -966.83502
24.886801 -38.6562 -967.271
26.045401 -38.733398 -967.47998
27.437599 -38.816299 -967.87598
28.1024 -38.882599 -968.63898
28.789301 -38.9464 -968.888
30.147699 -39.029301 -969.71899
31.352301 -39.142101 -970.30103
34.000599 -39.3479 -971.64398
34.753399 -39.4328 -972.383
35.515598 -39.508202 -972.70697
-35.1409 -36.144299 -997.06097
-34.497799 -36.120998 -995.51898
-33.698502 -36.028301 -993.32501
-33.384499 -36.045502 -992.33502
-32.520802 -36.029598 -990.69897
-32.027599 -36.007099 -990.08899
-31.579399 -35.994202 -989.34198
-31.167801 -35.999699 -988.55402
-30.813801 -36.008202 -988.05902
-30.4394 -35.9888 -987.28497
-30.0732 -35.9552 -986.59003
-29.678101 -35.9426 -985.93903
-29.272699 -35.961102 -985.46301
-28.808701 -35.981899 -984.68402
-28.363501 -35.962502 -983.88898
-27.936701 -35.956501 -983.37097
-27.475901 -35.9631 -982.69299
-27.0411 -35.964802 -982.08502
-26.6388 -35.952 -981.33301
-26.2437 -35.962002 -980.85699
-25.8605 -35.9552 -980.48297
-25.4114 -35.950001 -979.67902
-24.989599 -35.963501 -979.47101
-24.5254 -35.962502 -978.94202
-24.0511 -35.994099 -978.34497
-23.593201 -35.9795 -977.95599
-23.1099 -35.972801 -977.33698
-22.6584 -35.9935 -976.99402
-22.2313 -35.997501 -976.49597
-21.8347 -36.006302 -976.18298
-21.413401 -35.983101 -975.638
-20.9804 -36.003399 -975.263
-20.5357 -36.038799 -975.073
-20.0336 -36.021301 -974.34302
-19.6133 -36.042 -974.06097
-19.1402 -36.0285 -973.41101
-18.629999 -36.065899 -973.172
-18.102301 -36.085201 -972.79401
-17.6542 -36.087601 -972.62598
-17.2395 -36.088402 -972.375
-16.8244 -36.0877 -971.95001
-16.3971 -36.113201 -971.80603
-15.9049 -36.125099 -971.45099
-15.4063 -36.145302 -971.14899
-14.9128 -36.184601 -970.995
-14.3975 -36.170601 -970.39301
-13.9066 -36.189301 -970.14301
-13.4114 -36.212399 -969.91803
-12.5173 -36.231098 -969.14301
-12.0949 -36.221401 -968.97101
-11.6358 -36.277901 -968.77802
-11.1448 -36.266499 -968.57202
-10.6396 -36.293598 -968.48297
-10.1234 -36.317402 -968.20898
-9.59653 -36.330799 -967.91199
-9.0896597 -36.353199 -967.52301
-8.5674295 -36.363499 -967.26202
-8.14223 -36.3908 -967.33099
-7.7228298 -36.385502 -967.16199
-6.8037901 -36.415699 -966.90601
-6.3650999 -36.403599 -966.15503
-5.8870902 -36.424198 -965.57001
-5.3614998 -36.468498 -965.39697
-4.8515601 -36.470501 -965.22601
-4.3074598 -36.506802 -964.979
-3.7843399 -36.5177 -964.84497
-3.3215599 -36.550201 -964.76398
-2.8708401 -36.558498 -964.82501
-2.40325 -36.586102 -964.67999
-1.92443 -36.613201 -964.953
-0.805875 -36.667 -964.60797
-0.290115 -36.6786 -964.19397
0.82712799 -36.742599 -964.40802
1.29066 -36.744099 -963.875
2.2890999 -36.819 -963.72601
2.7127299 -36.925201 -964.51703
3.2584901 -36.905499 -964.40601
3.80107 -36.851299 -963.09698
4.37814 -36.900101 -963.99902
4.9381599 -36.922798 -963.54199
5.4945798 -36.932899 -963.36798
6.0882301 -36.993801 -964.08197
6.6412802 -37.015099 -963.32898
7.1423302 -37.036301 -963.88202
7.6454701 -37.0802 -963.77197
8.1280098 -37.108601 -963.91699
8.6457396 -37.1376 -964.03998
9.2218904 -37.152901 -963.64502
9.8140802 -37.204201 -964.25897
10.3965 -37.246899 -964.09399
10.9882 -37.246799 -963.62598
11.572 -37.262501 -964.05798
12.1471 -37.2803 -963.59601
12.639 -37.3414 -964.08502
13.1441 -37.3559 -963.901
13.632 -37.404598 -964.112
15.3383 -37.507198 -964.41101
15.9015 -37.510201 -964.07501
16.4231 -37.5294 -963.66699
17.5609 -37.585602 -963.73798
18.138201 -37.629299 -964.08398
18.6534 -37.670898 -964.22998
19.7789 -37.750599 -964.55701
20.502001 -37.836498 -964.88202
21.1723 -37.865501 -965.51001
21.8302 -37.882198 -965.46399
22.450399 -37.944 -965.93298
23.0909 -37.976501 -965.98102
23.7307 -38.02 -966.27399
24.2995 -38.060799 -966.71899
25.416 -38.1455 -967.07202
26.012501 -38.181 -967.29401
26.690399 -38.256599 -967.703
28.0576 -38.332298 -968.42902
28.759399 -38.389801 -968.604
29.445801 -38.423199 -969.00897
30.7778 -38.563599 -970.06201
31.351801 -38.5774 -970.09998
32.577599 -38.651001 -970.91901
33.281898 -38.716202 -971.55798
34.037201 -38.769901 -972.16199
34.800999 -38.832199 -972.11102
35.560501 -38.895599 -972.862
36.3288 -38.9664 -973.45898
37.121201 -39.017399 -974.09998
38.493999 -39.1423 -975.27002
-32.995399 -35.550999 -991.49799
-32.005402 -35.454899 -990.10199
-31.5879 -35.4655 -989.40601
-30.8032 -35.479801 -987.81299
-30.452499 -35.482601 -987.263
-30.0828 -35.4688 -986.62402
-29.679199 -35.436699 -985.82202
-28.812099 -35.4604 -984.44897
-28.3612 -35.469398 -983.724
-27.9217 -35.446899 -983.05499
-27.4659 -35.451599 -982.45001
-27.0404 -35.4515 -981.88599
-26.6535 -35.434502 -981.35602
-26.2479 -35.421101 -980.78998
-25.859699 -35.432201 -980.35699
-25.4424 -35.436699 -979.78101
-24.556101 -35.456501 -978.89203
-24.073299 -35.460098 -978.229
-23.579599 -35.4631 -977.78003
-23.1241 -35.4804 -977.29303
-22.6579 -35.496601 -976.89801
-22.237301 -35.4856 -976.43597
-21.852699 -35.503101 -976.23999
-21.4049 -35.471901 -975.44501
-21.0021 -35.503502 -975.23199
-20.531401 -35.5289 -974.927
-20.033899 -35.533401 -974.29498
-19.6064 -35.512501 -973.70398
-18.6394 -35.542801 -972.966
-18.1108 -35.5686 -972.73798
-17.6486 -35.553799 -972.28003
-17.234699 -35.566799 -972.04901
-16.8304 -35.594002 -971.83398
-16.4069 -35.619099 -971.68597
-15.9023 -35.619701 -971.23901
-15.4071 -35.639 -971.06799
-14.8999 -35.655102 -970.73499
-14.4008 -35.649799 -970.25702
-13.9041 -35.686001 -970.03101
-13.4142 -35.689701 -969.60602
-12.9633 -35.696999 -969.474
-12.5318 -35.699001 -969.23999
-12.1033 -35.717999 -968.909
-11.6612 -35.741001 -968.78699
-11.1577 -35.765499 -968.59302
-10.6562 -35.7659 -968.32202
-10.1037 -35.777401 -967.703
-9.0935001 -35.842999 -967.54901
-8.5863104 -35.865002 -967.27698
-8.1519403 -35.866199 -967.22101
-7.7258101 -35.899799 -966.96198
-7.2775898 -35.907398 -966.81598
-6.7978802 -35.907101 -966.45001
-6.3803701 -35.913799 -966.047
-5.9022298 -35.921398 -965.49298
-5.3670702 -35.952499 -965.15302
-4.8477402 -35.982899 -965.08899
-4.3231902 -35.978699 -964.95001
-3.81235 -36.0261 -964.953
-3.33658 -36.0392 -964.742
-2.8736401 -36.053001 -964.49902
-2.4314401 -36.074699 -964.60199
-1.9304399 -36.118198 -964.90198
-1.40029 -36.1092 -964.185
-0.83563298 -36.139099 -964.28302
-0.30518499 -36.144001 -964.26501
0.245176 -36.162701 -963.995
0.79300803 -36.225101 -964.12097
1.33989 -36.2127 -963.59399
1.81563 -36.224602 -963.70203
2.2764599 -36.279099 -963.71802
2.7420101 -36.281898 -963.67603
3.24473 -36.313 -963.59497
3.79269 -36.348202 -963.41602
4.3788099 -36.376301 -963.5
4.9572401 -36.416599 -963.66803
5.5215201 -36.4319 -963.151
6.1090398 -36.489101 -963.84802
6.66184 -36.494801 -963.172
7.1603899 -36.548401 -963.71899
7.67768 -36.5625 -963.54797
8.1566801 -36.613701 -963.62402
8.6867599 -36.629002 -963.89203
9.2204905 -36.652802 -963.46399
9.80585 -36.6838 -963.96997
10.3858 -36.691601 -963.71198
10.9567 -36.726398 -963.74597
11.5333 -36.778702 -963.66602
12.1102 -36.7882 -963.51599
12.6194 -36.836399 -963.56897
13.107 -36.8634 -963.83301
13.607 -36.917 -963.76001
14.1274 -36.9314 -964.26202
14.7263 -36.927898 -963.77197
15.3271 -36.9902 -964.16803
15.8742 -37.030201 -964.09003
17.537901 -37.073601 -963.58899
18.107401 -37.114101 -963.77698
18.6357 -37.177399 -964.255
19.180401 -37.183102 -964.36102
19.770901 -37.2756 -964.724
20.487801 -37.313202 -965.12201
21.1562 -37.348499 -965.21002
21.8158 -37.3708 -965.29498
22.439899 -37.436798 -965.60797
23.077 -37.477798 -965.82501
23.711599 -37.522301 -966.22101
24.276199 -37.547501 -966.58698
24.8342 -37.561401 -966.46002
25.976 -37.6838 -967.26398
26.644501 -37.726398 -967.28699
27.318199 -37.777 -967.63098
28.0156 -37.795799 -967.86298
28.7073 -37.870499 -968.33301
29.396299 -37.917999 -968.62701
30.089001 -37.963799 -969.25897
30.7363 -38.018101 -969.70398
31.3253 -38.057098 -969.78497
31.912201 -38.127399 -970.591
32.554001 -38.166 -970.63501
33.2742 -38.180901 -971.01501
34.019501 -38.258499 -971.927
34.767601 -38.282902 -971.57202
35.547199 -38.390301 -972.40198
36.272202 -38.4706 -973.24298
37.057598 -38.513699 -974.05701
37.7542 -38.5905 -974.42297
38.462898 -38.621498 -975.172
39.122398 -38.6577 -975.76703
-32.905201 -34.952202 -991.27802
-32.396301 -34.933201 -990.53497
-31.1707 -34.944401 -988.336
-30.7967 -34.9398 -987.57098
-30.077 -34.944 -986.48999
-29.255301 -34.888 -985.013
-28.8312 -34.898399 -984.47198
-27.940599 -34.9048 -983.10602
-27.4914 -34.9147 -982.50702
-26.652901 -34.911301 -981.17999
-26.2614 -34.912701 -980.73602
-25.460899 -34.9221 -979.85797
-24.995899 -34.945702 -979.27399
-24.529499 -34.922501 -978.62799
-24.0443 -34.897202 -978.02399
-23.5802 -34.915699 -977.45099
-23.117399 -34.930199 -977.09802
-22.6653 -34.935101 -976.73401
-22.249001 -34.963501 -976.396
-21.4403 -34.972401 -975.65198
-20.995701 -34.987202 -975.06201
-20.5249 -34.9687 -974.80499
-20.0401 -34.976299 -974.24902
-19.5898 -34.983002 -973.57098
-18.641399 -35.001598 -972.82202
-18.1369 -35.054199 -972.87903
-17.674 -35.0462 -972.41699
-17.2652 -35.056599 -972.25201
-16.853201 -35.068199 -971.85498
-16.409901 -35.092201 -971.56598
-15.9212 -35.0994 -971.24103
-15.4061 -35.102699 -970.77802
-14.9036 -35.123299 -970.45599
-14.403 -35.151901 -970.177
-13.9248 -35.1362 -969.867
-13.4349 -35.1731 -969.71399
-12.9747 -35.197601 -969.46899
-12.529 -35.182098 -968.98297
-12.1224 -35.207802 -968.802
-11.6581 -35.221901 -968.44501
-11.1717 -35.252998 -968.612
-10.6439 -35.2672 -968.07501
-9.0919399 -35.299301 -967.22803
-8.6086302 -35.327599 -967.26001
-8.1571198 -35.360001 -967.12402
-7.7326102 -35.376999 -966.90198
-7.2920599 -35.367901 -966.70001
-6.8347101 -35.397598 -966.44598
-6.3780098 -35.4067 -965.88
-5.3906898 -35.415199 -965.32703
-4.3337102 -35.471901 -964.93103
-3.8055699 -35.493301 -964.78101
-3.34287 -35.5308 -964.85602
-2.8813601 -35.4814 -964.664
-2.4157701 -35.4958 -964.34198
-1.92927 -35.543098 -964.37
-1.3919801 -35.573601 -963.97998
-0.85298699 -35.582298 -964.08899
-0.30229601 -35.605999 -963.78302
0.233201 -35.664799 -963.659
0.770661 -35.723202 -963.85498
1.32025 -35.716801 -963.31
1.80152 -35.7505 -963.45099
2.2632301 -35.7491 -963.39203
2.7406499 -35.793301 -963.375
3.2590899 -35.823399 -963.479
4.97472 -35.890701 -963.39301
5.5129199 -35.927898 -963.51099
6.1180401 -35.947899 -963.72601
6.6657801 -36.019299 -963.45001
7.1701102 -36.0284 -963.61603
7.65979 -36.058201 -963.58899
8.1620998 -36.068199 -963.25897
8.63976 -36.088501 -963.87402
9.2048101 -36.117001 -963.539
9.7769098 -36.144299 -963.48102
10.3428 -36.183102 -963.39301
10.9309 -36.199001 -963.66998
11.5117 -36.2416 -963.61298
12.0862 -36.268299 -963.52802
12.6139 -36.302898 -963.61603
13.0885 -36.345501 -963.54102
13.5854 -36.373199 -963.651
14.6839 -36.4534 -963.55103
15.307 -36.470699 -964.13599
16.420401 -36.501499 -963.19299
17.520201 -36.542 -963.35797
18.0819 -36.602699 -963.60699
18.621901 -36.641102 -964.20898
19.162201 -36.660198 -964.04999
19.749399 -36.7365 -964.28101
20.462099 -36.798401 -965.13898
21.129299 -36.8111 -965.117
21.770399 -36.854401 -965.45697
22.400801 -36.886101 -965.64697
23.079901 -36.9547 -965.69299
23.698099 -36.994202 -966.078
24.256001 -37.0158 -966.09497
25.3526 -37.103001 -966.44897
25.9394 -37.134399 -966.93201
26.629499 -37.194302 -967.138
27.300699 -37.2216 -967.40698
27.9781 -37.289001 -967.95203
28.673599 -37.323299 -968.48499
29.3571 -37.383701 -968.61102
30.693701 -37.477501 -969.25598
31.868601 -37.553101 -970.23499
33.260601 -37.695702 -970.67999
33.990299 -37.7355 -971.30103
34.739399 -37.790001 -971.96503
35.479 -37.84 -972.323
36.268299 -37.9245 -973.11298
37.0429 -37.956402 -973.46899
37.721298 -38.039799 -974.15601
38.3741 -38.087898 -974.35699
39.0597 -38.1436 -975.46399
39.796299 -38.193199 -976.07501
-35.873299 -34.574699 -999.30798
-33.3979 -34.447899 -992.07001
-31.9802 -34.419102 -989.91101
-31.1845 -34.389801 -988.37097
-29.709 -34.3727 -985.65601
-29.255301 -34.371799 -984.84399
-28.355499 -34.396999 -983.46899
-27.4739 -34.384602 -982.23297
-27.043699 -34.384998 -981.56598
-26.6724 -34.389 -981.22601
-26.254801 -34.3624 -980.57098
-25.8482 -34.373402 -979.97998
-25.450899 -34.382198 -979.599
-24.9932 -34.378201 -979.13
-24.5117 -34.3922 -978.43201
-24.0506 -34.399799 -977.94598
-23.5809 -34.374699 -977.34698
-22.246099 -34.441898 -976.237
-21.837999 -34.451801 -975.79901
-21.429701 -34.444901 -975.336
-20.533899 -34.4627 -974.58502
-20.063 -34.480598 -974.19098
-19.1637 -34.4967 -973.10498
-18.6511 -34.488602 -972.65002
-17.668301 -34.543999 -972.27802
-17.2614 -34.526199 -971.97803
-16.8468 -34.541901 -971.62097
-16.4107 -34.580898 -971.461
-15.8972 -34.551102 -970.815
-15.412 -34.576698 -970.72198
-14.9052 -34.607601 -970.32599
-14.4141 -34.618599 -970.07202
-13.9161 -34.634201 -969.755
-13.4194 -34.631599 -969.37
-12.9804 -34.670101 -969.17603
-12.5352 -34.703899 -968.76599
-12.1294 -34.7047 -968.91803
-11.6719 -34.716099 -968.36499
-11.1647 -34.728901 -968.21198
-10.6434 -34.745602 -967.95898
-10.1486 -34.755501 -967.87097
-9.6287699 -34.778702 -967.55103
-9.1078196 -34.783001 -967.20099
-8.6011 -34.814602 -966.995
-8.1662798 -34.8195 -966.90601
-7.7360101 -34.865601 -966.84497
-7.2887902 -34.8717 -966.57397
-6.83534 -34.905701 -966.36102
-6.37995 -34.884701 -965.85199
-4.8534598 -34.931 -964.68597
-4.3534698 -34.970001 -964.64697
-3.81883 -34.9645 -964.42603
-3.3680899 -34.986 -964.59698
-2.8857999 -35.011902 -964.26898
-2.4312 -35.029099 -964.02197
-1.9635 -35.059898 -964.10303
-1.42463 -35.077202 -963.78101
-0.86802697 -35.138901 -964.02698
-0.324146 -35.1422 -963.72601
0.22283199 -35.1619 -963.58502
0.76281297 -35.219002 -963.91302
1.30126 -35.2094 -963.26001
1.7945499 -35.244301 -963.40802
2.26192 -35.2635 -963.43201
2.73195 -35.298901 -963.71301
3.2460401 -35.346802 -964.021
4.39608 -35.377602 -963.75897
4.9714999 -35.391899 -963.396
5.5391598 -35.409199 -963.27301
6.10148 -35.484299 -963.96301
6.6621799 -35.48 -963.39502
7.16293 -35.496799 -963.39502
8.1161003 -35.5354 -963.49597
8.6240597 -35.576698 -963.22101
9.1924105 -35.5975 -963.14001
9.7715797 -35.6362 -963.24902
10.3287 -35.678398 -963.19
10.9182 -35.701099 -963.20599
11.4844 -35.7132 -963.28302
12.0721 -35.773602 -963.26398
12.5808 -35.788601 -963.12402
13.0822 -35.835999 -963.24298
13.5732 -35.837898 -963.52698
14.0733 -35.871799 -963.63202
14.6765 -35.908699 -963.35999
15.2737 -35.942101 -963.80701
15.8751 -35.967499 -963.46802
16.946501 -36.025501 -963.64502
18.601299 -36.120602 -963.69598
19.1633 -36.123001 -963.987
19.789101 -36.2509 -964.72101
20.4471 -36.2705 -964.81201
21.100599 -36.297401 -964.99298
21.7463 -36.330898 -964.90399
22.3843 -36.366501 -965.31897
23.0247 -36.405102 -965.74402
23.680401 -36.439999 -965.71802
24.254101 -36.5023 -966
24.791 -36.521801 -966.146
25.335501 -36.5774 -966.64899
25.916401 -36.628601 -966.98798
26.612499 -36.6535 -967.06097
27.2749 -36.716599 -967.388
27.9478 -36.757 -967.34698
28.615 -36.810501 -968.04901
29.9995 -36.927399 -968.93903
30.636 -36.948101 -969.16901
31.229099 -37.020302 -969.35699
32.497398 -37.075401 -970.13898
33.211399 -37.111698 -971.05798
33.950001 -37.207298 -971.28802
34.6824 -37.257999 -971.84698
35.417099 -37.330898 -972.18201
36.192501 -37.384998 -972.78198
36.9865 -37.4174 -972.96802
37.6385 -37.4678 -973.65997
38.9921 -37.611099 -975.078
-35.8517 -34.050201 -999.23199
-35.351501 -33.999401 -997.44501
-32.4011 -33.886101 -990.57703
-31.5812 -33.883999 -988.883
-31.1609 -33.8508 -987.94598
-30.806299 -33.876301 -987.396
-30.4489 -33.8671 -986.677
-30.0891 -33.860298 -986.18402
-29.7164 -33.849098 -985.685
-29.2579 -33.8372 -984.71698
-28.7973 -33.8508 -983.95001
-28.358999 -33.847 -983.29797
-27.933201 -33.858501 -982.841
-27.493799 -33.865299 -982.18799
-27.050301 -33.853001 -981.38898
-26.6633 -33.8559 -981.01501
-26.280399 -33.860001 -980.68402
-25.879999 -33.822899 -980.01099
-25.4524 -33.869801 -979.48401
-24.9802 -33.836201 -978.76398
-24.5086 -33.869099 -978.23602
-24.055 -33.879902 -977.87
-23.571199 -33.870701 -977.23602
-23.137501 -33.900902 -977.08301
-22.697001 -33.9016 -976.74298
-22.2533 -33.899101 -976.08197
-21.8405 -33.912998 -975.604
-21.424601 -33.934799 -975.15698
-21.0063 -33.949902 -974.84497
-20.540501 -33.940201 -974.59399
-20.052 -33.938 -974.11902
-19.591299 -33.931499 -973.448
-19.139999 -33.968399 -972.89899
-18.6532 -33.973701 -972.64801
-18.1374 -33.9772 -972.495
-17.679001 -33.993599 -972.19397
-17.2505 -34.020699 -971.68402
-16.865999 -34.027 -971.54999
-16.427601 -34.030499 -971.34698
-15.9199 -34.0429 -970.94098
-15.4177 -34.042801 -970.40698
-14.9221 -34.074299 -970.21997
-14.4304 -34.1008 -970.07501
-13.9274 -34.106201 -969.83301
-13.4262 -34.119099 -969.28998
-13.0042 -34.148998 -969.276
-12.5447 -34.1413 -968.72101
-12.1346 -34.1385 -968.57898
-11.6798 -34.156101 -968.33801
-11.1771 -34.204899 -968.19897
-10.6529 -34.211399 -967.67297
-10.1531 -34.2272 -967.71399
-9.6321201 -34.240601 -967.23602
-9.1196003 -34.257599 -967.10901
-8.6017199 -34.292599 -966.97302
-8.1741695 -34.316898 -966.72198
-7.73909 -34.321201 -966.58398
-7.3057499 -34.344898 -966.55402
-6.8552499 -34.360802 -966.40399
-6.3480902 -34.366501 -965.67102
-5.3961 -34.3564 -964.79401
-4.8724599 -34.409599 -964.79199
-4.3633299 -34.435501 -964.74902
-3.83586 -34.459 -964.41302
-3.3668001 -34.4814 -964.45398
-2.9061999 -34.509602 -964.16302
-2.4649501 -34.519901 -964.22101
-1.98119 -34.544102 -964.00598
-1.4200799 -34.5485 -963.61298
-0.31276301 -34.6003 -963.67401
0.179011 -34.6418 -963.63397
0.76340503 -34.753799 -963.68799
2.2888899 -34.736301 -963.46002
3.2572401 -34.805801 -964.08197
3.83394 -34.785301 -962.70099
4.4029398 -34.850899 -963.698
4.97578 -34.860901 -963.24402
5.54807 -34.902 -962.94
6.1150699 -34.941002 -963.62402
6.6635199 -34.9366 -963.26599
7.1580801 -34.948799 -963.05499
7.61554 -34.976799 -963.18597
8.5948601 -35.054401 -963.04102
9.1732502 -35.0797 -962.99799
9.75459 -35.1189 -962.98199
10.3329 -35.117901 -962.74799
10.884 -35.1721 -963.01599
11.4766 -35.208199 -963.17499
12.0549 -35.225399 -962.93597
12.5575 -35.2687 -963.448
13.0533 -35.296101 -963.42401
14.0586 -35.340698 -963.71399
14.6523 -35.349098 -963.18103
15.2566 -35.4081 -963.46503
15.861 -35.420799 -963.37903
16.9823 -35.5592 -963.61401
18.634399 -35.5634 -963.30103
19.1642 -35.636501 -963.77301
19.768999 -35.686298 -964.40198
20.428101 -35.7314 -964.76801
21.096901 -35.751701 -964.52197
21.720501 -35.8097 -964.89203
22.3589 -35.839401 -964.992
23.0005 -35.8759 -965.19299
23.637199 -35.930901 -965.599
24.198299 -35.961899 -966.25201
25.317301 -36.028 -966.14398
25.8993 -36.076199 -966.53302
27.246401 -36.177299 -967.07397
27.927601 -36.227901 -967.42401
28.5721 -36.2789 -968.04199
29.960501 -36.332199 -968.52399
30.560499 -36.441101 -968.87097
31.1677 -36.448002 -969.34003
32.422298 -36.571999 -969.828
33.8666 -36.634499 -970.84399
34.643398 -36.7164 -971.53998
35.3787 -36.779999 -971.94598
36.133598 -36.8372 -972.46002
37.596401 -36.953701 -973.33398
38.262901 -36.994301 -974.13202
38.9189 -37.062698 -974.85797
39.650299 -37.110699 -975.11102
-33.2855 -33.3503 -991.93402
-32.805099 -33.334 -991.35901
-32.008701 -33.3344 -989.80701
-30.4352 -33.325199 -986.57098
-29.273399 -33.2994 -984.72302
-28.3536 -33.291901 -983.12903
-27.9252 -33.2999 -982.59399
-27.488701 -33.276199 -982.01001
-27.055599 -33.2752 -981.29602
-26.6457 -33.275398 -980.73199
-26.2535 -33.279598 -980.40302
-25.882099 -33.279099 -980.026
-25.4702 -33.3148 -979.50897
-24.9818 -33.304001 -978.73999
-24.529301 -33.309898 -978.29901
-24.052 -33.326099 -977.67102
-23.583599 -33.314301 -977.23199
-23.1283 -33.332199 -976.745
-22.6731 -33.321201 -976.31598
-22.256001 -33.342602 -975.91699
-21.8428 -33.361198 -975.51898
-21.4417 -33.3587 -975.11798
-20.5186 -33.3815 -974.32001
-20.0492 -33.383301 -973.815
-19.601299 -33.397202 -973.35498
-19.1563 -33.406898 -972.69299
-18.660101 -33.410198 -972.54199
-18.135599 -33.439098 -972.302
-17.6793 -33.422199 -971.966
-17.255501 -33.444599 -971.53802
-16.867001 -33.4688 -971.461
-16.423 -33.4762 -971.14502
-15.9366 -33.498299 -970.93103
-15.4341 -33.500198 -970.50299
-14.9224 -33.525799 -970.17401
-14.4198 -33.526199 -969.76099
-13.932 -33.553799 -969.45599
-13.4313 -33.581001 -969.36603
-13.0044 -33.5844 -969.146
-12.542 -33.601101 -968.56897
-12.1292 -33.623001 -968.40302
-11.6692 -33.6311 -968.14899
-11.1864 -33.667099 -968.18201
-10.648 -33.670799 -967.62
-10.1478 -33.679798 -967.49701
-9.6410198 -33.695801 -967.14301
-8.6200199 -33.725201 -966.73499
-8.1611204 -33.756001 -966.49799
-7.7406502 -33.777302 -966.38397
-7.3212099 -33.780701 -966.48297
-6.8540001 -33.807999 -966.30902
-6.3190098 -33.808201 -965.39398
-5.8763499 -33.823299 -965.16699
-5.4045901 -33.834099 -964.75299
-4.36339 -33.890499 -964.60901
-3.8515899 -33.901798 -964.44897
-3.3830199 -33.943199 -964.30798
-2.9161301 -33.970001 -964.24402
-2.45871 -33.963001 -964.05298
-1.93349 -33.9828 -963.94098
-1.47092 -34.057098 -963.80103
-0.32080299 -34.0756 -963.96802
0.21542899 -34.0989 -963.70001
0.82348698 -34.083 -963.85797
1.28175 -34.113899 -963.271
2.30199 -34.173698 -963.36401
3.2862201 -34.231998 -963.79602
3.8262801 -34.251499 -962.89801
4.9723401 -34.3326 -963.229
5.5362201 -34.317699 -963.01898
6.0753598 -34.3722 -963.12299
6.6367002 -34.3969 -962.88397
7.1223602 -34.426399 -963.09601
7.5859399 -34.4305 -962.91302
8.0652905 -34.459202 -962.90802
8.5710297 -34.504902 -963.03497
9.1450901 -34.535702 -962.86902
9.7140598 -34.5746 -963.02502
10.2988 -34.607101 -962.95203
10.8682 -34.644798 -963.00098
11.4569 -34.671902 -963.34302
12.0164 -34.689098 -963.05902
12.5496 -34.715099 -963.04401
13.0167 -34.735699 -963.30103
13.5169 -34.764801 -963.19098
14.0633 -34.814301 -963.53601
14.6448 -34.814701 -963.12799
15.2549 -34.866901 -963.24902
15.8303 -34.874901 -963.29102
17.004999 -34.994499 -963.784
18.5942 -35.039902 -963.41803
19.1798 -35.091801 -963.87097
19.7782 -35.1194 -964.07703
20.4056 -35.159901 -964.55798
21.050501 -35.213299 -964.85699
21.7012 -35.260899 -964.81201
22.3333 -35.293201 -965.10101
22.970501 -35.344101 -965.35602
23.613899 -35.3652 -965.14697
24.168501 -35.4268 -965.87903
24.7255 -35.430801 -965.77899
25.268499 -35.4958 -966.17401
25.8626 -35.515301 -966.53101
26.554199 -35.555199 -966.422
27.2073 -35.6157 -967.18799
27.9093 -35.668098 -967.34302
28.584801 -35.723499 -967.62701
29.2514 -35.7864 -967.99402
30.534599 -35.8587 -968.55499
31.137899 -35.900101 -969.37799
31.727301 -35.938702 -969.46198
32.386002 -35.985901 -969.49103
34.575199 -36.1437 -970.95398
35.348801 -36.1763 -971.703
36.080101 -36.293701 -972.56299
36.8442 -36.3284 -972.99402
37.5448 -36.3923 -973.17999
38.2187 -36.442501 -973.85901
38.865398 -36.5373 -974.90002
-34.186401 -32.7817 -993.14203
-33.2635 -32.809299 -992.19299
-32.782902 -32.787601 -991.15503
-32.389702 -32.7845 -990.409
-31.9652 -32.759201 -989.362
-31.5756 -32.762501 -988.565
-31.169399 -32.746101 -987.73199
-30.4534 -32.7672 -986.52802
-30.081301 -32.764702 -985.836
-29.702801 -32.7472 -985.21899
-29.264601 -32.7467 -984.487
-28.803499 -32.746601 -983.755
-28.369101 -32.757301 -983.12598
-27.912399 -32.752201 -982.328
-27.4638 -32.765499 -981.716
-27.0553 -32.7341 -981.24701
-26.660999 -32.752998 -980.83197
-26.254999 -32.762501 -980.25098
-25.855301 -32.751999 -979.57703
-25.445101 -32.775501 -979.198
-24.995199 -32.774101 -978.73401
-24.5198 -32.7742 -978.12701
-24.059799 -32.7714 -977.67102
-23.5851 -32.753899 -977.03699
-23.120501 -32.791302 -976.49597
-22.2384 -32.808701 -975.65601
-21.8356 -32.816101 -975.31702
-21.433701 -32.840199 -974.922
-21.021099 -32.847599 -974.56702
-20.541901 -32.838001 -974.22803
-20.038099 -32.855 -973.59601
-19.161301 -32.867001 -972.64301
-18.6709 -32.8764 -972.422
-17.688101 -32.895699 -971.91101
-17.258301 -32.912701 -971.39697
-16.85 -32.932201 -971.21899
-16.4279 -32.948399 -971.05298
-15.9289 -32.957802 -970.80701
-15.4222 -32.979698 -970.229
-14.9218 -32.990501 -969.96301
-14.4234 -32.995499 -969.66101
-13.944 -33.013 -969.60999
-13.442 -33.028801 -969.21002
-12.9833 -33.046501 -968.79303
-12.5497 -33.081902 -968.36603
-12.1469 -33.063702 -968.38202
-11.6966 -33.1077 -968.16302
-11.1569 -33.108299 -967.60901
-10.6737 -33.138802 -967.77399
-10.1508 -33.151901 -967.28302
-9.6375999 -33.173401 -967.164
-9.12957 -33.190498 -966.81299
-8.6244202 -33.189201 -966.64502
-8.1787004 -33.204601 -966.57599
-7.74298 -33.2299 -966.47601
-7.3144898 -33.251301 -966.06201
-6.8530798 -33.276699 -966.146
-6.31531 -33.265999 -965.26001
-5.8667598 -33.3069 -965.07501
-4.8844099 -33.315201 -964.37
-4.3674302 -33.349998 -964.46899
-3.8491499 -33.368698 -964.01202
-3.3761799 -33.415501 -964.25201
-2.91429 -33.4105 -964.04401
-2.4584601 -33.381199 -963.96301
-1.90339 -33.4543 -963.836
-1.45342 -33.4874 -963.40399
-0.83447802 -33.516899 -963.76703
-0.290562 -33.531898 -963.43103
0.25282899 -33.551399 -963.19397
0.79235101 -33.597198 -963.552
1.84246 -33.6427 -963.133
2.32443 -33.651199 -963.33502
2.77757 -33.6623 -963.15002
3.2744501 -33.7015 -963.26202
3.8259001 -33.7225 -962.901
4.3940802 -33.769001 -963.46198
4.9448299 -33.786201 -963.11798
5.5151501 -33.811199 -962.91199
6.0688701 -33.825001 -962.87598
6.6153102 -33.856499 -962.875
7.1241202 -33.872898 -962.51898
7.5760598 -33.9123 -962.711
8.04601 -33.915001 -962.651
8.5613499 -33.961899 -962.87201
9.7100296 -34.014801 -962.74799
10.303 -34.073502 -962.57898
10.8557 -34.063599 -962.46997
11.4618 -34.1087 -962.94501
12.0149 -34.124901 -962.815
12.5316 -34.153599 -962.91699
12.9975 -34.2188 -963.16199
13.5175 -34.240398 -963.13202
14.0538 -34.246101 -963.16803
15.2186 -34.319199 -963.20599
15.8154 -34.347198 -963.40601
16.431 -34.374001 -963.03198
17.5812 -34.472099 -963.34399
18.641701 -34.527699 -963.57397
19.775499 -34.576599 -963.888
20.4042 -34.626999 -964.13397
21.041901 -34.6777 -964.80499
21.6653 -34.7313 -964.73999
22.3106 -34.759701 -964.927
22.931299 -34.805099 -965.20203
23.598 -34.834599 -965.06403
24.161699 -34.881901 -965.51703
24.696199 -34.925201 -965.64203
25.2391 -34.938999 -965.97198
25.819099 -34.979198 -966.466
26.503901 -35.047699 -966.547
27.1786 -35.060101 -966.77301
27.8524 -35.111599 -966.992
28.545799 -35.168701 -967.36499
29.246099 -35.202301 -967.617
29.9247 -35.257599 -968.02802
30.519199 -35.317799 -968.26501
31.104 -35.3452 -968.80298
31.7129 -35.4053 -969.20801
32.3326 -35.4338 -969.54999
33.803001 -35.540699 -970.539
34.547001 -35.6231 -970.99402
35.3004 -35.669399 -971.34003
36.069099 -35.7062 -971.81403
36.794701 -35.803001 -972.82001
37.487301 -35.8372 -972.98297
38.156898 -35.9161 -973.80902
39.5536 -36.009998 -974.38898
-35.690701 -32.330799 -998.38501
-33.703499 -32.246201 -992.61102
-33.2285 -32.263699 -992.10602
-32.781399 -32.229198 -991.237
-31.9804 -32.215302 -989.34399
-31.5844 -32.2048 -988.57001
-31.1847 -32.224899 -987.76801
-30.815901 -32.2047 -987.05603
-30.467501 -32.205799 -986.53302
-29.7045 -32.204899 -985.04602
-29.2738 -32.1894 -984.42603
-28.820299 -32.203899 -983.81201
-28.360201 -32.208401 -983.01501
-27.9048 -32.170502 -982.21698
-27.492201 -32.183498 -981.80298
-27.052999 -32.185501 -981.02197
-26.642799 -32.208401 -980.52802
-26.254299 -32.194302 -979.96899
-25.879299 -32.208698 -979.63098
-25.4547 -32.208401 -979.12799
-24.5292 -32.2388 -978.04303
-24.0648 -32.227299 -977.60797
-23.126301 -32.239899 -976.60797
-22.6686 -32.236 -976.11499
-21.8298 -32.255798 -975.08002
-21.441 -32.2696 -974.86499
-21.013 -32.287701 -974.487
-20.5289 -32.297699 -973.96997
-20.059999 -32.3176 -973.66699
-19.5991 -32.2929 -973.01202
-18.6695 -32.309399 -972.31201
-18.133301 -32.358002 -971.78601
-17.6817 -32.3591 -971.69897
-17.282101 -32.377602 -971.48901
-16.876499 -32.4105 -971.26202
-16.4221 -32.412899 -970.77502
-15.9328 -32.429798 -970.62903
-15.4189 -32.430099 -970.03101
-14.9305 -32.4478 -969.85699
-14.4123 -32.461102 -969.41101
-13.9328 -32.495399 -969.284
-13.448 -32.479401 -969.00299
-13.0041 -32.504101 -968.80499
-12.5676 -32.505501 -968.48199
-12.1452 -32.516201 -968.271
-11.6765 -32.5466 -967.927
-11.1778 -32.564602 -967.70099
-10.6508 -32.583 -967.27899
-10.1522 -32.576199 -967.13
-9.6457996 -32.612099 -966.98297
-9.1357603 -32.6343 -966.58197
-8.6396599 -32.664501 -966.539
-8.1896696 -32.6637 -966.46997
-7.7522402 -32.708302 -966.245
-7.31709 -32.719501 -966.07599
-6.86689 -32.706902 -966.00098
-6.3179898 -32.736 -965.09003
-4.9074898 -32.797199 -964.53802
-4.3836598 -32.816502 -964.56299
-3.85426 -32.815102 -964.11298
-3.3620801 -32.858101 -964.11499
-2.9210801 -32.9198 -964.005
-2.46368 -32.941601 -964.14001
-1.92715 -33.022499 -964.05798
-0.282783 -33.046001 -963.28497
0.255458 -33.004002 -963.23499
0.83187997 -33.019798 -963.604
2.32388 -33.110901 -963.315
2.7622499 -33.140301 -963.33301
3.2741399 -33.1422 -963.271
3.83371 -33.1833 -962.72198
4.3650999 -33.2108 -962.948
4.9232402 -33.254299 -963.02899
5.4728098 -33.264198 -962.742
6.0543199 -33.318401 -963.18903
7.09443 -33.349499 -962.78802
7.5481901 -33.373699 -962.849
8.0250797 -33.4034 -962.92102
8.5216398 -33.415798 -962.99799
9.11619 -33.4352 -962.414
10.2852 -33.500198 -962.62799
10.8628 -33.511398 -962.47803
11.4099 -33.554401 -962.62903
11.988 -33.584099 -962.927
12.496 -33.615299 -962.672
13.0057 -33.661499 -962.81403
13.4867 -33.6689 -962.93701
14.0367 -33.717701 -962.88702
14.5988 -33.747002 -963.01703
15.2128 -33.780399 -963.008
15.8353 -33.816002 -963.30902
16.4203 -33.8269 -963.172
17.023399 -33.884602 -963.521
18.6604 -33.9786 -963.72998
19.7498 -34.035099 -964.05499
20.397301 -34.0923 -964.133
21.0161 -34.129398 -964.27802
21.6584 -34.156399 -964.573
22.301901 -34.194199 -964.73499
22.930799 -34.239601 -965.02802
23.5669 -34.279499 -965.245
24.1388 -34.336399 -965.45398
24.667 -34.3358 -965.54199
25.231199 -34.402599 -965.70001
25.806499 -34.430698 -966.08698
27.135 -34.521 -966.513
27.8337 -34.5504 -966.61499
28.487499 -34.5905 -967.255
29.895201 -34.679401 -967.84302
30.4837 -34.726002 -968.42102
31.093 -34.799599 -968.81403
31.6859 -34.848598 -969.315
32.306999 -34.8526 -969.35303
33.051701 -34.9249 -969.94202
34.5182 -35.033798 -971.04602
35.264801 -35.057499 -971.08899
36.020302 -35.134602 -971.56097
36.7952 -35.207001 -972.23798
37.455898 -35.2915 -973.13898
38.122501 -35.344299 -973.65601
38.7981 -35.393799 -974.15503
-33.657799 -31.6991 -992.70599
-33.201199 -31.7236 -992.03003
-32.379299 -31.7057 -990.22101
-31.992201 -31.68 -989.31201
-31.177601 -31.668699 -987.60901
-30.809601 -31.660601 -986.86902
-30.4491 -31.658899 -986.17499
-30.1066 -31.6245 -985.41998
-29.7381 -31.630199 -984.80701
-29.273899 -31.6537 -984.17798
-28.813499 -31.664 -983.51898
-28.3836 -31.669701 -983.04199
-27.899099 -31.6616 -982.10602
-27.4827 -31.6465 -981.54498
-27.0651 -31.6539 -981.11401
-26.635599 -31.665199 -980.40198
-26.2603 -31.690701 -979.98401
-25.868 -31.6682 -979.50598
-25.4645 -31.681499 -979.07599
-25.0042 -31.6611 -978.49103
-24.5291 -31.687099 -977.901
-24.043301 -31.6763 -977.35699
-23.592899 -31.701599 -976.83398
-23.111401 -31.7148 -976.33801
-22.683399 -31.7166 -976.04401
-22.2293 -31.718201 -975.35699
-21.8302 -31.733 -975.03998
-21.4524 -31.741899 -974.867
-21.017099 -31.748199 -974.46899
-20.530399 -31.749901 -973.86798
-20.0555 -31.7645 -973.474
-19.589701 -31.778799 -972.88098
-19.1474 -31.7826 -972.19098
-18.1528 -31.819201 -971.83301
-17.686199 -31.832199 -971.60199
-17.287701 -31.861799 -971.44202
-16.8615 -31.861 -971.00098
-16.4226 -31.881599 -970.86798
-15.9287 -31.882099 -970.50598
-15.4281 -31.9095 -970.05701
-13.9316 -31.937901 -969.10797
-13.4513 -31.957701 -968.91998
-13.0122 -31.9853 -968.83698
-12.5869 -32.000999 -968.54999
-12.1688 -31.9918 -968.354
-11.7037 -32.0158 -967.92603
-11.1889 -32.024101 -967.552
-10.694 -32.0755 -967.46899
-10.1638 -32.0952 -967.08197
-9.1352797 -32.102299 -966.43903
-8.6237602 -32.117699 -966.20898
-7.7516298 -32.1521 -966.021
-7.3224401 -32.174999 -966.02698
-6.8636599 -32.1884 -965.83801
-6.33424 -32.2104 -965.39099
-5.4071598 -32.2313 -964.58899
-4.8757401 -32.2584 -964.30701
-3.8825901 -32.3078 -964.34198
-2.91732 -32.294899 -963.849
-1.36956 -32.321701 -962.97101
-0.79379803 -32.3979 -963.448
-0.27075601 -32.472198 -963.35602
0.81092298 -32.5201 -963.73499
1.34817 -32.515999 -962.927
1.8357 -32.5229 -963.112
2.31545 -32.5672 -962.95099
2.7565 -32.590199 -962.92401
3.25966 -32.6315 -962.92499
4.3702698 -32.685902 -963.06
4.9285898 -32.704498 -962.89697
5.47223 -32.711399 -962.422
6.0329399 -32.734402 -962.81201
6.5813198 -32.770401 -962.43402
7.08179 -32.805199 -962.409
8.5391302 -32.878899 -962.42102
9.6952896 -32.934399 -962.68903
10.2562 -32.973999 -962.54498
10.8289 -33.0135 -962.44501
11.4116 -33.038601 -962.54102
11.9886 -33.0718 -962.38098
12.5073 -33.111801 -962.43701
12.9943 -33.125999 -962.57397
15.1873 -33.239899 -962.96198
15.7983 -33.292 -963.09497
17.006201 -33.339401 -963.09003
17.610001 -33.362598 -963.26398
18.1549 -33.378899 -963.16498
18.6569 -33.428101 -963.78998
19.186701 -33.451302 -963.51599
19.7547 -33.517502 -963.71802
20.3522 -33.537899 -963.94702
22.916599 -33.706402 -964.62
23.540001 -33.750401 -965.021
24.1003 -33.7924 -965.35303
25.198799 -33.854801 -965.46301
26.435699 -33.933498 -966.362
27.105 -33.995098 -966.47699
27.8034 -34.017399 -966.67102
29.146099 -34.108799 -967.14697
30.4596 -34.186699 -967.96198
31.0562 -34.236401 -968.71399
32.285301 -34.3494 -969.026
32.973499 -34.405399 -969.93103
33.735699 -34.430401 -970.05701
36.714802 -34.665798 -972.12299
37.402802 -34.745399 -972.875
38.078499 -34.778999 -973.06702
38.753899 -34.845299 -974.065
39.4552 -34.903702 -974.422
-34.092098 -31.1821 -993.34399
-33.613899 -31.1602 -992.58301
-33.171299 -31.150499 -991.784
-32.778301 -31.1646 -990.95801
-32.0098 -31.123899 -989.25299
-31.5968 -31.130199 -988.42499
-30.157499 -31.111601 -984.84998
-28.8351 -31.1138 -983.22601
-28.3564 -31.1471 -982.724
-27.903099 -31.110701 -982.021
-27.486 -31.1262 -981.60303
-27.0495 -31.105101 -980.875
-26.630301 -31.1415 -980.29303
-26.252899 -31.1252 -979.84998
-25.8755 -31.1373 -979.508
-25.4737 -31.149401 -978.97601
-25.019699 -31.138399 -978.54498
-24.503401 -31.1562 -977.66498
-24.0401 -31.1546 -977.12097
-23.576401 -31.15 -976.63098
-23.1241 -31.187901 -976.27698
-22.672701 -31.181101 -975.896
-22.238199 -31.203899 -975.29401
-21.8573 -31.2143 -975.203
-21.455299 -31.190599 -974.74103
-21.019501 -31.216299 -974.21503
-20.531401 -31.196301 -973.77698
-20.053301 -31.2488 -973.33899
-19.591299 -31.2386 -972.80103
-18.6649 -31.252199 -971.93402
-18.1581 -31.2913 -971.63898
-17.6724 -31.282 -971.39203
-17.2864 -31.32 -971.31799
-16.8584 -31.3391 -970.94702
-16.414301 -31.3377 -970.61401
-15.9419 -31.3377 -970.396
-15.4226 -31.365299 -969.85199
-14.9349 -31.3722 -969.65698
-14.429 -31.400299 -969.26898
-13.4488 -31.446899 -968.80701
-12.9869 -31.4466 -968.34497
-12.5737 -31.4636 -968.138
-12.1648 -31.4877 -968.16199
-11.7199 -31.5077 -968.04102
-11.1913 -31.5224 -967.60797
-10.159 -31.5292 -966.90997
-9.6557903 -31.555 -966.789
-9.1612101 -31.556999 -966.56598
-8.6372299 -31.601999 -966.29602
-8.1710196 -31.6022 -965.94
-7.7494798 -31.623501 -965.87598
-7.3094001 -31.6413 -965.66498
-6.86022 -31.6535 -965.59802
-5.8411698 -31.706699 -964.84601
-5.36305 -31.7215 -964.46802
-2.8985701 -31.801701 -963.96899
-1.4431601 -31.845699 -963.73499
-0.80125201 -31.847099 -963.62598
-0.28390601 -31.913 -963.526
0.222776 -31.914 -963.30603
0.83671099 -31.971901 -963.62299
1.32935 -31.983801 -962.62701
1.81111 -32.031799 -963.03601
2.2837801 -32.055199 -963.02802
2.74368 -32.071201 -963
3.81481 -32.071301 -962.25098
4.3509698 -32.131401 -962.70099
4.89259 -32.146198 -962.66699
5.4599299 -32.184101 -962.38501
5.9896102 -32.226002 -962.763
6.5669198 -32.2425 -962.44202
7.0538101 -32.294498 -962.48499
7.5319099 -32.2897 -962.33801
8.0036802 -32.329498 -962.27802
8.5269003 -32.368599 -962.38
11.3831 -32.497501 -962.50598
11.9785 -32.523102 -962.263
12.4899 -32.545101 -962.31403
12.9735 -32.5956 -962.66498
13.4554 -32.626801 -962.66803
14.0036 -32.636398 -962.41901
14.5588 -32.656601 -962.57599
15.7999 -32.729599 -962.81403
16.4018 -32.748901 -962.888
16.982599 -32.805199 -963.04498
17.589899 -32.826 -963.40002
18.1373 -32.8699 -963.14697
18.637199 -32.908001 -963.43298
19.163601 -32.938801 -963.58698
19.7365 -32.962002 -963.435
20.9641 -33.0704 -964.28601
21.616699 -33.079201 -964.005
22.2505 -33.113201 -964.57501
22.8822 -33.163601 -964.52502
23.527 -33.1968 -965.02698
24.093201 -33.2327 -965.18597
24.630301 -33.276798 -965.41901
25.1745 -33.314999 -965.578
25.7721 -33.334801 -965.54401
26.4331 -33.396301 -966.06
27.100201 -33.430698 -966.47998
28.433701 -33.526699 -966.89502
29.133499 -33.565201 -967.02698
29.804001 -33.615601 -967.71698
30.4238 -33.643902 -967.75598
31.609501 -33.7342 -968.271
32.261299 -33.7556 -968.77002
32.981602 -33.8372 -969.453
34.427898 -33.9543 -970.37701
35.174 -33.9734 -970.65002
35.9063 -34.0742 -971.52698
36.663502 -34.063999 -971.91199
-33.597599 -30.620199 -992.86401
-33.183102 -30.600901 -991.96802
-32.397099 -30.598499 -989.96198
-31.573999 -30.576099 -988.22302
-31.1756 -30.596001 -987.40002
-30.806299 -30.577299 -986.33698
-30.5114 -30.5315 -985.534
-29.9104 -30.534401 -984.09198
-29.4076 -30.5534 -983.35999
-27.893999 -30.567499 -981.867
-27.459101 -30.5847 -981.125
-27.0406 -30.5993 -980.71503
-26.645399 -30.5931 -980.32397
-26.251101 -30.5993 -979.70001
-25.872101 -30.592899 -979.349
-25.4424 -30.5851 -978.74902
-25.0098 -30.620701 -978.37201
-24.5208 -30.6141 -977.63202
-24.0427 -30.6129 -977.06097
-23.599899 -30.6185 -976.65997
-22.675501 -30.636499 -975.77698
-22.243401 -30.6534 -975.18701
-21.8293 -30.6625 -974.70801
-21.4436 -30.6563 -974.45502
-20.990801 -30.692301 -973.80499
-20.542999 -30.702801 -973.828
-20.056101 -30.692301 -973.26801
-19.5942 -30.709299 -972.64697
-19.173201 -30.7087 -972.25201
-18.658199 -30.7248 -971.72498
-18.151199 -30.7248 -971.54303
-17.6926 -30.763 -971.23999
-17.269699 -30.758801 -970.94598
-16.8577 -30.7855 -970.81799
-16.408899 -30.8039 -970.42999
-15.9158 -30.7824 -969.94897
-15.4169 -30.812099 -969.72803
-14.9432 -30.8318 -969.40399
-14.4559 -30.8486 -969.289
-13.9366 -30.882601 -968.68701
-13.021 -30.930599 -968.414
-12.5887 -30.910601 -968.08002
-12.1522 -30.953501 -967.78003
-11.7018 -30.9443 -967.63702
-11.2055 -30.975 -967.49103
-10.1629 -31.007 -966.78497
-9.6527395 -31.0124 -966.58899
-9.1486301 -31.0476 -966.43597
-8.6698303 -31.0641 -966.41101
-8.1961002 -31.083401 -966.02301
-7.7448001 -31.081699 -965.64099
-7.3158498 -31.1024 -965.54999
-6.8544302 -31.1077 -965.41101
-6.3332701 -31.1311 -964.828
-5.8215399 -31.180401 -964.974
-5.30966 -31.1875 -964.58502
-4.30024 -31.2041 -964.51898
-3.7730401 -31.206699 -963.64801
-2.8601501 -31.255699 -963.80701
-2.4105501 -31.263901 -963.80402
-1.9118299 -31.295099 -963.85498
-1.37679 -31.297701 -963.12598
-0.82604802 -31.325701 -963.11902
-0.28403401 -31.364401 -963.16199
0.235238 -31.438 -963.21399
0.78891599 -31.442101 -963.32202
1.32481 -31.458 -962.72101
1.8018301 -31.483801 -962.91498
2.26125 -31.516399 -962.84003
2.7383499 -31.5557 -963.09003
3.23757 -31.555599 -962.85303
3.7751501 -31.5872 -962.677
4.32761 -31.615499 -962.51202
4.8895001 -31.6343 -962.38599
5.4419098 -31.653299 -962.44202
5.9788198 -31.6775 -962.39203
6.5357099 -31.719801 -962.32202
7.0486898 -31.7423 -962.23798
7.5285501 -31.766199 -962.23102
7.9955401 -31.7887 -962.38
9.0832796 -31.834101 -962.25598
9.6426497 -31.888599 -962.33502
10.2301 -31.8922 -962.034
10.7995 -31.9445 -962.21997
11.3896 -31.952999 -962.06299
11.9608 -32.000801 -962.19098
12.4776 -32.010399 -962.29498
12.9453 -32.0331 -962.36102
13.9711 -32.0975 -962.53101
14.5734 -32.124599 -962.37598
15.1726 -32.158901 -962.60699
15.7786 -32.191898 -962.79401
16.380501 -32.246899 -962.966
16.9725 -32.275501 -963.06201
17.5744 -32.2873 -962.95203
18.1175 -32.321301 -963.159
18.629601 -32.362 -963.37598
19.1565 -32.372501 -963.237
20.3109 -32.459599 -963.54401
20.958599 -32.5172 -964.09198
21.588301 -32.5424 -963.95001
23.508801 -32.657398 -964.34302
24.0543 -32.703499 -964.84698
24.606701 -32.722698 -965.13098
25.1437 -32.765999 -965.26599
26.3923 -32.844799 -965.74701
27.0755 -32.880501 -966.052
27.7428 -32.951401 -966.57599
28.4498 -32.9683 -966.85699
29.115999 -32.994999 -966.80902
29.789801 -33.095798 -967.53497
30.3979 -33.106201 -967.87201
30.9835 -33.171001 -968.25403
31.5835 -33.198299 -968.38898
32.9515 -33.269402 -968.85498
33.676102 -33.334099 -969.836
34.405499 -33.397202 -970.164
35.152302 -33.420101 -970.146
35.884602 -33.517601 -971.30499
37.352501 -33.6203 -972.75299
38.025398 -33.6712 -972.77899
38.693901 -33.737801 -973.539
-34.450401 -30.1106 -993.99597
-32.001301 -30.0842 -989.05402
-31.5804 -30.076799 -988.04498
-31.1796 -30.0567 -987.25403
-30.502399 -30.027 -984.91699
-29.910601 -29.990999 -983.51099
-29.431 -30.0203 -982.896
-28.4272 -30.038401 -982.297
-27.903601 -30.022699 -981.79498
-27.4615 -30.070101 -981.17999
-27.0277 -30.057301 -980.57098
-26.6262 -30.0606 -979.98602
-26.2661 -30.075199 -979.62
-25.8503 -30.0539 -979.09497
-25.4552 -30.070101 -978.66602
-24.9965 -30.103701 -978.065
-24.061199 -30.102501 -977.13599
-23.5867 -30.1134 -976.49103
-23.134399 -30.1238 -976.005
-22.679399 -30.1106 -975.61401
-22.2591 -30.1399 -975.36499
-21.851 -30.139299 -974.93597
-21.4681 -30.1488 -974.68597
-21.021999 -30.1826 -974.13898
-20.5268 -30.142401 -973.51801
-20.062401 -30.185499 -973.14801
-19.616899 -30.1996 -972.55701
-19.1647 -30.1971 -972.05701
-18.675501 -30.2148 -971.82599
-18.1485 -30.2544 -971.32599
-17.7075 -30.2502 -971.31799
-17.274599 -30.263599 -970.88202
-16.871599 -30.256399 -970.73798
-16.440001 -30.296 -970.565
-15.9398 -30.2889 -970.12402
-15.4292 -30.3067 -969.67603
-14.9351 -30.334499 -969.35498
-14.4358 -30.341499 -969.12097
-13.9388 -30.378901 -968.81598
-13.4424 -30.383301 -968.45502
-12.9997 -30.394699 -968.26703
-12.5787 -30.4062 -967.97803
-12.1672 -30.437099 -967.82599
-11.7038 -30.450199 -967.61401
-11.2074 -30.4676 -967.53198
-10.6782 -30.494499 -966.88702
-10.1743 -30.4928 -966.745
-9.6616497 -30.527201 -966.61499
-9.1632099 -30.537201 -966.48401
-8.17976 -30.591801 -965.66101
-7.7402802 -30.5735 -965.51501
-7.3125901 -30.5937 -965.47498
-6.8554301 -30.621201 -965.16901
-6.3557501 -30.6471 -965.25
-5.2817502 -30.669901 -964.56403
-4.7923498 -30.6744 -964.24402
-3.7762699 -30.7136 -963.854
-3.3053601 -30.744801 -963.79303
-2.8577199 -30.7721 -963.57001
-2.4114101 -30.771 -963.362
-1.93501 -30.8207 -963.64001
-1.38446 -30.8316 -963.08899
-0.86112201 -30.842199 -963.146
-0.32060999 -30.873301 -963.08099
0.23921999 -30.896099 -962.70599
0.78304899 -30.940001 -963.15802
1.31401 -30.971001 -962.83698
1.79758 -31.011101 -962.633
2.23791 -31.0429 -962.92297
2.7344601 -31.032301 -962.75299
3.75735 -31.0781 -962.33801
4.3292499 -31.1159 -962.30798
4.8872099 -31.129 -962.302
5.4366298 -31.169001 -962.25201
5.97998 -31.181499 -962.24701
6.5433898 -31.2421 -962.26898
7.03582 -31.2514 -962.28302
7.5065398 -31.270599 -962.19501
7.9953399 -31.2903 -962.06702
8.4885902 -31.295799 -962.36902
9.0629597 -31.343901 -961.96698
9.6194601 -31.3479 -962.07501
10.2094 -31.373501 -962.08301
11.3681 -31.4751 -962.39001
11.9399 -31.4807 -962.203
12.4434 -31.5133 -962.13202
12.9198 -31.5361 -962.23199
13.9644 -31.604601 -962.38898
14.5553 -31.610201 -962.09601
15.1582 -31.659901 -962.39899
15.768 -31.6919 -962.59998
16.3592 -31.7286 -962.492
16.9694 -31.747499 -962.77502
17.5686 -31.793699 -962.62097
18.100401 -31.828699 -962.953
18.617399 -31.8526 -963.21997
19.118601 -31.888201 -963.44098
20.2941 -31.963301 -963.46002
20.942801 -31.996901 -963.87598
21.591801 -32.022701 -963.87701
22.2099 -32.092899 -963.94202
22.8484 -32.092602 -964.18103
23.4723 -32.143799 -964.69702
24.038 -32.158298 -964.74902
24.581301 -32.2243 -964.85999
25.133101 -32.239799 -964.99597
25.710199 -32.302799 -965.31799
27.0298 -32.354698 -965.79102
27.707899 -32.419899 -966.224
28.381001 -32.460899 -966.401
29.0903 -32.488602 -966.79303
29.747299 -32.540001 -967.34399
30.3792 -32.6106 -967.65198
30.9797 -32.627899 -967.69897
31.570601 -32.709 -968.466
32.209599 -32.727001 -968.95502
33.652599 -32.8274 -969.39801
34.383499 -32.862999 -969.57202
35.868099 -32.9949 -970.63501
36.634201 -33.018799 -971.40698
37.394501 -33.0844 -972.68402
-32.800499 -29.562599 -990.789
-31.593201 -29.5172 -988.04401
-31.1824 -29.5226 -987.20398
-30.784901 -29.482201 -985.896
-29.938499 -29.4573 -983.37799
-29.5026 -29.453199 -982.901
-28.982901 -29.4713 -982.07703
-28.48 -29.473 -981.74103
-27.004499 -29.5145 -980.302
-26.616501 -29.533001 -979.79199
-26.235901 -29.541 -979.34802
-25.844 -29.552099 -978.84998
-25.4429 -29.545401 -978.45599
-24.9988 -29.560301 -977.90198
-24.527 -29.561399 -977.48602
-24.0429 -29.570801 -976.92102
-23.6015 -29.5797 -976.526
-23.134399 -29.6078 -976.008
-22.248699 -29.6143 -975.04999
-21.0082 -29.653 -973.90002
-20.541901 -29.6635 -973.612
-20.069201 -29.659201 -973.07202
-19.616699 -29.6464 -972.47601
-19.1703 -29.6665 -972.00702
-18.140301 -29.7115 -971.19
-17.684999 -29.710199 -971.047
-17.27 -29.739401 -970.771
-16.429501 -29.7792 -970.23401
-15.9398 -29.777599 -969.99701
-15.4216 -29.789 -969.49298
-14.9423 -29.7969 -969.30798
-14.4413 -29.833099 -968.97498
-13.4499 -29.850599 -968.41998
-13 -29.867399 -968.12701
-12.5928 -29.890499 -968.00098
-12.1578 -29.912701 -967.59399
-11.7094 -29.8979 -967.33099
-11.187 -29.947399 -967.09198
-10.674 -29.9559 -966.85199
-10.159 -29.970699 -966.52899
-9.6601295 -29.9867 -966.44598
-9.1549997 -30.011299 -966.15302
-8.1936903 -30.0616 -965.69897
-7.7467699 -30.070601 -965.47101
-7.3238502 -30.101299 -965.39301
-6.8474598 -30.096399 -965.00598
-5.8248401 -30.1527 -965.30402
-5.2958498 -30.162201 -964.505
-4.8088198 -30.1689 -964.25098
-4.2999301 -30.171301 -963.99103
-3.7951801 -30.2061 -963.73901
-3.3295 -30.224701 -963.64203
-2.8801 -30.247 -963.54999
-2.42084 -30.272499 -963.43701
-1.9519399 -30.301001 -963.59198
-1.40816 -30.318399 -962.90997
-0.86352801 -30.3515 -963.06201
-0.32832599 -30.3958 -963.11298
0.232007 -30.3678 -962.42603
0.75192398 -30.4226 -962.86499
1.30319 -30.4554 -962.49103
