# .PCD v0.7 - Point Cloud Data file format
VERSION 0.7
FIELDS x y z
SIZE 4 4 4
TYPE F F F
COUNT 1 1 1
WIDTH 1624
HEIGHT 1
VIEWPOINT 0 0 0 1 0 0 0
POINTS 1624
DATA ascii
-35.933998 -11.5581 -1014.59
-35.862801 -11.7636 -1014.03
-35.811001 -12.2125 -1012.87
-36.226601 -12.494 -1011.51
-36.431198 -12.7231 -1010.52
-36.561798 -13.2685 -1008.8
-36.679298 -13.5694 -1007.75
-36.844501 -13.8346 -1006.8
-36.865398 -13.9893 -1006.22
-36.9907 -14.2829 -1005.2
-36.947601 -14.5134 -1004.6
-36.953499 -14.717 -1004.04
-36.909401 -14.9553 -1003.4
-37.055698 -15.1791 -1002.47
-36.974201 -15.4229 -1001.86
-36.9277 -15.608 -1001.3
-36.887501 -15.8146 -1000.73
-36.778702 -16.412201 -999.065
-36.717499 -16.608299 -998.487
-36.626801 -16.8778 -997.862
-36.586498 -17.2458 -996.76001
-36.678501 -17.374701 -996.28198
-36.708199 -17.5788 -995.66498
-36.6991 -17.807699 -995.05902
-36.734901 -17.959999 -994.578
-33.9529 -20.997101 -988.44598
-5.2625098 -11.1717 -1048.78
-8.73456 -9.9204998 -1046.92
-9.3885498 -9.8179302 -1046.5
-10.2917 -9.5429697 -1046.35
-10.8132 -9.5392199 -1045.8199
-11.5162 -9.4099703 -1045.47
-12.1237 -9.3509197 -1045.02
-12.6452 -9.3236103 -1044.51
-13.1764 -9.3380404 -1044.0699
-13.948 -9.0773602 -1043.89
-14.6522 -8.8855896 -1043.62
-15.3606 -8.6918602 -1043.37
-15.8209 -8.7139902 -1042.85
-16.384501 -8.6385803 -1042.47
-16.8179 -8.7378197 -1041.88
-17.325399 -8.6587496 -1041.46
-18.049801 -8.4642897 -1041.29
-18.4601 -8.46735 -1040.77
-18.962099 -8.42239 -1040.41
-19.377399 -8.4576101 -1039.9399
-19.8466 -8.4094801 -1039.55
-20.463301 -8.2383099 -1039.3101
-20.730101 -8.3810101 -1038.66
-21.1299 -8.4096403 -1038.21
-21.727699 -8.2780199 -1037.9301
-22.2215 -8.2087097 -1037.5601
-22.6782 -8.1864901 -1037.15
-23.0299 -8.2272596 -1036.64
-23.4156 -8.2565899 -1036.23
-23.7764 -8.2661104 -1035.78
-24.202999 -8.2256498 -1035.39
-24.606501 -8.2074003 -1034.99
-24.9067 -8.2987404 -1034.46
-25.4578 -8.1511202 -1034.24
-25.824301 -8.1645203 -1033.78
-26.072399 -8.2788696 -1033.21
-26.2693 -8.4557199 -1032.6
-26.688999 -8.4184904 -1032.23
-26.9266 -8.4761 -1031.71
-27.480801 -8.3383503 -1031.51
-27.638201 -8.51828 -1030.9
-27.9977 -8.5225201 -1030.51
-28.4991 -8.7048597 -1029.4399
-29.250601 -8.3650198 -1029.42
-29.311899 -8.6753798 -1028.58
-29.917999 -8.54599 -1028.3101
-30.4126 -8.48419 -1027.95
-30.7759 -8.5029602 -1027.55
-31.1432 -8.5039997 -1027.13
-31.3076 -8.6186199 -1026.6
-31.6429 -8.6278095 -1026.2
-31.9823 -8.6528597 -1025.83
-32.552399 -8.6786804 -1024.97
-32.668098 -8.8950195 -1024.33
-33.0159 -8.87537 -1023.96
-33.216202 -8.9616098 -1023.45
-33.4506 -9.0609102 -1022.98
-33.488201 -9.2755404 -1022.33
-33.679901 -9.3829002 -1021.83
-34.347401 -9.3453398 -1021.14
-34.601299 -9.3462801 -1020.73
-34.734901 -9.5075102 -1020.16
-34.954899 -9.6105003 -1019.71
-35.085098 -9.7611704 -1019.13
-35.3372 -9.78372 -1018.74
-35.213902 -9.5160799 -1017.92
-35.6269 -10.0203 -1017.74
-35.4496 -9.7632399 -1016.89
-35.783401 -10.3142 -1016.66
-35.941601 -10.6087 -1015.61
-35.990799 -11.1962 -1013.64
-35.782799 -11.6024 -1012.77
-35.9669 -11.8731 -1011.78
-36.280998 -12.2298 -1010.27
-36.355301 -12.6364 -1009.12
-36.547199 -12.6933 -1008.72
-36.830299 -13.8089 -1004.96
-36.9701 -14.0879 -1003.96
-36.947498 -14.2913 -1003.36
-36.7314 -15.6836 -999.45801
-36.7281 -15.8321 -998.94397
-36.631599 -16.072901 -998.328
-36.610298 -16.2721 -997.76202
-36.638699 -16.6043 -996.65399
-36.846901 -16.6439 -996.27399
-36.774899 -16.967699 -995.58099
-36.775299 -17.1625 -994.98999
-36.817902 -17.288799 -994.51202
-33.131901 -20.703899 -986.32001
-5.29285 -10.5633 -1048.6801
-9.4074097 -9.2027302 -1046.4399
-10.046 -9.1184702 -1046.04
-12.0352 -8.8243399 -1044.85
-12.7936 -8.6019897 -1044.58
-13.3519 -8.5513296 -1044.17
-13.8939 -8.4901104 -1043.74
-14.5288 -8.38202 -1043.4399
-14.9763 -8.4277601 -1042.89
-15.6427 -8.2788401 -1042.6
-16.357 -8.0517302 -1042.39
-16.873199 -8.1026897 -1041.84
-17.412201 -7.99545 -1041.48
-17.953699 -7.9188199 -1041.11
-18.42 -7.9022799 -1040.66
-18.9431 -7.81638 -1040.33
-19.2862 -7.9151301 -1039.78
-19.9014 -7.7476501 -1039.55
-20.247601 -7.8230901 -1038.99
-20.724199 -7.7648301 -1038.61
-21.023399 -7.8668799 -1038.03
-21.5196 -7.8431101 -1037.65
-22.1106 -7.6762099 -1037.38
-22.523001 -7.6888099 -1036.91
-22.973499 -7.6701002 -1036.53
-23.3869 -7.6287198 -1036.13
-23.7001 -7.72366 -1035.61
-24.162701 -7.6454501 -1035.3101
-24.524 -7.6545701 -1034.85
-24.8186 -7.7688599 -1034.3101
-25.2068 -7.7334299 -1033.9
-25.6397 -7.71732 -1033.51
-25.907301 -7.7994399 -1032.97
-26.2953 -7.8073101 -1032.55
-26.717699 -7.7378502 -1032.21
-26.9781 -7.86063 -1031.7
-27.5674 -7.9555702 -1030.75
-28.6992 -7.94067 -1029.53
-29.2551 -7.8235202 -1029.2
-29.7153 -7.8329802 -1028.77
-30.152901 -7.80161 -1028.34
-30.493799 -7.8564501 -1027.88
-30.741301 -7.94418 -1027.4
-31.0536 -7.9796801 -1026.98
-31.370399 -7.97018 -1026.59
-31.697901 -7.9745498 -1026.2
-31.830099 -8.1296701 -1025.61
-31.9949 -8.3194304 -1024.99
-32.3806 -8.2228403 -1024.6899
-32.5961 -8.3380404 -1024.1899
-32.837601 -8.4343596 -1023.71
-33.1063 -8.4589195 -1023.3
-33.440498 -8.4331398 -1022.94
-33.860298 -8.5879803 -1021.98
-34.418201 -8.8890696 -1020.48
-34.588501 -9.0151396 -1019.97
-34.860802 -9.3323097 -1018.85
-35.166901 -9.3161001 -1018.52
-35.909901 -9.7746601 -1016.16
-35.691299 -10.4751 -1014.35
-35.8055 -10.7507 -1013.38
-35.939899 -11.295 -1011.69
-35.9725 -11.4935 -1011.12
-36.339401 -12.0113 -1009.03
-36.468601 -12.108 -1008.58
-36.522301 -12.2634 -1008.02
-36.508202 -12.4953 -1007.43
-36.7701 -12.651 -1006.57
-36.8008 -12.8503 -1006.03
-36.730202 -12.7647 -1004.73
-36.8465 -13.6023 -1003.76
-36.985802 -13.6467 -1003.35
-36.896198 -14.077 -1002.17
-36.915001 -14.419 -1001.16
-36.827599 -14.6537 -1000.52
-36.680801 -15.12 -999.33899
-36.653599 -15.2953 -998.80103
-36.633499 -15.6582 -997.70898
-36.697102 -16.004299 -996.55798
-36.8647 -16.261101 -995.59003
-36.8116 -16.6971 -994.39301
-36.780201 -16.858999 -993.86499
-4.5385699 -9.6134005 -1048.8
-9.3891602 -8.7009001 -1046.29
-9.9356098 -8.6456604 -1045.86
-10.7883 -8.9554396 -1045.71
-11.359 -8.3560801 -1045.2
-12.0148 -8.2660799 -1044.8101
-13.6315 -8.1539602 -1043.4
-14.3451 -7.9559598 -1043.1899
-15.0628 -7.7968798 -1042.9399
-15.484 -7.8085599 -1042.39
-16.0613 -7.7379198 -1042.02
-16.7614 -7.6149302 -1041.6801
-17.3505 -7.5019498 -1041.33
-17.853001 -7.4545298 -1040.91
-18.380899 -7.3978601 -1040.52
-18.9258 -7.2836599 -1040.22
-19.3146 -7.3445702 -1039.74
-19.643 -7.4024401 -1039.22
-20.162001 -7.31036 -1038.85
-20.466999 -7.4195299 -1038.28
-21.097 -7.2658701 -1038.03
-21.718901 -7.08603 -1037.8
-22.049999 -7.1729102 -1037.27
-22.299299 -7.3517199 -1036.63
-22.780001 -7.2702899 -1036.26
-23.3566 -7.1088901 -1036.05
-23.7421 -7.1174898 -1035.64
-24.066299 -7.16748 -1035.15
-24.423201 -7.19556 -1034.6801
-24.7798 -7.2167101 -1034.2
-25.062599 -7.3190298 -1033.67
-25.855 -7.2796302 -1032.89
-26.2621 -7.28613 -1032.46
-26.602501 -7.31284 -1032.03
-26.894699 -7.3594699 -1031.5699
-27.889299 -7.4777498 -1030.27
-28.782301 -7.37393 -1029.46
-29.3701 -7.3166199 -1029.08
-29.8906 -7.2241802 -1028.79
-29.958799 -7.4827299 -1028.01
-30.5305 -7.3011198 -1027.84
-30.6299 -7.48737 -1027.21
-30.998301 -7.4517498 -1026.88
-31.3032 -7.49335 -1026.45
-31.5506 -7.5563402 -1025.99
-31.7952 -7.6129498 -1025.52
-31.9445 -7.7642498 -1024.92
-32.5886 -7.8085899 -1024.12
-32.771099 -7.91113 -1023.57
-33.186901 -8.1073599 -1022.6
-33.527401 -8.09869 -1022.27
-33.7766 -8.1041002 -1021.86
-34.0993 -8.3611803 -1020.8
-34.369301 -8.4049997 -1020.42
-34.332901 -8.9459496 -1019
-34.697498 -8.8804598 -1018.71
-34.999699 -9.09729 -1017.68
-35.326 -9.2741699 -1016.76
-35.626598 -9.2432604 -1016.46
-35.6964 -9.6232004 -1015.31
-35.555698 -10.1941 -1013.65
-35.850601 -10.5891 -1012.15
-36.175999 -11.1833 -1010.06
-36.557701 -11.8963 -1007.44
-36.595299 -11.9387 -1005.7
-36.858898 -13.0054 -1003.73
-36.9515 -13.1169 -1003.26
-36.713001 -13.1676 -1001.86
-36.838001 -13.9145 -1001
-36.699501 -14.5289 -999.315
-36.5275 -15.03 -998.07703
-36.594101 -14.6028 -997.54199
-36.736 -15.2942 -995.32501
-36.824699 -15.9554 -994.88
-9.2703199 -8.2466097 -1046.08
-9.8891602 -8.1029396 -1045.73
-10.5668 -8.0393696 -1045.41
-11.2115 -7.8923602 -1044.97
-11.9663 -7.7575402 -1044.7
-12.4841 -7.76828 -1044.1801
-13.3415 -7.4430499 -1044.0699
-13.8137 -7.4615502 -1043.55
-14.2194 -7.5125699 -1042.99
-15.5101 -7.2624202 -1042.34
-16.1852 -7.0963101 -1042.09
-16.7826 -7.0416298 -1041.6
-18.7423 -6.9342999 -1039.9399
-20.1026 -6.82584 -1038.75
-20.560101 -6.8087201 -1038.3199
-21.069799 -6.7154498 -1037.96
-21.405001 -6.8196998 -1037.42
-21.9669 -6.6957102 -1037.14
-22.2178 -6.8636799 -1036.49
-22.6779 -6.82446 -1036.12
-23.534401 -6.7341599 -1035.36
-23.7589 -6.87396 -1034.79
-24.231899 -6.81387 -1034.4399
-24.931 -6.9009099 -1033.5
-25.4785 -6.70963 -1033.25
-25.898001 -6.70502 -1032.86
-26.135599 -6.8453102 -1032.29
-26.5723 -6.7821398 -1031.9399
-26.809 -6.9031401 -1031.4
-27.347 -7.0855098 -1030.4
-27.9116 -6.8968801 -1030.1899
-28.312401 -6.9028602 -1029.7
-29.1273 -6.6368098 -1029.62
-29.386299 -6.8001699 -1028.95
-29.843599 -6.75137 -1028.64
-30.0193 -6.9140601 -1028
-30.725401 -6.8749099 -1027.25
-31.008301 -6.8912401 -1026.88
-31.324699 -6.9723501 -1026.41
-31.4321 -7.1350999 -1025.8
-31.632299 -7.23633 -1025.29
-32.131199 -7.0701299 -1025.09
-32.298599 -7.1887798 -1024.53
-32.190701 -7.6139798 -1023.61
-32.932701 -7.5244799 -1022.99
-33.0756 -7.6799898 -1022.43
-33.520599 -7.5297198 -1022.22
-34.111301 -8.0408897 -1020.14
-34.285099 -8.3938599 -1018.94
-34.735001 -8.2475004 -1018.77
-34.9953 -8.5051603 -1017.68
-35.235001 -8.7745104 -1016.65
-35.5275 -9.2064199 -1015.14
-35.372601 -9.8213196 -1013.43
-35.526798 -10.1181 -1012.35
-35.8251 -10.2907 -1011.49
-35.891399 -10.458 -1010.94
-36.141701 -10.6509 -1009.98
-36.280499 -10.9698 -1008.88
-36.365002 -11.112 -1008.37
-36.436798 -11.4517 -1007.27
-36.521198 -11.8022 -1006.19
-36.6045 -11.7774 -1004.5
-36.8307 -12.5076 -1003.66
-36.821499 -12.6947 -1003.06
-36.792702 -12.9033 -1002.48
-36.6567 -13.2021 -1000.19
-36.603901 -14.0889 -999.16199
-36.4781 -14.5202 -997.95599
-36.637199 -15.0019 -996.32098
-36.591202 -15.4099 -993.50299
-33.584801 -19.0825 -987.40997
-4.7506099 -8.9443703 -1048.85
-9.3369799 -7.6714802 -1046.08
-9.8635902 -7.6194501 -1045.66
-10.619 -7.4324999 -1045.36
-11.1232 -7.4647498 -1044.84
-11.7101 -7.4137001 -1044.37
-12.52 -7.1724501 -1044.16
-13.0536 -7.1441002 -1043.73
-13.7325 -6.9990802 -1043.42
-16.811399 -6.5482502 -1041.49
-17.410999 -6.5313401 -1041.01
-18.171101 -6.3036499 -1040.8
-18.4863 -6.3882799 -1040.27
-18.8375 -6.3442998 -1039.89
-19.329599 -6.2558599 -1039.62
-19.4438 -6.4939899 -1038.9
-20.123199 -6.29776 -1038.72
-20.268 -6.5454102 -1037.97
-21.078899 -6.1991301 -1037.9399
-21.3298 -6.3615098 -1037.3101
-21.957899 -6.1615901 -1037.0699
-22.3046 -6.2649498 -1036.5601
-22.563999 -6.3852801 -1035.95
-23.2054 -6.1839299 -1035.78
-23.532301 -6.22153 -1035.3101
-23.853399 -6.2697802 -1034.8199
-24.2376 -6.27179 -1034.38
-24.7402 -6.1936002 -1034.0699
-25.0618 -6.2430701 -1033.62
-25.422701 -6.26547 -1033.16
-25.668301 -6.3738999 -1032.61
-25.983999 -6.4449501 -1032.09
-26.4419 -6.38446 -1031.78
-26.600901 -6.55722 -1031.15
-27.4282 -6.4789701 -1030.4
-27.9331 -6.3971901 -1030.08
-28.604401 -6.2186599 -1029.8199
-29.034201 -6.2691998 -1029.34
-29.4109 -6.2754502 -1028.89
-29.785299 -6.2750201 -1028.48
-30.1005 -6.3127699 -1028.02
-30.2563 -6.4788198 -1027.42
-30.625601 -6.44522 -1027.12
-31.333599 -6.6990399 -1025.67
-31.696899 -6.6543899 -1025.3199
-32.2164 -6.7947402 -1024.37
-32.704102 -6.9272199 -1023.42
-32.9053 -7.26193 -1022.24
-33.374001 -7.4029198 -1021.37
-33.5784 -7.45786 -1020.9
-34.015301 -7.5778499 -1020.04
-34.327702 -7.8064299 -1019
-34.680599 -7.7431302 -1018.7
-35.148201 -9.2853098 -1013.74
-35.267502 -9.3791199 -1013.25
-35.5797 -9.5528297 -1012.39
-35.787102 -9.80725 -1011.39
-35.878899 -9.9425697 -1010.88
-36.062901 -10.199 -1009.84
-36.259399 -10.4742 -1008.82
-36.455299 -10.5196 -1008.41
-36.496899 -10.8909 -1007.28
-36.552601 -11.2418 -1006.18
-36.733299 -12.2565 -1002.93
-36.708698 -12.9719 -1000.77
-36.578899 -13.5779 -999.08801
-36.417198 -14.0395 -997.84302
-36.550201 -14.6833 -993.96899
-36.474499 -14.9067 -993.36102
-36.400398 -15.8496 -992.34399
-3.6895101 -8.1764202 -1048.9
-8.1190205 -7.2951398 -1046.8
-8.6037598 -7.3003502 -1046.29
-9.8366699 -7.0675702 -1045.59
-10.4243 -7.0230398 -1045.12
-11.2068 -6.8401799 -1044.87
-11.884 -6.7211599 -1044.49
-12.5057 -6.6348 -1044.1
-12.9623 -6.6802702 -1043.5699
-17.548599 -5.9204702 -1041
-18.235399 -5.7508898 -1040.75
-18.8573 -5.8370099 -1039.77
-19.1339 -5.8983798 -1039.34
-19.502501 -5.9247398 -1038.91
-20.0089 -5.8512602 -1038.54
-20.391899 -5.8682599 -1038.0601
-21.4025 -5.76089 -1037.3101
-21.754999 -5.79532 -1036.83
-22.132601 -5.8403301 -1036.3199
-22.653099 -5.75668 -1036
-23.0986 -5.7160902 -1035.65
-23.5949 -5.6195998 -1035.3199
-23.986099 -5.61093 -1034.92
-24.2505 -5.7114301 -1034.37
-24.577299 -5.7758498 -1033.86
-24.8813 -5.8390198 -1033.36
-25.368999 -5.7726698 -1033.03
-25.674999 -5.83075 -1032.55
-25.9578 -5.94244 -1032.03
-26.4142 -5.8419499 -1031.71
-26.6896 -5.93787 -1031.16
-27.1133 -5.8884602 -1030.84
-27.613501 -5.8084102 -1030.5
-28.0933 -5.81564 -1030.02
-28.6066 -5.7565298 -1029.63
-29.113701 -5.6740098 -1029.3199
-29.509001 -5.6405602 -1028.9301
-29.7134 -5.78052 -1028.36
-29.936399 -5.8972502 -1027.79
-30.756001 -5.9240699 -1026.7
-31.7377 -6.0613999 -1025.38
-31.710199 -6.4186401 -1024.5
-32.171902 -6.56635 -1023.54
-32.652302 -6.4053602 -1023.35
-32.792 -6.7924199 -1022.13
-33.112999 -7.0212402 -1021.11
-33.494598 -6.9465899 -1020.85
-33.743401 -7.2641001 -1019.72
-34.286098 -7.2944002 -1018.94
-34.4608 -7.38486 -1018.42
-34.745201 -7.6362 -1017.41
-35.109402 -8.7627296 -1013.67
-35.280899 -8.8125896 -1013.25
-35.3904 -8.9557505 -1012.74
-35.568901 -9.0147104 -1012.33
-35.708401 -9.3099403 -1011.26
-35.825298 -9.4336205 -1010.77
-36.032299 -9.7033701 -1009.77
-36.431801 -10.3889 -1007.15
-36.542198 -10.9191 -1005.56
-36.476299 -10.7677 -1004.24
-36.586899 -11.6409 -1003.28
-36.652199 -11.7841 -1002.78
-36.6227 -12.5285 -1000.61
-36.544102 -12.7617 -1000.01
-36.5397 -12.908 -999.49597
-36.5467 -13.0557 -998.99103
-36.698502 -13.046 -996.896
-36.602299 -14.3085 -995.112
-36.5583 -14.5314 -994.51501
-7.7266202 -7.00278 -1046.39
-9.21735 -6.5665598 -1045.92
-9.78864 -6.5053701 -1045.49
-10.3242 -6.55826 -1044.95
-11.0338 -6.3622699 -1044.64
-12.53 -6.0202899 -1044.08
-12.924 -6.1013799 -1043.5
-17.1556 -5.2726102 -1041.48
-17.7001 -5.2459402 -1041.02
-18.2477 -5.1539001 -1040.64
-18.619301 -5.2157302 -1040.16
-18.8764 -5.2993498 -1039.6801
-19.491699 -5.34589 -1038.8101
-20.117701 -5.1750798 -1038.59
-20.437901 -5.2623301 -1038.0601
-20.916599 -5.21384 -1037.65
-21.435499 -5.1459398 -1037.3101
-21.7509 -5.2060499 -1036.77
-22.184999 -5.2233 -1036.3101
-22.664101 -5.15555 -1035.95
-22.944599 -5.2276301 -1035.4301
-23.323099 -5.2518601 -1034.99
-23.8281 -5.15839 -1034.7
-24.177401 -5.1989102 -1034.25
-24.4937 -5.2673602 -1033.74
-24.823 -5.3140602 -1033.24
-25.4373 -5.1048899 -1033.0601
-25.622499 -5.2871399 -1032.4301
-25.9338 -5.36304 -1031.9399
-26.342899 -5.3450899 -1031.5699
-26.541 -5.4795198 -1030.96
-27.369101 -5.0531001 -1031.02
-27.820601 -5.07797 -1030.54
-28.3682 -5.06882 -1030.15
-28.489599 -5.3304701 -1029.38
-29.0881 -5.1433401 -1029.2
-29.446899 -5.1338501 -1028.79
-29.6898 -5.2494798 -1028.27
-29.982901 -5.29773 -1027.78
-30.4767 -5.5665302 -1026.46
-31.6548 -5.81464 -1024.52
-32.039902 -6.07687 -1023.39
-32.379002 -5.9915199 -1023.08
-32.672199 -6.27914 -1022.01
-33.0471 -6.4740901 -1021.02
-33.263901 -6.5379901 -1020.57
-33.907101 -6.5198398 -1019.88
-34.3582 -6.8829002 -1018.31
-34.690899 -7.0755301 -1017.37
-34.7892 -7.4196501 -1016.27
-34.947102 -7.4819002 -1015.84
-34.969501 -7.9303298 -1014.55
-35.233799 -8.25488 -1013.16
-35.4776 -8.2849998 -1012.78
-35.464901 -8.5236797 -1012.16
-35.7243 -8.73734 -1011.23
-35.6768 -8.9877596 -1010.57
-36.042702 -9.1057396 -1009.71
-36.0826 -9.5071402 -1008.53
-36.166199 -9.64676 -1008
-36.314499 -9.9078398 -1006.99
-36.408501 -10.2533 -1005.92
-36.4496 -10.4096 -1005.4
-36.542 -11.113 -1003.18
-36.525002 -10.7472 -1002.55
-36.6465 -11.5529 -1001.63
-36.400501 -12.0251 -998.71002
-36.2659 -13.0482 -997.59698
-36.325901 -12.5544 -997.07397
-36.419498 -12.9641 -995.86902
-36.445599 -13.7134 -995.38501
-36.278599 -13.8915 -993.15601
-33.1973 -17.244699 -986.39398
-31.763399 -18.7309 -983.16199
-4.2161899 -7.0219698 -1048.16
-5.0636601 -6.78473 -1047.88
-5.8361201 -7.1707501 -1047.7
-6.4868798 -6.5153499 -1047.23
-7.0203199 -6.5647898 -1046.66
-7.6426401 -6.45819 -1046.3101
-8.3997803 -6.2492399 -1046.0699
-8.7819204 -6.3273602 -1045.47
-9.4870005 -6.1845398 -1045.1801
-10.4216 -5.83603 -1045.02
-11.5715 -5.76581 -1044.11
-12.3444 -5.58459 -1043.8199
-13.0331 -5.42557 -1043.5699
-16.944201 -4.9032302 -1041.17
-17.6329 -4.7428002 -1040.87
-18.2047 -4.6332998 -1040.52
-18.438499 -4.8014202 -1039.9
-18.7875 -4.8018198 -1039.5
-19.502701 -4.7453899 -1038.76
-19.972401 -4.7038898 -1038.4
-20.381701 -4.7300401 -1037.9399
-20.6175 -4.8828402 -1037.3101
-21.2651 -4.6821299 -1037.1
-21.568501 -4.7813702 -1036.53
-22.1196 -4.7144499 -1036.22
-22.5061 -4.7023001 -1035.75
-22.9133 -4.7016301 -1035.35
-23.430201 -4.5921302 -1035.0601
-23.5515 -4.81528 -1034.37
-24.1588 -4.6372399 -1034.1801
-24.4067 -4.7789898 -1033.58
-24.790701 -4.76752 -1033.17
-25.237101 -4.7176499 -1032.8
-25.629499 -4.7226901 -1032.4
-25.9259 -4.8132901 -1031.88
-26.388 -4.7018099 -1031.5699
-26.633801 -4.8305702 -1031
-27.301901 -4.62357 -1030.8
-27.595699 -4.7958102 -1030.12
-28.2486 -4.6416001 -1029.88
-28.5732 -4.7241802 -1029.38
-29.4198 -4.5714402 -1028.72
-29.394501 -4.8931599 -1027.89
-29.770399 -4.87607 -1027.58
-30.5194 -4.89713 -1026.5
-29.7554 -5.3405199 -1026.3199
-30.561199 -5.1201501 -1025.79
-32.0765 -5.0665598 -1024.3199
-31.791401 -5.6415401 -1023.14
-32.267601 -5.4855299 -1022.95
-32.543499 -5.5212998 -1022.58
-32.629002 -5.68292 -1021.96
-33.013699 -5.6324801 -1021.67
-32.931 -5.9576702 -1020.89
-33.258701 -5.9527898 -1020.56
-33.709999 -6.0961299 -1019.65
-33.839001 -6.2254901 -1019.12
-33.922401 -6.4189501 -1018.56
-34.195 -6.3811302 -1018.2
-34.640099 -6.6877098 -1016.79
-34.8298 -6.9596901 -1015.77
-35.120499 -7.5720801 -1013.6
-35.252499 -7.6655002 -1013.12
-35.488998 -7.95609 -1012.13
-35.6478 -8.2131701 -1011.1
-35.894199 -8.6607103 -1009.51
-36.161999 -9.0648804 -1007.95
-36.264999 -9.39114 -1006.86
-36.2812 -9.7989197 -1005.73
-36.461201 -10.219 -1004.19
-36.556499 -11.399 -1000.45
-36.4352 -11.6703 -999.77899
-36.136398 -12.1139 -996.82501
-36.277901 -12.4708 -995.71899
-36.019798 -13.4805 -992.88
-35.796001 -14.0882 -991.21198
-4.0876498 -6.5265799 -1047.96
-5.5165401 -6.26752 -1047.27
-6.30548 -6.0468402 -1046.95
-7.7427402 -5.7293401 -1046.36
-8.2244902 -5.7295499 -1045.92
-8.7366896 -5.7282701 -1045.39
-10.7968 -5.4026799 -1044.29
-11.6368 -5.13831 -1044.1
-12.179 -5.1090698 -1043.62
-12.7787 -5.03058 -1043.26
-13.5869 -4.7878399 -1043.0699
-14.83 -4.5997901 -1042.29
-15.7109 -4.3512902 -1042.04
-16.277599 -4.3881798 -1041.5
-16.930099 -4.3018198 -1041.08
-17.634399 -4.11447 -1040.8199
-18.035 -4.1873798 -1040.28
-18.544001 -4.1004901 -1039.9399
-18.6623 -4.3059702 -1039.28
-19.3132 -4.3291001 -1038.51
-19.7586 -4.2810102 -1038.12
-20.350201 -4.1370802 -1037.85
-20.785 -4.12988 -1037.42
-21.191299 -4.1399202 -1036.95
-21.5676 -4.1782799 -1036.5
-21.9534 -4.2361798 -1035.99
-22.390499 -4.2122798 -1035.58
-22.803499 -4.1930199 -1035.1899
-23.1971 -4.1602502 -1034.77
-23.5606 -4.2086201 -1034.33
-24.0823 -4.1087599 -1034.03
-24.4855 -4.09692 -1033.61
-24.7188 -4.2048602 -1033.05
-25.076799 -4.2420998 -1032.58
-25.512199 -4.2158499 -1032.22
-25.824499 -4.2719998 -1031.74
-26.32 -4.1869502 -1031.4301
-27.1415 -4.2007098 -1030.48
-27.785299 -4.0762901 -1030.21
-28.1738 -4.1490202 -1029.71
-28.6472 -4.1010699 -1029.4301
-28.663099 -4.33957 -1028.64
-29.093599 -4.25 -1028.37
-29.4916 -4.43753 -1027.42
-29.6141 -4.8066101 -1026.16
-30.030001 -4.9721699 -1025.15
-30.6553 -4.7204599 -1025.11
-31.082899 -4.98001 -1023.97
-31.733 -4.7424302 -1023.9
-31.7722 -5.0239 -1023.13
-32.147499 -5.0125699 -1022.76
-32.5126 -4.9856901 -1022.47
-32.6301 -5.1279001 -1021.89
-32.8386 -5.2049298 -1021.45
-32.9874 -5.3272099 -1020.92
-33.174999 -5.4095201 -1020.44
-33.702599 -5.6694598 -1019.05
-34.0425 -6.3181801 -1016.84
-34.313702 -6.53195 -1015.85
-34.6255 -6.5010099 -1015.56
-35.036201 -7.0546598 -1013.47
-35.247799 -7.0851402 -1013.07
-35.411301 -7.3934302 -1012
-35.682899 -7.82516 -1010.47
-35.910702 -8.4809904 -1008.23
-36.155201 -8.8927603 -1006.7
-36.191898 -9.2550697 -1005.6
-36.318802 -9.3345299 -1005.16
-36.532001 -9.5412302 -1004.22
-36.419399 -10.0311 -1002.96
-36.380199 -10.0179 -1001.2
-36.238098 -10.9474 -998.44299
-36.167999 -11.9222 -995.61298
-36.2845 -12.1574 -994.63202
-36.166901 -12.4108 -994.02899
-35.840801 -13.1329 -992.19098
-33.184399 -16.018499 -986.26001
-4.8740201 -5.7287898 -1047.62
-5.55304 -5.5897799 -1047.27
-6.1522198 -5.5489202 -1046.77
-7.0585899 -5.3006601 -1046.52
-7.57129 -5.29211 -1046.08
-8.1500196 -5.1926599 -1045.75
-8.72015 -5.1217699 -1045.33
-9.3652296 -5.0344801 -1044.95
-10.1871 -4.8221698 -1044.6801
-10.9435 -4.6238098 -1044.42
-12.2117 -4.46982 -1043.59
-12.505 -4.6375999 -1042.92
-13.2019 -4.50842 -1042.63
-15.2836 -4.1104698 -1041.5601
-16.1208 -3.9043601 -1041.3
-16.8517 -3.7392299 -1040.99
-17.904499 -3.6501501 -1040.11
-18.5483 -3.7855201 -1039.13
-19.2927 -3.7274201 -1038.4399
-19.6772 -3.76685 -1038
-20.137501 -3.69891 -1037.58
-20.7012 -3.5938399 -1037.29
-20.9151 -3.7720001 -1036.59
-21.3906 -3.7286699 -1036.26
-21.9944 -3.5873101 -1035.98
-22.369699 -3.6129799 -1035.5
-22.777201 -3.59952 -1035.12
-23.145 -3.62006 -1034.66
-23.5259 -3.6278701 -1034.24
-23.8815 -3.66837 -1033.78
-24.3451 -3.60007 -1033.4301
-24.5863 -3.7223499 -1032.87
-25.086201 -3.6336401 -1032.54
-25.428499 -3.67206 -1032.08
-25.929199 -3.58829 -1031.78
-26.7115 -3.5750101 -1030.95
-27.216801 -3.5697899 -1030.45
-27.6124 -3.6166401 -1029.96
-28.4846 -3.8278501 -1028.54
-28.7719 -4.1372399 -1027.42
-29.1661 -4.0278602 -1027.12
-30.574699 -4.23599 -1024.95
-31.1611 -3.99295 -1024.87
-30.9163 -4.4990802 -1023.79
-31.5485 -4.2694702 -1023.67
-31.862101 -4.3220501 -1023.2
-32.293301 -4.54636 -1022.21
-32.461102 -4.6628098 -1021.68
-32.691101 -4.7118502 -1021.24
-32.977798 -4.7240601 -1020.9
-33.053101 -4.8998098 -1020.32
-33.1507 -5.2481699 -1019.18
-33.426102 -5.5117502 -1018.17
-33.569599 -5.6115699 -1017.65
-34.247101 -5.9761701 -1015.77
-34.476101 -6.0026202 -1015.37
-34.4888 -5.9120498 -1013.93
-35.1208 -6.57019 -1012.89
-35.340401 -6.84308 -1011.87
-35.362202 -7.2817998 -1010.66
-35.571999 -7.3027301 -1010.29
-35.712799 -7.3892202 -1009.84
-35.607601 -7.7023001 -1009.09
-35.791698 -7.9822402 -1008.04
-35.952 -8.0637798 -1007.6
-35.934101 -7.85992 -1006.35
-36.2481 -8.7929096 -1005.03
-36.351501 -9.4769001 -1002.83
-36.458 -9.5681496 -1002.39
-36.353901 -10.3771 -1000.13
-36.268398 -9.9896898 -999.48401
-35.746601 -11.6178 -995.172
-35.963001 -12.8733 -992.85199
-35.573799 -12.8242 -991.48901
-35.166199 -13.3873 -990.177
-32.543598 -16.086399 -984.75702
-31.736799 -16.9557 -982.93298
-5.9573998 -5.0875502 -1046.53
-6.9318199 -4.7821002 -1046.37
-7.5054302 -4.74542 -1045.9301
-8.1078501 -4.6229901 -1045.67
-8.6829796 -4.4966402 -1045.24
-9.1775503 -4.56113 -1044.6899
-9.8312998 -4.4703102 -1044.29
-10.6959 -4.2144198 -1044.11
-11.3776 -4.0901198 -1043.74
-11.85 -4.1374502 -1043.1899
-12.6188 -3.9101901 -1042.99
-13.0373 -3.9830899 -1042.41
-14.6386 -3.51385 -1042.05
-15.4341 -3.3815 -1041.66
-16.101601 -3.25525 -1041.27
-16.7635 -3.1579599 -1040.9
-17.277201 -3.11935 -1040.47
-17.9063 -3.0234699 -1040.12
-18.2822 -3.0560901 -1039.59
-18.4279 -3.2481401 -1038.95
-19.284201 -3.10745 -1038.37
-19.65 -3.15204 -1037.9
-20.0902 -3.13376 -1037.49
-20.6408 -3.0141001 -1037.1899
-20.973 -3.1008 -1036.64
-21.5264 -3.0084801 -1036.34
-21.894199 -3.0373499 -1035.8199
-22.3944 -2.9552901 -1035.49
-22.6763 -3.0567 -1034.95
-23.1516 -2.9960001 -1034.6
-23.550501 -2.9728701 -1034.22
-24.127199 -3.14221 -1033.17
-24.5907 -3.1000099 -1032.8101
-24.8445 -3.2175 -1032.24
-25.202801 -3.21176 -1031.8199
-25.759899 -3.0932 -1031.5601
-26.1614 -3.0811501 -1031.17
-26.556 -3.0926199 -1030.74
-27.186501 -2.9823599 -1030.4
-28.9109 -3.00104 -1028.38
-28.565201 -3.63113 -1027.1899
-29.168301 -3.4086299 -1027.11
-29.6609 -3.5327101 -1026.14
-30.0662 -3.4509001 -1025.87
-30.033701 -3.8204701 -1025.03
-30.9188 -3.57428 -1024.51
-31.2432 -3.6310401 -1024.05
-31.5919 -3.6433699 -1023.62
-31.7563 -3.80814 -1023.05
-32.010399 -3.8916299 -1022.58
-32.445301 -4.0525198 -1021.64
-32.8867 -4.3576999 -1020.23
-33.495098 -4.5055799 -1019
-33.281399 -4.9911799 -1018
-33.857201 -4.9740601 -1017.31
-34.289902 -5.0503502 -1016.48
-34.305 -5.5029001 -1015.17
-34.545601 -5.5306401 -1014.76
-34.792099 -6.0282602 -1013.09
-34.966301 -6.1112399 -1012.67
-35.1852 -6.3621502 -1011.65
-35.611401 -6.6589398 -1010.29
-35.6744 -7.0509 -1009.11
-35.814899 -7.3387799 -1008.03
-35.927799 -7.44522 -1007.52
-36.164101 -8.0567598 -1005.47
-36.216801 -8.1792898 -1004.94
-36.281399 -8.5364103 -1003.87
-36.321999 -8.8691702 -1002.74
-36.386398 -9.0127602 -1002.26
-36.355999 -9.7485399 -1000.1
-36.1562 -9.7858896 -998.26501
-35.948101 -11.1613 -994.28699
-35.820202 -11.4163 -993.65698
-35.857399 -12.2956 -992.73199
-33.050999 -15.4922 -986.026
-3.94293 -5.29074 -1047.76
-4.8732901 -4.4636202 -1047.5
-5.52563 -4.3766198 -1047.16
-6.6522198 -4.32306 -1046.14
-7.3971601 -4.1233501 -1045.9301
-7.8438702 -4.1332998 -1045.4399
-8.6286001 -3.9063699 -1045.17
-9.84235 -3.8519001 -1044.23
-10.5305 -3.71872 -1043.92
-11.2258 -3.58569 -1043.54
-11.9865 -3.4179101 -1043.27
-12.3626 -3.51559 -1042.6899
-13.0596 -3.3273301 -1042.4
-15.1755 -2.90976 -1041.4399
-15.9918 -2.6967499 -1041.16
-16.541201 -2.6773701 -1040.66
-17.056499 -2.62766 -1040.28
-17.593599 -2.5822401 -1039.87
-18.1257 -2.5383 -1039.4399
-18.3479 -2.6745601 -1038.87
-19.065201 -2.6466999 -1038.1
-19.4855 -2.65414 -1037.71
-19.802999 -2.74435 -1037.14
-20.2953 -2.68274 -1036.79
-21.019899 -2.4123199 -1036.64
-21.35 -2.4996901 -1036.12
-21.743601 -2.5379 -1035.62
-22.090099 -2.5943301 -1035.15
-22.476299 -2.6047101 -1034.71
-23.0184 -2.4744 -1034.41
-23.3062 -2.56216 -1033.92
-23.728399 -2.54895 -1033.51
-24.0835 -2.5989399 -1033.0699
-24.325001 -2.7163701 -1032.48
-24.9478 -2.52051 -1032.3101
-25.2528 -2.5778201 -1031.8101
-25.6423 -2.5585899 -1031.4
-26.4111 -2.5735199 -1030.55
-26.973301 -2.49582 -1030.23
-28.730101 -2.6159999 -1028.22
-28.4541 -3.0857799 -1027.03
-29.035299 -2.8554399 -1026.9301
-29.421101 -2.8179901 -1026.59
-29.4779 -3.0927701 -1025.86
-30.1269 -3.10553 -1025.08
-30.5403 -3.0435801 -1024.7
-30.9366 -3.0573699 -1024.35
-31.2724 -3.06265 -1023.96
-31.443899 -3.1991601 -1023.4
-31.6451 -3.29532 -1022.89
-31.8951 -3.3329501 -1022.45
-32.190399 -3.61923 -1021.37
-32.6717 -3.8747599 -1020.07
-33.313599 -4.0125999 -1018.79
-33.1348 -4.4402499 -1017.83
-33.5415 -4.3510399 -1017.6
-33.6991 -4.71381 -1016.44
-33.938499 -5.0017099 -1015.37
-34.3615 -4.8626399 -1015.18
-34.532501 -5.2379799 -1013.93
-34.6427 -5.56882 -1012.86
-34.860699 -5.5803499 -1012.52
-35.120701 -5.8061199 -1011.54
-35.6185 -6.4660001 -1009
-35.625702 -6.32654 -1007.73
-35.8703 -6.8902898 -1007.44
-36.02 -7.1677899 -1006.43
-36.005901 -7.5532198 -1005.23
-36.109699 -7.6869798 -1004.78
-36.0952 -7.5104098 -1003.57
-36.1129 -7.89856 -1002.44
-36.302898 -8.83008 -1001.01
-36.283901 -9.0229502 -1000.48
-36.159901 -9.4568195 -999.31
-35.843899 -9.9545002 -996.323
-35.767502 -10.6834 -994.16699
-35.124802 -12.0948 -990.49799
-34.113998 -13.17 -988.37903
-34.003601 -13.2881 -988.01001
-33.575298 -13.7208 -987.22498
-3.6240799 -4.3796701 -1047.45
-4.2203999 -4.4011502 -1046.92
-5.1066298 -4.07581 -1046.78
-5.9296298 -3.7756 -1046.64
-7.6646099 -3.6711099 -1045.27
-8.5015898 -3.4649999 -1045.03
-8.8590698 -3.63904 -1044.28
-9.9960899 -3.1294899 -1044.35
-10.5681 -3.1066899 -1043.9
-11.0457 -3.1802101 -1043.3101
-11.6652 -3.0795 -1042.91
-12.5676 -2.7421601 -1042.84
-13.0062 -2.82498 -1042.29
-14.0948 -2.73016 -1041.46
-15.6674 -2.38467 -1040.8199
-16.377399 -2.23715 -1040.51
-17.022301 -2.0698199 -1040.24
-18.327299 -2.0998499 -1038.87
-19.0457 -2.08762 -1038.0699
-19.468399 -2.0838301 -1037.64
-19.881001 -2.10675 -1037.1899
-20.195601 -2.17661 -1036.63
-20.8444 -2.03915 -1036.41
-21.111099 -2.1470001 -1035.83
-22.483101 -2.0497401 -1034.67
-22.9573 -1.9826699 -1034.3199
-23.2651 -2.04568 -1033.83
-23.9594 -2.1314099 -1032.88
-24.360201 -2.1264601 -1032.47
-24.885201 -2.0050001 -1032.22
-25.063299 -2.18964 -1031.5699
-25.407801 -2.23224 -1031.09
-26.0292 -2.0273399 -1030.9301
-26.4037 -2.0585301 -1030.49
-26.7188 -2.1166101 -1029.96
-28.489401 -2.1526201 -1027.9
-28.4135 -2.5497401 -1026.98
-28.8416 -2.4649 -1026.6801
-29.490801 -2.5173299 -1025.83
-30.046801 -2.3143599 -1025.71
-30.371799 -2.3891599 -1025.22
-30.6408 -2.49738 -1024.7
-30.7642 -2.65854 -1024.1
-31.0819 -2.6823399 -1023.72
-31.5201 -2.84619 -1022.73
-31.7841 -2.8832099 -1022.27
-32.134102 -3.0794699 -1021.35
-32.185001 -3.4558699 -1020.23
-32.474499 -3.4472001 -1019.89
-32.710999 -3.73929 -1018.75
-33.076698 -3.9323699 -1017.77
-33.400101 -3.8994801 -1017.44
-33.535702 -4.0308499 -1016.89
-33.688 -4.1673899 -1016.38
-33.998001 -4.3800001 -1015.41
-34.476398 -4.4488502 -1014.61
-34.460602 -4.76929 -1013.84
-34.7281 -4.9320998 -1012.92
-34.909901 -4.9560499 -1012.52
-34.983501 -5.36377 -1011.37
-35.166 -5.64224 -1010.32
-35.245499 -5.80896 -1009.79
-35.755001 -6.4370699 -1007.26
-35.738098 -6.3080101 -1006.02
-35.926899 -7.0844698 -1005.12
-36.028999 -7.0430598 -1003.46
-36.2038 -7.9944801 -1001.97
-36.224899 -8.3418903 -1000.89
-36.070999 -8.08325 -1000.17
-36.077801 -8.7968102 -999.698
-36.1451 -8.8850403 -999.24298
-35.981499 -9.5335398 -997.50201
-35.867802 -9.83179 -996.85797
-35.557598 -10.4546 -993.495
-35.422901 -10.9322 -992.18597
-35.476799 -11.0619 -991.70697
-35.171398 -11.4235 -990.90601
-34.8391 -12.4219 -989.85199
-33.4468 -13.2784 -987.06897
-33.104698 -13.6452 -986.31702
-32.6689 -14.144 -985.091
-32.022202 -14.8353 -983.69
-5.59729 -3.4439399 -1046.4
-6.0939298 -3.4559 -1045.8101
-7.6325698 -3.14221 -1045.2
-8.4847403 -2.9139099 -1044.95
-8.7841797 -3.12363 -1044.17
-9.7534199 -2.8138101 -1044.0601
-10.3788 -2.7230501 -1043.67
-11.3328 -2.37292 -1043.55
-11.5803 -2.61292 -1042.79
-12.3931 -2.3456099 -1042.64
-13.0176 -2.2690401 -1042.26
-13.4785 -2.2545199 -1041.8101
-14.1162 -2.13217 -1041.4301
-14.6505 -2.16135 -1040.96
-15.5366 -1.91153 -1040.7
-16.060101 -1.92697 -1040.21
-16.945499 -1.54413 -1040.16
-17.3088 -1.62509 -1039.62
-17.7941 -1.61142 -1039.23
-18.2526 -1.56387 -1038.83
-19.058001 -1.53415 -1038.04
-19.4963 -1.50357 -1037.63
-19.903099 -1.53696 -1037.16
-20.2537 -1.59631 -1036.66
-20.6443 -1.65002 -1036.15
-21.162399 -1.57605 -1035.83
-21.6092 -1.5401 -1035.4
-21.919701 -1.64035 -1034.87
-22.321501 -1.62497 -1034.47
-22.8682 -1.4953901 -1034.1899
-23.239 -1.49982 -1033.77
-23.573099 -1.56134 -1033.28
-23.879601 -1.64624 -1032.77
-24.3076 -1.61798 -1032.38
-24.790199 -1.52792 -1032.0699
-25.0646 -1.62784 -1031.52
-25.445 -1.63876 -1031.1
-25.979401 -1.49332 -1030.84
-26.4009 -1.4853801 -1030.42
-26.7132 -1.58386 -1029.86
-27.7327 -1.65762 -1028.5601
-27.677 -2.0227101 -1027.7
-28.3542 -1.74194 -1027.6899
-28.295601 -2.09161 -1026.83
-28.9263 -1.85605 -1026.74
-29.3325 -2.1442001 -1025.63
-30.0798 -2.1431301 -1024.8
-30.4363 -2.1154499 -1024.4399
-30.8489 -2.2964499 -1023.41
-31.279499 -2.2051101 -1023.17
-31.8827 -2.4643199 -1021.75
-31.972401 -2.8113699 -1020.65
-31.8867 -3.1221299 -1019.92
-32.2785 -3.02615 -1019.67
-32.516201 -3.3499801 -1018.53
-33.061401 -3.3734701 -1017.75
-33.258701 -3.4867899 -1017.23
-33.474499 -3.5416 -1016.8
-33.700699 -3.59741 -1016.37
-33.944302 -3.8557999 -1015.32
-34.172199 -3.90149 -1014.93
-34.6483 -4.45822 -1012.79
-34.765701 -4.5415301 -1012.33
-34.9697 -4.8435702 -1011.29
-35.433399 -5.5117798 -1008.72
-35.923199 -6.7452102 -1004.49
-36.0858 -8.2277203 -999.66803
-35.754601 -8.8108196 -996.67102
-35.7216 -8.9947796 -996.112
-35.5886 -9.3930101 -994.98798
-35.392502 -10.0104 -993.341
-35.323299 -10.4303 -992.138
-35.066299 -10.9329 -990.81299
-34.323799 -11.7391 -989.073
-34.009602 -12.0871 -988.37402
-3.4570899 -3.38693 -1047.26
-5.90417 -3.0690899 -1045.61
-7.6055298 -2.6207299 -1045.11
-8.1717501 -2.5922201 -1044.63
-10.2848 -2.2341299 -1043.5699
-11.1141 -2.0067699 -1043.33
-11.6987 -1.95963 -1042.89
-12.3636 -1.83139 -1042.5699
-12.8465 -1.83804 -1042.0699
-13.9565 -1.71262 -1041.27
-14.7425 -1.49347 -1041.05
-15.9022 -1.47269 -1040.05
-16.737801 -1.1630599 -1039.9399
-17.2204 -1.16769 -1039.5
-17.562599 -1.2596999 -1038.96
-17.890699 -1.30286 -1038.5
-18.9561 -1.07733 -1037.92
-19.2868 -1.13504 -1037.4
-19.5366 -1.28967 -1036.77
-20.660801 -1.10059 -1036.14
-21.0499 -1.10184 -1035.67
-21.5257 -1.06955 -1035.29
-21.924 -1.09744 -1034.83
-22.2444 -1.15448 -1034.35
-22.6987 -1.12704 -1033.97
-23.183599 -1.03815 -1033.67
-23.5564 -1.04404 -1033.22
-23.9872 -1.00687 -1032.84
-24.173 -1.1961401 -1032.1899
-25.0595 -1.086 -1031.49
-25.542601 -1.0274 -1031.16
-25.948601 -1.02728 -1030.71
-26.2873 -1.1011699 -1030.1899
-26.6278 -1.19138 -1029.67
-27.1138 -1.0693099 -1029.39
-27.4128 -1.1517 -1028.92
-27.7194 -1.1545399 -1028.5
-27.861799 -1.32935 -1027.87
-28.2593 -1.2973 -1027.55
-28.3957 -1.47794 -1026.92
-28.9133 -1.34711 -1026.6899
-29.480301 -1.47653 -1025.71
-30.157301 -1.54758 -1024.86
-30.361 -1.63925 -1024.36
-30.682199 -1.6097701 -1023.95
-30.8421 -1.77649 -1023.4
-31.193199 -1.7467 -1023.04
-31.275299 -1.9599 -1022.45
-31.4186 -2.0592 -1021.93
-31.92 -2.2725799 -1020.65
-31.8344 -2.6171601 -1019.83
-32.474098 -2.84024 -1018.45
-32.844101 -3.0246 -1017.45
-33.184799 -3.02298 -1017.13
-33.638 -3.1389501 -1016.27
-33.838402 -3.4138501 -1015.2
-34.09 -3.4367099 -1014.79
-34.206001 -3.57565 -1014.25
-34.313999 -3.78824 -1013.63
-34.600899 -3.9649999 -1012.71
-34.684898 -4.0851698 -1012.21
-34.879799 -4.80865 -1009.94
-35.148899 -4.8132901 -1009.61
-35.618198 -5.4720502 -1007.04
-35.7672 -5.7428298 -1006.02
-35.873798 -6.0587502 -1004.97
-35.962898 -6.19238 -1004.51
-35.8624 -6.1035199 -1003.22
-35.958199 -6.94876 -1002.2
-36.071602 -7.0431199 -1001.76
-35.928699 -7.2936101 -999.422
-35.9603 -8.1409597 -998.448
-35.847599 -8.4197998 -997.79999
-35.081402 -9.84729 -992.47198
-35.139 -10.0014 -991.97101
-35.1437 -10.1394 -991.40997
-34.849201 -10.512 -990.63098
-33.052299 -12.5924 -986.19397
-32.581501 -13.1563 -984.92297
-4.1097999 -2.7079799 -1046.87
-4.7644701 -2.52139 -1046.5601
-5.1571698 -2.62344 -1045.9399
-5.9335899 -2.4896901 -1045.63
-7.37323 -2.22281 -1044.89
-7.9572101 -2.22574 -1044.38
-8.8543701 -1.94928 -1044.2
-9.6055298 -1.7978801 -1043.85
-10.0847 -1.8521399 -1043.3199
-10.7823 -1.70935 -1042.95
-11.6791 -1.40833 -1042.8199
-12.1872 -1.41187 -1042.36
-12.7737 -1.3361501 -1041.99
-13.215 -1.3654799 -1041.4399
-14.0333 -1.13153 -1041.29
-15.4626 -0.82504302 -1040.71
-16.081499 -0.754852 -1040.23
-16.548201 -0.77004999 -1039.74
-17.124201 -0.68881202 -1039.38
-17.4025 -0.82742298 -1038.77
-18.4182 -0.610107 -1038.21
-18.805201 -0.62713599 -1037.75
-19.2502 -0.638062 -1037.3101
-19.687201 -0.61901897 -1036.88
-20.0306 -0.67736799 -1036.37
-20.4848 -0.699615 -1035.95
-20.9573 -0.65676898 -1035.55
-21.474199 -0.56875598 -1035.2
-22.171801 -0.64492798 -1034.25
-22.6066 -0.63754302 -1033.85
-23.083099 -0.56384301 -1033.54
-23.2813 -0.70272797 -1032.91
-23.783899 -0.624542 -1032.61
-24.2432 -0.57891798 -1032.24
-24.684601 -0.52099597 -1031.89
-24.853901 -0.725128 -1031.25
-25.331499 -0.67709398 -1030.87
-25.965099 -0.52731299 -1030.5699
-26.1124 -0.77264398 -1029.87
-26.7623 -0.56988502 -1029.73
-27.083799 -0.596802 -1029.3199
-27.1786 -0.807648 -1028.64
-27.7269 -0.57498199 -1028.49
-28.2626 -0.76666301 -1027.53
-28.614599 -0.77505499 -1027.1
-28.864901 -0.87335199 -1026.6
-29.4739 -0.96163899 -1025.63
-29.9816 -0.865601 -1025.39
-29.91 -1.20612 -1024.5601
-30.267799 -1.17703 -1024.21
-30.743999 -1.29056 -1023.27
-31.132099 -1.48059 -1022.34
-31.5014 -1.61331 -1021.48
-31.366899 -1.9912699 -1020.67
-31.7966 -2.0671699 -1019.8
-32.006802 -2.13745 -1019.34
-32.446999 -2.31778 -1018.39
-32.750099 -2.6111801 -1017.31
-33.100101 -2.5411999 -1017.01
-33.311501 -2.5743101 -1016.56
-33.482399 -2.6868899 -1016.06
-33.6278 -2.8067901 -1015.57
-33.832001 -2.8638899 -1015.14
-33.990898 -2.98172 -1014.66
-34.1674 -3.0806601 -1014.19
-34.166599 -3.3568101 -1013.46
-34.518101 -3.4950299 -1012.58
-34.950298 -4.2149401 -1009.98
-35.191502 -4.21243 -1009.62
-35.2813 -4.5541701 -1008.49
-35.384102 -4.9250498 -1007.36
-35.568802 -4.9815402 -1006.94
-35.509499 -4.8520498 -1005.66
-35.864899 -5.7018099 -1004.37
-35.7971 -6.1195402 -1001.37
-36.0131 -6.8471398 -1000.58
-35.784698 -8.0843801 -997.18597
-35.423199 -8.3999901 -994.75
-35.241501 -9.42377 -993.63898
-35.094898 -9.0732698 -992.97998
-32.4338 -12.6833 -984.72498
-8.0130596 -1.5863301 -1044.4
-8.8175697 -1.40402 -1044.1
-9.4972496 -1.29892 -1043.71
-9.9390898 -1.36151 -1043.12
-10.6715 -1.22211 -1042.77
-11.4003 -1.0386 -1042.52
-12.1259 -0.86615002 -1042.25
-12.6862 -0.81744403 -1041.83
-13.3402 -0.67202801 -1041.5601
-13.8171 -0.69915801 -1041.05
-14.3661 -0.65386999 -1040.62
-14.9614 -0.60119599 -1040.21
-15.9006 -0.26422101 -1040.1
-16.500401 -0.17688 -1039.72
-16.982201 -0.21841399 -1039.1899
-17.368299 -0.240814 -1038.72
-17.7911 -0.218353 -1038.34
-18.1047 -0.269135 -1037.84
-18.582001 -0.224792 -1037.49
-19.486099 -0.232361 -1036.65
-19.931499 -0.168732 -1036.23
-20.369301 -0.182281 -1035.79
-20.905001 -0.096557602 -1035.46
-21.357599 -0.058807399 -1035.01
-21.7579 -0.086334199 -1034.5699
-22.000401 -0.21197499 -1034.02
-22.555799 -0.099731401 -1033.77
-22.7596 -0.25772101 -1033.15
-23.170601 -0.234253 -1032.74
-23.621 -0.176056 -1032.39
-24.121901 -0.108948 -1032.1
-24.565399 -0.053833 -1031.74
-24.8969 -0.085357703 -1031.25
-25.361799 -0.090179399 -1030.8
-25.696501 -0.194824 -1030.1899
-26.2484 -0.0869141 -1029.9399
-26.7026 -0.0128784 -1029.61
-26.9688 -0.103638 -1029.13
-27.177799 -0.17504901 -1028.62
-27.5688 -0.1521 -1028.24
-27.8444 -0.25625601 -1027.74
-28.429199 -0.32202101 -1026.88
-28.647499 -0.44726601 -1026.34
-28.817301 -0.65255702 -1025.7
-29.3589 -0.496674 -1025.47
-29.719299 -0.78845203 -1024.3
-30.1668 -0.66372699 -1024.08
-30.889299 -0.81814599 -1022.81
-31.5103 -0.96359301 -1021.55
-31.165199 -1.54013 -1020.43
-31.803499 -1.48306 -1019.77
-32.029701 -1.53241 -1019.33
-32.338299 -1.83664 -1018.22
-32.648701 -2.0996101 -1017.15
-33.136799 -1.9256901 -1017
-33.261299 -2.32672 -1015.79
-33.585701 -2.28003 -1015.5
-33.9921 -2.6394701 -1013.96
-34.520599 -2.9072299 -1012.54
-34.5532 -3.11148 -1011.98
-34.614498 -3.2495401 -1011.42
-34.660198 -3.4365499 -1010.85
-35.029301 -3.79721 -1009.4
-35.203701 -4.0423598 -1008.38
-35.332401 -4.3624301 -1007.28
-35.537899 -4.4123201 -1006.88
-35.540001 -4.2484999 -1005.67
-35.7868 -4.99722 -1004.84
-35.766399 -5.9654799 -1001.94
-35.905602 -6.7319598 -999.37
-35.8363 -6.9521799 -998.77197
-35.643398 -6.85428 -997.46503
-35.5271 -7.3057599 -996.30603
-35.5443 -8.0094299 -995.85199
-35.1614 -8.1743498 -993.953
-34.992901 -8.5850496 -992.84497
-34.637199 -9.2950697 -991.008
-34.057701 -10.1132 -989.13702
-32.875702 -11.5637 -985.92401
-8.0683002 -0.959656 -1044.38
-9.4085102 -0.80200201 -1043.58
-9.8001099 -0.89028901 -1042.95
-10.7069 -0.60305798 -1042.76
-11.4236 -0.445923 -1042.51
-11.9029 -0.46597299 -1041.99
-12.6604 -0.23339801 -1041.78
-13.2581 -0.15976 -1041.4301
-13.6801 -0.217834 -1040.87
-14.306 -0.097076401 -1040.53
-14.8038 -0.099731401 -1040.08
-15.4687 0.0080566397 -1039.71
-16.150101 0.151215 -1039.35
-16.715 0.19116201 -1038.96
-17.2208 0.217712 -1038.53
-17.564501 0.170746 -1038.08
-18.233299 0.39907801 -1037.95
-18.998699 0.33667001 -1036.99
-19.507099 0.40039101 -1036.63
-19.6581 0.17648301 -1035.91
-20.165001 0.233734 -1035.55
-20.6598 0.30239901 -1035.1899
-21.2446 0.42788699 -1034.88
-21.687 0.43859899 -1034.48
-22.049 0.40869099 -1034.05
-22.5627 0.504089 -1033.76
-22.776699 0.36001599 -1033.15
-23.184999 0.357941 -1032.74
-23.563999 0.34622201 -1032.3
-24.000299 0.37875399 -1031.92
-24.342699 0.34417701 -1031.47
-24.8941 0.47692901 -1031.2
-25.309401 0.41018701 -1030.67
-25.7488 0.43154901 -1030.2
-26.683701 0.245941 -1028.8
-27.1959 0.37976101 -1028.5699
-27.3522 0.180115 -1027.95
-27.749599 0.260712 -1027.61
-28.093 0.28311199 -1027.25
-28.215599 0.069763198 -1026.6
-28.4625 0.0324402 -1026.14
-29.137699 -0.0212097 -1025.28
-29.200001 -0.112457 -1024.48
-29.736799 -0.106415 -1024.3101
-30.0522 -0.13324 -1023.98
-30.2831 -0.46295199 -1022.91
-30.6366 -0.59500098 -1021.98
-31.2656 -0.560974 -1021.3
-31.1084 -0.99404901 -1020.37
-31.677 -1.02493 -1019.6
-31.930799 -1.06644 -1019.19
-32.205002 -1.3736 -1018.08
-32.6343 -1.5267299 -1017.11
-33.189899 -1.5430599 -1016.38
-33.237701 -1.7525001 -1015.73
-33.506802 -1.75836 -1015.39
-33.490101 -2.01877 -1014.72
-33.727402 -2.04968 -1014.3
-33.932499 -2.13007 -1013.86
-34.044998 -2.2869599 -1013.29
-34.479401 -2.37415 -1012.45
-34.655998 -2.6317101 -1011.44
-34.588501 -2.93396 -1010.75
-34.7509 -3.2092299 -1009.67
-35.1735 -3.5039101 -1008.31
-35.205101 -3.9001801 -1007.1
-35.666199 -5.1026301 -1002.93
-35.799599 -5.3527498 -1001.92
-35.695099 -5.38937 -1000.11
-35.723202 -6.1359301 -999.63397
-35.8535 -6.1844201 -999.26398
-35.4133 -7.7128901 -995.18201
-35.056801 -8.39993 -993.38
-34.794601 -9.0058298 -991.68701
-33.7943 -10.4272 -988.44897
-2.6496 -1.43805 -1046.8101
-3.6594801 -1.18283 -1046.4
-7.1491098 -0.57363898 -1044.5699
-8.4899302 -0.43594399 -1043.71
-9.2723999 -0.26962301 -1043.4301
-10.093 -0.052215599 -1043.2
-10.5507 -0.118134 -1042.58
-11.358 0.128998 -1042.39
-11.77 0.055206299 -1041.84
-12.3156 0.078613304 -1041.38
-13.033 0.28991699 -1041.16
-13.6416 0.37277201 -1040.78
-14.187 0.421112 -1040.34
-14.8938 0.60479701 -1040.15
-15.3967 0.60790998 -1039.67
-16.059099 0.71923798 -1039.29
-16.654499 0.75567597 -1038.88
-17.063101 0.719666 -1038.36
-17.4272 0.65695202 -1037.92
-18.047701 0.86203003 -1037.72
-18.4265 0.85192901 -1037.3
-18.708401 0.70849597 -1036.67
-19.390699 0.94186401 -1036.45
-19.829 0.940521 -1036.05
-20.177601 0.87451202 -1035.51
-20.692301 0.89993298 -1035.15
-21.096201 0.897888 -1034.67
-21.4762 0.86169398 -1034.26
-21.737499 0.74585003 -1033.6899
-22.424601 0.98654199 -1033.55
-22.8043 0.99252301 -1033.17
-22.983601 0.805969 -1032.48
-23.4216 0.83364898 -1032.12
-23.7162 0.746979 -1031.5699
-24.358801 0.96774298 -1031.46
-24.714701 0.92929101 -1030.98
-25.681101 0.95608503 -1030.11
-26.1019 0.98110998 -1029.74
-26.735201 0.92346197 -1028.84
-27.073799 0.83508301 -1028.38
-27.5082 0.64346302 -1027.34
-28.104601 0.56655902 -1026.45
-28.5341 0.71679699 -1026.24
-29.081499 0.54528803 -1025.28
-29.376699 0.54000902 -1024.83
-29.3792 0.239319 -1024.05
-29.729099 0.247375 -1023.74
-30.5898 0.27121001 -1022.7
-30.244301 -0.313934 -1021.55
-30.677601 -0.218445 -1021.32
-30.9839 -0.45752001 -1020.23
-31.479 -0.59063703 -1019.36
-31.9624 -0.42428601 -1019.18
-32.0602 -0.85995501 -1017.89
-32.484402 -1.03543 -1016.92
-32.7659 -1.0494699 -1016.54
-33.0121 -1.09036 -1016.14
-33.108002 -1.2562 -1015.57
-33.391201 -1.25085 -1015.22
-33.565201 -1.33392 -1014.77
-33.7598 -1.41592 -1014.32
-33.8983 -1.5392801 -1013.8
-33.898602 -1.77924 -1013.13
-34.372101 -1.8840899 -1012.28
-34.316101 -2.0978401 -1011.65
-34.4678 -2.41873 -1010.59
-34.764801 -2.58899 -1009.69
-34.862099 -2.73685 -1009.15
-35.3214 -3.4068601 -1006.57
-35.415401 -4.12042 -1004.36
-35.66 -4.0876198 -1004.05
-35.7015 -4.4490099 -1002.92
-35.674 -4.8566599 -1001.75
-35.627998 -5.0910001 -1001.13
-35.6978 -5.5644798 -999.586
-35.728401 -5.70822 -999.09198
-35.6964 -5.88657 -998.526
-35.6591 -6.0884099 -997.96698
-35.584999 -6.3028898 -997.37201
-35.540901 -6.6563101 -996.28601
-35.0639 -6.8897099 -994.24597
-35.106098 -7.60495 -993.84802
-34.535599 -8.0016203 -991.36298
-34.383801 -8.2643099 -990.73999
-32.749802 -11.0625 -985.73401
-3.4093599 -0.712677 -1046.14
-6.9790001 -0.118195 -1044.37
-7.9277301 0.17688 -1044.21
-8.5181303 0.213531 -1043.75
-9.3214102 0.42553699 -1043.47
-9.9717999 0.49520901 -1043.03
-10.6844 0.601318 -1042.71
-11.2106 0.618774 -1042.2
-11.5982 0.53445399 -1041.63
-12.4653 0.83764601 -1041.53
-13.6434 0.987091 -1040.77
-14.1539 1.0218199 -1040.3101
-14.6108 0.975128 -1039.8101
-15.2679 1.14923 -1039.51
-15.7557 1.0766 -1038.99
-16.654699 1.40836 -1038.87
-17.1306 1.41162 -1038.41
-17.3433 1.23965 -1037.8101
-18.013599 1.46909 -1037.67
-18.2437 1.30975 -1037.05
-18.672501 1.31427 -1036.61
-19.6336 1.38559 -1035.8101
-20.219801 1.5117199 -1035.5
-20.552099 1.42752 -1034.98
-20.966499 1.4314899 -1034.53
-21.409201 1.43231 -1034.13
-21.874399 1.50314 -1033.8
-22.193199 1.41904 -1033.28
-22.653299 1.4957 -1032.98
-23.066299 1.51871 -1032.5601
-23.4643 1.49533 -1032.12
-23.733101 1.3797899 -1031.58
-24.1612 1.4328001 -1031.22
-25.0235 1.4321001 -1030.34
-25.5392 1.4892 -1029.97
-25.9168 1.46286 -1029.54
-26.1805 1.36484 -1028.98
-26.389799 1.2048 -1028.42
-27.501301 1.22513 -1027.25
-28.0023 1.13837 -1026.36
-28.5965 1.18127 -1025.6801
-29.130199 0.69378698 -1023.93
-29.4828 0.74185199 -1023.63
-29.606501 0.352997 -1022.33
-30.2974 0.39529401 -1021.61
-30.7451 0.49304199 -1021.37
-30.939199 0.36065701 -1020.86
-31.0261 0.170746 -1020.24
-31.34 -0.101563 -1019.18
-32.158901 0.11734 -1018.7
-32.042301 -0.274506 -1017.83
-32.461899 -0.43783599 -1016.88
-32.952599 -0.52749598 -1016.03
-33.304298 -0.70874 -1015.1
-33.6674 -0.86886603 -1014.19
-33.709499 -1.05865 -1013.58
-33.689701 -1.34189 -1012.85
-34.565701 -1.92725 -1010.02
-34.504299 -2.2014799 -1009.36
-35.035 -2.1629 -1008.74
-34.921101 -2.4916101 -1007.95
-35.133701 -2.94522 -1006.31
-35.3297 -3.1795299 -1005.36
-35.203899 -2.8791201 -1004.63
-35.297401 -3.5802 -1004.2
-35.4916 -3.6091599 -1003.84
-35.633999 -4.2954702 -1001.66
-35.541199 -4.2985802 -999.85602
-35.601799 -5.1785898 -998.91498
-35.3983 -5.04953 -997.60901
-35.188801 -6.6566501 -994.849
-34.991699 -7.09583 -993.69897
-34.754002 -7.5539598 -992.53497
-32.675098 -10.4988 -985.62598
-6.9246202 0.50866699 -1044.28
-7.4614301 0.45355201 -1043.72
-9.0493202 0.82852203 -1043.15
-9.6502705 0.90237403 -1042.71
-10.3863 1.0138201 -1042.39
-10.9528 1.05029 -1041.91
-11.4813 1.0853 -1041.48
-12.2141 1.32187 -1041.24
-12.855 1.40802 -1040.92
-13.5714 1.56293 -1040.65
-14.0678 1.57535 -1040.1899
-14.5427 1.5677201 -1039.72
-15.1657 1.69745 -1039.38
-15.5935 1.61752 -1038.88
-16.2966 1.76907 -1038.52
-16.8913 1.8433501 -1038.16
-17.021999 1.58496 -1037.4301
-17.7719 1.90216 -1037.39
-18.5504 1.84656 -1036.4399
-19.180799 2.01178 -1036.2
-20.087601 2.013 -1035.35
-20.382799 1.95187 -1034.8
-20.9128 1.99326 -1034.4399
-21.4223 2.0936899 -1034.12
-21.8207 2.0861199 -1033.71
-22.4669 1.95111 -1032.74
-23.0128 2.0952101 -1032.47
-23.294701 1.97412 -1031.92
-23.587601 1.90689 -1031.42
-24.1623 2.06638 -1031.17
-24.289499 1.85449 -1030.49
-24.9487 2.0260301 -1030.3199
-25.2012 1.84851 -1029.67
-25.5804 1.85571 -1029.22
-25.9119 1.79767 -1028.72
-27.7668 1.8523901 -1026.84
-27.6031 1.45093 -1025.97
-28.0378 1.57111 -1025.77
-28.866899 1.47348 -1024.4399
-28.6691 1.00519 -1023.47
-29.6238 0.99200398 -1022.36
-30.0208 0.75912499 -1021.27
-30.535 0.91937298 -1021.12
-30.903299 0.68722498 -1020.06
-31.3207 0.53836101 -1019.13
-31.5313 0.43981901 -1018.67
-31.966801 0.293762 -1017.74
-32.4258 0.166168 -1016.83
-32.593601 0.0284729 -1016.29
-32.949501 0.076507598 -1016.01
-33.184299 -0.20278899 -1014.94
