# .PCD v0.7 - Point Cloud Data file format
VERSION 0.7
FIELDS x y z
SIZE 4 4 4
TYPE F F F
COUNT 1 1 1
WIDTH 1656
HEIGHT 1
VIEWPOINT 0 0 0 1 0 0 0
POINTS 1656
DATA ascii
-12.7817 13.1909 -965.90302
-11.7803 13.111 -965.284
-11.4571 13.0875 -964.71503
-11.0081 13.0851 -964.33801
-10.0391 13.0108 -963.86401
-9.5495596 12.987 -963.68597
-9.1593599 12.9844 -963.32397
-8.1265297 12.8813 -962.89099
-8.1069899 12.9173 -961.96899
-6.7990699 12.8426 -961.84998
-3.2973001 12.5825 -960.51801
-1.41882 12.4756 -959.51398
-0.471497 12.4025 -959.13599
0.98095697 12.3451 -958.67798
1.3943501 12.3043 -958.42999
2.5058 12.2558 -958.25201
3.02002 12.2175 -958.10699
4.0796499 12.1943 -957.92603
4.52075 12.1738 -957.75897
5.4465899 12.1139 -957.50201
7.1890898 12.0203 -957.51898
8.2376699 11.9944 -957.32001
9.3245201 11.9313 -957.26801
9.65137 11.9333 -956.992
14.683 11.711 -957.18701
18.6022 11.5718 -957.68201
19.8002 11.5509 -957.90698
-29.931601 15.8334 -1001.19
-29.6555 15.5528 -994.73602
-29.265301 15.4885 -993.23798
-28.620399 15.332 -990.60602
-28.512899 15.2735 -988.97498
-27.9412 15.2315 -988.117
-27.857201 15.1555 -986.69397
-27.523199 15.0942 -985.68597
-26.9855 15.0498 -985.08197
-26.4951 14.9665 -984.46802
-26.4667 14.9613 -983.04999
-26.1035 14.8972 -982.24103
-25.6577 14.8805 -981.53601
-25.122999 14.8106 -980.95001
-24.4021 14.7254 -979.29199
-23.919701 14.6729 -978.74103
-23.729 14.6358 -977.78101
-23.1551 14.5912 -977.401
-22.679399 14.5412 -976.93103
-22.087099 14.4467 -975.35999
-21.5452 14.4102 -975.01703
-20.7159 14.3127 -973.849
-20.380501 14.2726 -973.09802
-19.857201 14.2461 -972.703
-19.4496 14.2167 -972.20203
-18.646099 14.1497 -971.211
-17.7899 14.0825 -970.22198
-17.3104 14.0305 -969.82001
-16.860001 13.9977 -969.29199
-16.4118 13.959 -968.85498
-15.892 13.9177 -968.49103
-15.5886 13.8918 -967.823
-15.0328 13.8423 -967.63898
-14.7111 13.8097 -967.078
-14.1104 13.7601 -966.96802
-12.883 13.6975 -965.68799
-12.4014 13.6771 -965.36603
-11.8989 13.6385 -965.04401
-10.4456 13.5534 -964.16498
-10.0844 13.5154 -963.78802
-9.5786695 13.4897 -963.60498
-8.4128399 13.44 -962.37
-7.84302 13.3763 -962.20203
-6.9629502 13.2898 -962.53497
-5.4475098 13.2178 -960.88397
-4.4741802 13.1389 -960.50201
-4.0109301 13.1079 -960.27002
-2.90851 13.0151 -960.02197
-2.3940401 13.0223 -959.81
-0.84942597 12.9361 -959.31702
-0.00250244 12.8628 -958.888
1.57129 12.7928 -958.573
2.42609 12.7571 -958.021
3.5341201 12.6949 -957.85303
4.55933 12.6513 -957.71399
5.4812598 12.6183 -957.43402
5.9333501 12.5678 -957.26001
6.9807701 12.5415 -957.11902
8.2396898 12.4738 -957.22498
8.61835 12.4754 -956.97101
12.2274 12.313 -956.71503
13.5502 12.2358 -956.97601
14.6849 12.19 -957.08698
15.715 12.1541 -957.14001
-29.6003 16.334 -1002.12
-29.497499 16.1672 -997.49902
-29.4107 16.052799 -995.37598
-29.494499 16.048 -993.005
-28.781601 15.8704 -992.34003
-28.569599 15.8248 -990.80298
-27.7981 15.6998 -988.505
-27.684099 15.6155 -987.03802
-27.324499 15.6062 -986.10101
-26.8841 15.5315 -985.30798
-26.153299 15.4784 -983.64502
-26.0452 15.404 -982.35797
-25.4727 15.3639 -981.85999
-24.970699 15.2732 -981.245
-24.7477 15.2394 -980.19299
-24.157499 15.179 -979.72601
-23.9429 15.1668 -978.71503
-23.725201 15.1152 -977.80798
-23.159401 15.0522 -977.45001
-22.8016 15.0386 -976.797
-22.477501 14.9944 -976.065
-21.9625 14.92 -975.638
-21.4205 14.9037 -975.22998
-21.1269 14.8767 -974.40698
-20.693399 14.8381 -973.83301
-20.3458 14.7949 -973.11603
-19.7957 14.7444 -972.75201
-19.3794 14.6954 -972.18597
-18.634899 14.6145 -971.086
-18.180401 14.5743 -970.651
-17.7798 14.5493 -970.10498
-17.315599 14.5159 -969.70099
-16.3929 14.4278 -968.80499
-15.0184 14.3294 -967.60797
-14.1271 14.2562 -966.94299
-13.7465 14.2451 -966.47198
-13.2997 14.2323 -966.05103
-12.313 14.1632 -965.44397
-11.9368 14.1275 -964.974
-11.3577 14.074 -964.73102
-10.9734 14.0179 -964.271
-10.1113 13.9394 -963.54999
-9.6140099 13.8881 -963.39301
-9.1757803 13.875 -963.04102
-8.6073599 13.8317 -962.89502
-7.8446002 13.8136 -962.039
-7.2455401 13.7639 -961.92798
-6.8449101 13.745 -961.49701
-6.33215 13.7296 -961.26801
-4.8698702 13.6333 -960.71198
-4.5419898 13.6132 -960.29901
-4.0160499 13.5808 -960.13702
-3.4564199 13.5525 -960.02802
-2.4031999 13.478 -959.711
-2.01196 13.4557 -959.32397
-0.43042001 13.3724 -958.97101
0.072753899 13.3208 -958.862
0.91589397 13.3073 -958.37201
1.39758 13.2696 -958.21899
2.4691801 13.2143 -957.98297
3.14856 13.186 -958.06299
4.0639601 13.1538 -957.69299
4.60144 13.1147 -957.66602
5.4120498 13.0945 -957.24597
6.6342201 13.0233 -957.34601
7.06458 13.0023 -957.11499
8.1292696 12.9526 -956.96198
9.3786602 12.8944 -957.12402
9.7321796 12.8785 -956.896
10.3395 12.8447 -957.02002
11.2842 12.8348 -956.81897
12.3569 12.8034 -956.79401
13.4793 12.7186 -956.79401
14.6586 12.6903 -956.94702
15.7283 12.6329 -957.073
16.3221 12.6182 -957.18701
17.376301 12.582 -957.23401
23.1649 12.3977 -958.43903
-29.2605 16.733101 -998.284
-29.337799 16.530899 -993.63397
-28.8104 16.4594 -992.46002
-28.276899 16.378901 -991.43903
-28.191299 16.311001 -989.802
-28.029499 16.2623 -988.31299
-27.559 16.1737 -987.35101
-27.136801 16.134899 -986.53998
-26.9739 16.108299 -985.28198
-26.743799 16.045601 -984.25098
-26.1971 15.9797 -983.659
-25.7013 15.9178 -982.97302
-25.342501 15.8572 -982.159
-24.856199 15.8005 -981.47699
-24.5161 15.7609 -980.60498
-24.055201 15.6795 -978.60303
-23.508801 15.6223 -978.177
-22.7159 15.5447 -976.979
-22.455799 15.5298 -976.10101
-21.868999 15.4612 -975.742
-21.552099 15.466 -974.97198
-21.0842 15.4052 -974.37799
-20.6525 15.3518 -973.77698
-19.7251 15.2358 -972.69598
-19.4508 15.2189 -971.95599
-19.0411 15.1651 -971.40399
-17.706499 15.0752 -970.15601
-16.409201 14.9755 -968.73499
-15.8856 14.915 -968.41803
-14.6346 14.8271 -967.06799
-14.1323 14.7737 -966.83801
-13.8583 14.7544 -966.17902
-12.8213 14.6207 -965.62299
-11.8684 14.5748 -964.86298
-11.3617 14.5341 -964.54901
-10.5482 14.5004 -963.70502
-9.66364 14.4444 -963.15503
-9.2177696 14.3913 -962.84601
-8.67383 14.3479 -962.672
-8.24786 14.3398 -962.31598
-7.8277001 14.3171 -961.94202
-7.2795401 14.2841 -961.74701
-6.7783799 14.2336 -961.487
-6.198 14.1938 -961.367
-5.9609399 14.1821 -960.79498
-4.88696 14.1219 -960.57202
-4.4926801 14.0831 -960.25299
-3.9749801 14.0496 -960.09399
-1.96027 13.9554 -959.297
-1.02271 13.891 -958.86603
-0.488464 13.8708 -958.776
0.077819802 13.8361 -958.784
0.99359101 13.8018 -958.37598
1.18524 13.8027 -957.81702
2.0813601 13.7424 -958.20898
3.0374801 13.6759 -957.81403
4.4909701 13.6224 -957.41302
5.54456 13.5829 -957.34497
6.51263 13.5243 -957.07898
8.1766996 13.451 -956.93402
8.7423096 13.4197 -956.91998
12.2386 13.2831 -956.56201
13.8643 13.237 -956.51001
17.934999 13.064 -957.21198
19.144699 13.0009 -957.41901
21.434799 12.9566 -957.91901
-29.368 17.507401 -1001.24
-29.070999 17.1359 -996.56
-28.7638 17.0968 -994.83099
-28.7153 17.0289 -992.85199
-28.6602 16.960899 -990.98602
-28.121099 16.880899 -990.02301
-27.995899 16.7789 -988.47601
-27.433201 16.7223 -987.69299
-27.4083 16.7083 -986.16302
-26.5679 16.6033 -986.073
-26.2978 16.524099 -983.52698
-25.796 16.486799 -982.90698
-25.341999 16.378799 -982.21698
-25.0912 16.3521 -981.14697
-24.731501 16.2848 -980.34802
-24.2817 16.253099 -979.66302
-23.9091 16.2213 -978.86298
-23.497999 16.170601 -978.211
-22.3778 16.054701 -976.13202
-21.975201 15.9847 -975.461
-21.3444 15.9145 -975.164
-21.1765 15.9114 -974.09998
-20.1215 15.8074 -973.18903
-19.7675 15.7595 -972.56799
-19.3375 15.7233 -972.047
-18.5786 15.6748 -971.01501
-17.777 15.588 -970.02502
-17.455601 15.5761 -969.39301
-16.7911 15.5102 -969.21503
-16.424299 15.4492 -968.63202
-15.9201 15.4175 -968.24701
-15.5589 15.3896 -967.62701
-15.0505 15.3295 -967.34497
-14.5955 15.2964 -966.922
-14.1955 15.2648 -966.54199
-13.7338 15.2273 -966.18201
-13.3263 15.1871 -965.742
-12.8571 15.1757 -965.40698
-12.4646 15.1261 -964.91498
-11.902 15.0876 -964.70502
-11.4858 15.0712 -964.24902
-11.0656 15.0249 -963.82599
-10.092 14.9766 -963.34003
-9.6359901 14.9527 -963.09399
-9.2453604 14.9062 -962.69897
-8.6503296 14.8733 -962.60303
-8.1888399 14.8389 -962.30298
-7.8823199 14.8205 -961.758
-6.7641001 14.7323 -961.40503
-6.3649902 14.6992 -961.02002
-5.4298701 14.6457 -960.55902
-4.5064702 14.5886 -960.14001
-4.0625601 14.5605 -959.85901
-3.1707799 14.5178 -959.32599
-2.4658201 14.4634 -959.422
-1.60016 14.4322 -958.81403
-0.52050799 14.3591 -958.68597
0.101501 14.3311 -958.73901
1.41693 14.2904 -958.026
3.0399799 14.1841 -957.75403
4.0358901 14.1368 -957.49402
5.4921899 14.0899 -957.20599
6.0092201 14.0605 -957.13898
7.1434302 14.0001 -957.12402
8.6705904 13.9507 -956.80603
9.4107103 13.903 -957.05798
11.186 13.853 -956.58099
13.5827 13.7486 -956.81403
14.7122 13.6835 -956.90198
16.276501 13.6372 -957.021
18.0354 13.5761 -957.28601
19.190201 13.531 -957.42603
21.9944 13.441 -957.99799
23.1255 13.4261 -958.25299
-28.797001 17.8421 -1000.06
-29.2379 17.760599 -996.85602
-28.5133 17.634701 -995.51398
-28.297501 17.5681 -993.81299
-28.3675 17.4764 -991.69
-28.0357 17.3951 -990.33099
-27.373501 17.297001 -987.95001
-27.2145 17.2139 -986.64899
-26.717199 17.1665 -985.90503
-26.152599 17.036501 -983.89801
-25.749201 17.014099 -983.08197
-25.2742 16.927799 -982.38599
-24.975201 16.8873 -981.41803
-24.547501 16.831301 -980.685
-24.1115 16.774 -979.95001
-23.6821 16.7276 -979.13202
-23.315701 16.673599 -978.38098
-23.038 16.6731 -977.47498
-22.791901 16.606001 -976.60699
-22.325399 16.5441 -976.09802
-21.7255 16.4869 -975.73901
-21.5749 16.451099 -974.74103
-21.0474 16.387899 -974.26001
-20.746599 16.3811 -973.49597
-20.093901 16.3332 -973.25403
-19.4235 16.277599 -971.94
-18.9436 16.216801 -971.50098
-18.715599 16.1901 -970.776
-18.1772 16.1436 -970.46002
-17.247601 16.0173 -969.53198
-16.872299 16.0226 -968.92297
-15.8942 15.9247 -968.091
-15.5836 15.8973 -967.43103
-15.1297 15.8519 -967.086
-14.6586 15.8244 -966.73798
-14.1962 15.7995 -966.40302
-13.789 15.7558 -966.00299
-13.3696 15.7179 -965.56598
-12.3471 15.6286 -965
-12.0473 15.6115 -964.37402
-11.4534 15.5707 -964.18903
-10.9659 15.535 -963.86401
-10.5296 15.5225 -963.53497
-9.7332201 15.4613 -962.815
-9.2111797 15.4219 -962.651
-8.7512798 15.3934 -962.34802
-8.3178101 15.3591 -961.99799
-7.2677002 15.2777 -961.58197
-6.7905302 15.2705 -961.30798
-6.3579102 15.2022 -961.01703
-5.67065 15.1834 -960.138
-4.7899799 15.061 -960.50897
-3.5055499 15.0282 -959.66602
-2.8726201 15.0114 -958.80103
-2.1280501 14.9923 -958.91602
-0.96502697 14.9232 -958.79999
-0.76397699 14.9312 -958.29999
0.51495397 14.8455 -958.44897
1.60168 14.7789 -958.27399
3.0628099 14.7252 -957.73199
4.1677198 14.6624 -957.672
4.60321 14.636 -957.48999
5.62537 14.6027 -957.35999
6.6715102 14.5264 -957.21997
7.7825899 14.4749 -957.12903
8.5579205 14.45 -956.61298
9.35254 14.4121 -956.93701
10.32 14.3866 -956.81799
11.9883 14.2992 -956.88
13.069 14.2586 -956.84601
14.1786 14.2342 -956.87903
15.1681 14.184 -956.80603
16.973301 14.1153 -957.242
18.1028 14.0926 -957.388
19.868099 14.0206 -957.65399
22.008499 13.9625 -958.00598
-27.320601 18.766701 -1007.71
-28.577801 18.505899 -1001.19
-28.067699 18.2022 -996.59003
-28.132099 18.1339 -994.31897
-28.030199 18.087099 -992.487
-27.802799 18.0012 -990.98602
-27.655001 17.927299 -989.38501
-26.9755 17.793699 -987.15002
-26.6094 17.710699 -986.24701
-26.396999 17.6702 -985.06403
-25.9967 17.6245 -984.21899
-25.7225 17.567101 -983.13501
-24.8965 17.4779 -981.42798
-24.724899 17.407499 -980.22998
-24.308399 17.3412 -979.41998
-23.9715 17.2974 -978.55103
-23.554701 17.2666 -977.84302
-22.98 17.175699 -977.46301
-22.623501 17.153799 -976.815
-21.8074 17.0774 -975.58502
-21.5846 17.0576 -974.69202
-21.047701 16.987 -974.27002
-20.7656 16.9594 -973.42297
-20.4074 16.907301 -972.646
-19.814301 16.8491 -972.28998
-19.355301 16.772301 -971.87299
-18.9063 16.732901 -971.39001
-18.5679 16.708 -970.82001
-18.215099 16.6978 -970.18201
-17.633801 16.6028 -969.92902
-16.815201 16.550501 -968.896
-16.394699 16.542299 -968.37799
-15.4852 16.465 -967.48297
-15.0707 16.4203 -967.03003
-14.202 16.3573 -966.27899
-13.7802 16.318501 -965.88599
-12.8232 16.2248 -965.23297
-12.3843 16.2148 -964.80701
-12.1093 16.198099 -964.14697
-11.5494 16.1457 -963.909
-10.0572 16.017799 -963.19098
-9.6443501 15.9986 -962.88599
-9.2002602 15.9764 -962.57599
-8.5848398 15.926 -962.51001
-8.4278603 15.9132 -961.71698
-7.19031 15.8399 -961.61499
-6.8399 15.8287 -961.19598
-2.3482101 15.5438 -959.43298
-1.427 15.5129 -958.98999
-0.64630097 15.4927 -958.42603
0.724365 15.4022 -957.89001
1.73419 15.3232 -958.435
1.9165 15.3455 -957.849
2.7326701 15.2948 -958.12201
3.59027 15.2466 -957.633
4.2382798 15.2012 -957.71997
4.9977398 15.1883 -957.22699
6.04211 15.1317 -957.13202
6.8062701 15.0929 -957.36798
7.7648301 15.0341 -957.07703
8.5834999 15.0289 -956.625
9.7614698 14.9677 -956.72699
10.8813 14.9196 -956.836
12.0262 14.869 -956.90503
13.214 14.8188 -957.02002
15.3314 14.7679 -957.01099
16.9471 14.6841 -957.17999
17.973301 14.6697 -957.172
22.019199 14.5342 -958.01398
25.9454 14.4217 -959.43402
-28.5205 18.9722 -998.854
-28.635599 18.814301 -995.93298
-28.3172 18.786301 -994.354
-28.4811 18.6611 -991.94202
-27.9632 18.591101 -990.92902
-27.4485 18.5252 -989.89099
-27.340599 18.4398 -988.30103
-26.844601 18.3514 -987.51501
-26.5427 18.2953 -986.40399
-26.0476 18.2036 -984.12799
-25.493 18.1334 -983.46301
-25.095301 18.066099 -982.50403
-25.0809 18.028601 -981.02002
-24.473499 17.948 -980.54999
-24.192699 17.9041 -979.508
-23.653299 17.866899 -979.00201
-23.3514 17.8218 -978.177
-22.6043 17.7561 -976.849
-21.946699 17.6563 -975.23999
-21.530701 17.594999 -974.62097
-20.9286 17.499201 -974.20001
-20.6626 17.472401 -973.36499
-20.1754 17.454599 -972.828
-19.8389 17.4188 -972.10303
-19.621201 17.3694 -971.29498
-18.9398 17.312401 -971.19598
-18.6208 17.294901 -970.56897
-17.6541 17.1675 -969.78101
-17.3141 17.151199 -969.18402
-16.834499 17.114901 -968.71802
-15.9086 17.0396 -967.83301
-15.5887 17.038099 -967.20099
-14.5691 16.9319 -966.60699
-14.1785 16.909599 -966.22101
-13.7005 16.861 -965.90802
-13.3438 16.836 -965.37201
-12.4017 16.757299 -964.71301
-11.8589 16.7386 -964.49902
-11.5422 16.6926 -963.88702
-10.522 16.629601 -963.427
-10.0313 16.5853 -963.17499
-9.6220703 16.569099 -962.875
-9.0724497 16.5179 -962.73102
-8.8101196 16.5135 -962.15601
-8.1984901 16.4694 -962.02802
-7.6592398 16.454399 -961.95697
-6.6494098 16.466499 -961.39398
-6.5178199 16.507601 -960.74799
-5.1252398 16.4112 -960.052
-2.8431399 16.192499 -958.69202
-0.56732202 16.003599 -959.297
-0.72656298 16.0366 -958.276
1.79877 15.934 -957.65399
2.72809 15.8496 -958.04901
3.5234399 15.8094 -957.49902
5.2007399 15.7201 -957.48798
6.0805702 15.6861 -957.13599
7.1353798 15.6462 -957.01099
8.78967 15.5733 -956.86401
9.7546997 15.5305 -956.69299
11.313 15.4642 -956.66602
12.1116 15.4184 -956.99597
13.0164 15.3988 -956.703
14.7593 15.3273 -956.90997
15.2704 15.3027 -956.90399
16.8454 15.2651 -957.00403
17.534401 15.2337 -957.24799
18.6464 15.1919 -957.34003
22.721901 15.0829 -958.28699
-28.438801 19.4802 -996.72699
-28.152399 19.316799 -994.896
-28.056601 19.272301 -992.914
-27.8417 19.1661 -991.30603
-27.2017 19.0376 -990.396
-27.0704 18.978201 -988.86102
-26.306601 18.8057 -985.15399
-26.029699 18.7672 -984.005
-25.6635 18.6796 -983.02899
-25.513399 18.6679 -981.82397
-25.0319 18.6059 -981.07703
-24.4063 18.5331 -980.651
-24.092501 18.498501 -979.67798
-23.8256 18.457899 -978.67499
-23.5103 18.4151 -977.85101
-22.7661 18.3183 -977.66101
-22.605801 18.268999 -976.64301
-22.348301 18.246401 -975.74597
-21.928801 18.200701 -975.08899
-21.358601 18.125401 -974.72302
-20.9028 18.0695 -974.117
-20.7717 18.0616 -973.06702
-19.8983 17.9793 -971.90601
-19.165501 17.9097 -971.89099
-19.058901 17.8965 -970.883
-18.0345 17.8104 -970.25098
-17.8281 17.7703 -969.39502
-16.9935 17.726999 -968.39502
-15.0438 17.5226 -966.88202
-14.2061 17.472601 -966.13
-12.799 17.368299 -965.15698
-12.4017 17.330601 -964.68597
-11.3981 17.2927 -964.07703
-10.821 17.2241 -963.90997
-10.0671 17.1723 -963.10797
-9.56744 17.125401 -962.92999
-9.0141602 17.1105 -962.797
-8.73279 17.0933 -962.26099
-8.09937 17.0341 -962.17999
-7.7451801 17.006001 -961.802
-7.14856 16.9727 -961.54602
-6.7246099 16.918501 -961.29901
-5.5081201 16.900801 -960.112
-3.83356 16.7353 -960.03601
-2.4153399 16.7199 -959.276
-1.86523 16.663 -959.18103
-1.65448 16.6565 -958.64203
-0.48230001 16.5945 -958.60101
0.55346698 16.5305 -958.43298
1.9456199 16.4436 -957.84198
3.13763 16.3839 -957.77399
4.7164302 16.3022 -957.54901
5.6176801 16.268499 -957.263
6.0845299 16.259001 -957.11499
8.38165 16.1651 -957.03998
9.5281401 16.112301 -957.09003
10.957 16.060699 -956.89099
12.5109 15.9945 -956.75897
13.0454 15.9772 -956.72198
14.7256 15.9095 -956.80701
15.8483 15.8713 -957.00299
17.403999 15.8368 -957.02802
18.662001 15.764 -957.34003
21.075001 15.7137 -957.90503
21.5578 15.6883 -957.96802
-28.2789 20.011299 -997.388
-27.7833 19.903099 -995.83801
-27.883499 19.841801 -993.34003
-27.514601 19.680901 -992.06
-27.423401 19.657301 -990.09601
-27.049101 19.575001 -988.85498
-26.9359 19.4893 -987.31598
-26.6364 19.419399 -986.12
-26.430401 19.382999 -984.862
-25.8641 19.314699 -984.27802
-25.7159 19.285299 -982.99701
-25.2668 19.197201 -982.22699
-24.8605 19.1681 -981.362
-24.008301 18.9809 -979.69299
-23.647301 18.9296 -978.79797
-23.169901 18.891701 -976.85699
-22.7166 18.8188 -976.37
-22.2225 18.7563 -975.82397
-21.9023 18.7029 -975.03802
-21.4844 18.679501 -974.41998
-21.0928 18.619801 -973.73297
-20.809299 18.6026 -972.92297
-20.203899 18.550301 -972.58899
-19.726 18.488199 -972.06799
-19.436001 18.4622 -971.36902
-18.9004 18.408001 -971.039
-18.442499 18.370899 -970.65698
-17.344299 18.2701 -968.94501
-15.4129 18.099199 -967.37201
-14.9949 18.068701 -966.95697
-13.8118 17.979799 -965.664
-12.8594 17.8957 -965.04401
-12.4754 17.8664 -964.57501
-11.7994 17.830099 -964.526
-11.4589 17.7938 -963.98102
-10.7939 17.752501 -963.94702
-10.4825 17.735701 -963.42499
-10.0362 17.6984 -963.13397
-9.5922899 17.679001 -962.88702
-9.0521202 17.6327 -962.72601
-8.1454496 17.5674 -962.12201
-7.65381 17.5431 -961.94098
-7.1743798 17.528099 -961.46997
-6.6829801 17.501801 -961.36298
-5.2877798 17.3978 -961.49902
-4.3275099 17.289801 -960.09802
-1.18396 17.1082 -959.23499
0.16064499 17.0562 -958.65399
0.58239698 17.065001 -958.427
1.8640701 16.9895 -957.69202
3.21399 16.9123 -957.83899
4.2536602 16.8668 -957.65601
4.7393799 16.8239 -957.56403
5.7263799 16.795099 -957.362
6.1342802 16.7995 -957.14398
7.1723599 16.7498 -956.98999
7.88837 16.6961 -957.15302
8.3936796 16.687201 -957.03198
9.4989004 16.634399 -957.00299
9.9272499 16.6224 -956.86902
11.3926 16.5884 -956.70697
12.4028 16.5291 -956.59302
13.7114 16.4624 -956.86401
14.8673 16.422199 -956.98297
16.395399 16.374399 -957.02197
24.5861 16.135401 -958.82001
-27.7346 20.5418 -998.72302
-28.149401 20.4417 -995.57202
-27.815901 20.3494 -993.85303
-27.4247 20.089199 -988.11401
-26.9177 20.0012 -987.26398
-26.0459 19.921499 -985.50403
-25.936501 19.8619 -984.23102
-25.7293 19.811701 -982.95697
-25.3309 19.7082 -982.00098
-24.818399 19.6073 -981.237
-24.409901 19.5392 -980.35199
-24.1136 19.5019 -979.31
-23.4807 19.4102 -977.60699
-22.563999 19.3123 -976.49298
-22.2738 19.2558 -975.633
-21.7929 19.219101 -975.11499
-21.4547 19.1777 -974.37701
-21.190399 19.1096 -973.49597
-20.678801 19.088301 -973.00702
-20.2222 19.032499 -972.47699
-19.688299 18.983801 -972.05402
-19.2271 18.941401 -971.63501
-19.1077 18.921 -970.69702
-18.7068 18.903601 -970.21399
-14.6501 18.558599 -966.43298
-14.1212 18.510599 -966.25598
-13.7604 18.4713 -965.77301
-13.3334 18.436199 -965.34497
-12.8245 18.395201 -965.09601
-12.2979 18.375601 -964.82599
-11.8766 18.3304 -964.40601
-11.3787 18.2946 -964.09998
-10.7634 18.226101 -963.96997
-10.4613 18.241501 -963.45898
-9.4566698 18.1646 -963.04901
-9.0039101 18.1287 -962.77802
-8.6009502 18.095699 -962.41302
-7.6307998 18.025999 -961.953
-6.9361 18.008301 -961.83899
-6.6670499 18.002899 -961.323
-6.1378798 17.973 -961.26099
-5.2332802 17.931499 -959.875
-1.15918 17.6292 -959.21802
0.82684302 17.562599 -957.91199
1.89972 17.5033 -957.70599
2.8573 17.4202 -958.15399
4.24365 17.3703 -957.60699
4.7272301 17.3297 -957.50897
5.7948599 17.266701 -957.43201
6.8175702 17.2402 -957.24701
8.4151602 17.168699 -957.03802
9.4899302 17.115499 -956.98102
10.4274 17.087299 -956.82599
11.5407 17.055401 -956.89301
12.471 17.014999 -956.659
13.7631 16.9508 -956.91199
15.8696 16.9013 -956.97101
17.087999 16.8535 -957.245
18.744699 16.799801 -957.39099
21.6082 16.699301 -957.979
22.2974 16.693199 -958.27197
23.9512 16.6474 -958.58197
-28.2878 21.1889 -998.466
-27.5704 20.7341 -991.80798
-27.1966 20.621599 -990.38702
-27.187099 20.596701 -988.51898
-25.612499 20.289101 -984.55603
-25.3908 20.2365 -983.30402
-25.1458 20.163799 -982.13
-24.604799 20.0783 -979.91302
-24.164101 20.013599 -979.19702
-23.7435 19.936001 -978.43298
-23.5191 19.9202 -977.43799
-22.977301 19.870001 -977.01398
-22.325001 19.790001 -975.46802
-21.9699 19.719801 -974.74597
-21.543301 19.672701 -974.159
-21.063499 19.6112 -973.63
-20.059799 19.5201 -972.70398
-19.8006 19.5037 -971.89099
-19.3962 19.444799 -971.37201
-19.0772 19.4284 -970.72101
-18.485901 19.379801 -970.58899
-18.145399 19.336901 -969.96002
-17.6964 19.288799 -969.49103
-14.6827 19.0688 -966.39099
-14.0511 19.0177 -966.34998
-12.7193 18.894899 -965.22498
-12.3086 18.866699 -964.77802
-11.7882 18.8141 -964.53802
-11.3714 18.7997 -964.07703
-10.7741 18.7481 -963.94598
-9.9436598 18.6772 -963.263
-9.4470797 18.6474 -963.05298
-9.0222797 18.611401 -962.72803
-8.5514498 18.588301 -962.46503
-8.0481596 18.5525 -962.216
-7.0183101 18.494101 -961.67999
-6.3309898 18.4946 -960.96503
-5.17242 18.383801 -960.73602
-4.6342802 18.4014 -960.73102
-4.1681499 18.3461 -959.43298
-1.4465899 18.168699 -958.81702
-0.47125199 18.083799 -958.521
0.60229498 18.0366 -958.40002
1.74707 17.9888 -957.49402
3.1893899 17.911301 -957.74402
4.70648 17.8426 -957.43799
5.77496 17.787701 -957.38501
6.8382602 17.718399 -957.24701
7.11444 17.735701 -956.85101
7.9324999 17.6805 -957.16602
8.8239698 17.645599 -956.81201
9.4637499 17.6136 -956.91998
10.3951 17.5781 -956.758
12.1195 17.509199 -956.89899
13.2295 17.4751 -956.91101
13.8177 17.4335 -956.95599
15.338 17.381001 -956.896
17.0397 17.3319 -957.14099
18.796301 17.2764 -957.44702
19.980801 17.2493 -957.62201
-27.9077 21.3438 -993.57599
-27.6425 21.269199 -991.76202
-27.211901 21.162701 -990.388
-27.199301 21.193399 -988.61401
-26.597401 20.9177 -986.008
-26.429399 20.848 -984.69202
-25.788601 20.7561 -984.138
-25.7652 20.760099 -982.55902
-25.4048 20.704901 -981.61401
-24.8641 20.6031 -980.90503
-24.5506 20.5564 -979.95801
-23.981899 20.475901 -979.40997
-23.7085 20.434 -978.41998
-23.3342 20.4128 -977.66699
-23.0376 20.363899 -976.867
-22.7064 20.311001 -976.14203
-22.291401 20.2414 -975.49298
-21.8571 20.1912 -974.87402
-21.6043 20.164101 -974.07098
-21.017099 20.125 -973.71997
-20.4578 20.0718 -973.34003
-20.127501 20.015699 -972.58398
-19.807199 19.9596 -971.89301
-19.3232 19.9471 -971.51398
-19.005501 19.9044 -970.85602
-17.217501 19.716499 -969.16101
-14.4706 19.508101 -966.711
-14.1392 19.494499 -966.20398
-13.5162 19.4517 -966.12799
-13.0989 19.413401 -965.69397
-12.2308 19.333 -964.896
-11.8203 19.321199 -964.466
-11.1996 19.274599 -964.31897
-10.9628 19.2348 -963.664
-9.8082895 19.1626 -963.43201
-9.3801298 19.129101 -963.15503
-8.9237099 19.0975 -962.883
-8.5353403 19.0746 -962.45898
-7.97754 19.028099 -962.27301
-7.5946698 18.9776 -961.935
-7.10779 18.997 -961.54401
-6.47717 18.9625 -961.62598
-5.06183 18.960199 -959.94299
-1.06189 18.5923 -959.31702
-0.40033001 18.5676 -958.57703
3.26563 18.3741 -957.84003
4.4379301 18.302401 -957.81
5.4465299 18.2535 -957.66901
6.2059302 18.239599 -957.164
6.9064298 18.1959 -957.341
8.9456797 18.1234 -956.95001
9.9614897 18.071199 -956.84399
11.0261 18.044701 -956.87799
13.3067 17.937 -956.98602
14.3575 17.9202 -956.91901
15.9567 17.8547 -957.04102
17.129 17.8022 -957.25098
20.5728 17.6989 -957.75702
22.2952 17.6702 -958.21399
22.959999 17.645901 -958.479
25.4265 17.5751 -959.23798
-27.440001 21.8627 -994.35199
-27.069901 21.786501 -992.80298
-27.208 21.6446 -988.30103
-26.6028 21.4771 -987.57001
-26.6856 21.424299 -985.724
-26.381201 21.377701 -984.63599
-26.010201 21.310801 -983.64301
-25.778799 21.2782 -982.44897
-25.260099 21.188299 -981.76898
-24.8372 21.129299 -980.88098
-24.114401 21.0156 -979.104
-23.699301 20.9363 -978.35101
-23.284201 20.889299 -977.74402
-22.8792 20.8486 -977.08002
-22.212601 20.7817 -975.66901
-21.8675 20.720699 -974.922
-21.5389 20.686199 -974.24298
-21.077801 20.6465 -973.64301
-20.6089 20.5709 -973.14301
-19.604799 20.490999 -972.19897
-19.2841 20.457001 -971.55798
-18.8452 20.4034 -971.09698
-18.466499 20.383801 -970.60498
-18.071699 20.341299 -970.112
-17.65 20.3055 -969.604
-15.4294 20.111799 -967.33002
-14.9408 20.0781 -967.01398
-14.3442 20.013901 -966.90503
-13.1798 19.918699 -965.57202
-12.7512 19.8801 -965.19
-12.1895 19.8402 -964.96802
-11.7361 19.801901 -964.56598
-11.2889 19.7841 -964.16101
-10.7247 19.740101 -963.98499
-9.4788198 19.632799 -962.979
-8.95502 19.585199 -962.82599
-8.4948101 19.571501 -962.51398
-7.0567598 19.503599 -961.60101
-6.1366 19.3641 -961.21399
-5.5236201 19.3971 -960.20697
-1.78839 19.1682 -959.17297
-0.18243399 19.0658 -958.85199
0.74334699 19.0037 -958.55798
1.9776599 18.941601 -958.526
1.83215 18.9673 -957.51202
3.46399 18.8804 -957.26001
4.7093501 18.808701 -957.40002
6.9615502 18.699499 -957.37299
8.0032301 18.6457 -957.21198
10.007 18.573099 -956.87903
11.0811 18.534901 -956.93903
12.1288 18.4848 -956.85199
13.3436 18.4466 -957.01501
15.9816 18.355499 -957.052
17.037001 18.326599 -957.10602
18.711201 18.2633 -957.27002
21.274799 18.1889 -958.06799
25.966499 18.0702 -959.29602
-27.483101 22.557501 -997.03802
-27.394899 22.472601 -994.69501
-27.516399 22.3535 -991.93402
-27.3174 22.164301 -990.01099
-27.1511 22.1343 -988.28699
-26.9142 22.0499 -986.98602
-26.008499 21.875099 -983.539
-25.433701 21.7605 -982.90802
-25.4333 21.731899 -981.46399
-24.7565 21.635 -980.966
-24.4858 21.613899 -979.95599
-24.0753 21.579 -979.203
-23.568001 21.4457 -978.58398
-23.2722 21.4265 -977.77802
-22.950701 21.3941 -976.99902
-22.6045 21.3248 -976.35303
-22.149599 21.2861 -975.80103
-21.732599 21.235701 -975.18903
-21.441799 21.2113 -974.38202
-21.0121 21.150801 -973.771
-20.3452 21.107201 -973.57397
-19.662399 21.009001 -972.12903
-19.3139 20.9865 -971.54602
-18.6658 20.908199 -971.41699
-18.0588 20.863501 -970.15601
-14.3864 20.5091 -966.84198
-14.1194 20.502199 -966.22803
-13.0635 20.4177 -965.729
-12.6633 20.3936 -965.302
-11.6749 20.318199 -964.66199
-11.2596 20.2976 -964.19397
-10.7393 20.242599 -963.95099
-10.2077 20.204399 -963.78003
-9.9201002 20.1875 -963.20898
-9.34869 20.133101 -963.14203
-8.5083599 20.0905 -962.48798
-7.5875201 19.997101 -961.93103
-6.4229102 19.961399 -961.63202
-6.1672401 19.985399 -961.15302
-5.4747901 19.9471 -960.24103
-2.17377 19.6994 -959.46899
-1.25781 19.652901 -959.039
-0.34008801 19.5898 -958.61603
0.66699201 19.5221 -958.38702
1.15997 19.4932 -958.23499
3.2553101 19.3813 -957.75299
3.45612 19.4105 -957.22803
4.74475 19.318701 -957.42999
5.2778301 19.2875 -957.37201
5.6954298 19.2819 -957.19897
6.1740098 19.2498 -957.06598
7.2832599 19.204901 -957.00201
8.3250704 19.150299 -956.78699
9.0214796 19.113501 -956.96802
10.0965 19.084499 -956.96899
11.0641 19.0201 -956.87299
12.6595 18.985399 -956.80603
13.8261 18.9319 -956.88098
14.469 18.9203 -957.02197
14.9224 18.9118 -956.93298
16.584999 18.8437 -957.16199
17.0707 18.817699 -957.11298
19.523899 18.7609 -957.64301
21.3176 18.7085 -958.09198
22.9172 18.6369 -958.36798
-27.451 22.759701 -989.651
-26.863001 22.6159 -988.664
-27.043501 22.591299 -986.65002
-26.426901 22.504 -985.94501
-26.448299 22.475401 -984.41998
-26.004801 22.375799 -983.54498
-25.6978 22.279699 -982.46899
-25.259399 22.239901 -981.70801
-24.7857 22.175301 -980.98798
-23.6499 22.038099 -978.534
-23.319201 21.9701 -977.79602
-22.8745 21.9401 -977.16101
-22.4189 21.870399 -976.65399
-22.3822 21.871401 -975.45001
-21.796 21.783899 -975.10999
-21.246901 21.744301 -974.70599
-20.989 21.6868 -973.82001
-19.962999 21.5763 -972.89099
-19.5285 21.5355 -972.36902
-19.194599 21.493299 -971.71198
-18.4111 21.419701 -970.72699
-18.059601 21.392 -970.12598
-17.5259 21.348101 -969.81598
-16.618401 21.271999 -968.89502
-14.6613 21.0956 -967.44
-14.3599 21.039101 -966.85797
-13.6207 20.9909 -965.93298
-13.0118 20.964399 -965.81897
-12.0894 20.888 -965.05798
-11.0869 20.764 -964.45801
-10.6813 20.7759 -964.03497
-9.2744102 20.6569 -963.27399
-9.0377798 20.6423 -962.64301
-7.5314898 20.551701 -961.98102
-6.83954 20.491199 -961.90399
-4.5882001 20.4718 -960.737
-2.6771901 20.262199 -959.72498
-1.07257 20.1234 -959.26099
0.376892 20.068199 -958.78802
0.94720501 20.0474 -957.922
2.05615 19.9494 -958.60602
1.97504 19.987 -957.69
4.3389301 19.8582 -957.60101
4.7177701 19.867901 -957.328
5.8022499 19.7913 -957.315
6.8610802 19.7425 -957.20599
7.3469801 19.726299 -957.065
8.5516396 19.6632 -957.09198
9.5170898 19.610701 -956.87701
9.9439697 19.6164 -956.742
11.5501 19.545 -956.76202
12.7006 19.491301 -956.83099
13.8762 19.443001 -956.91803
16.568899 19.3622 -957.12201
17.7458 19.3342 -957.31299
-27.541901 23.5154 -993.95398
-27.931 23.462 -990.91901
-27.164499 23.327999 -990.00897
-26.871599 23.260599 -988.54199
-26.2523 23.0278 -984.73901
-25.966 22.964899 -983.65002
-25.3694 22.9014 -983.10199
-25.014 22.813499 -982.21002
-24.7563 22.791 -981.09302
-24.5149 22.719101 -980.04401
-23.9998 22.6684 -979.43597
-23.577 22.6196 -978.67499
-23.0394 22.517 -978.23901
-22.667 22.493 -977.53601
-22.5331 22.445999 -976.54602
-22.026899 22.4132 -976.052
-21.7229 22.3524 -975.24902
-21.2904 22.316999 -974.69299
-20.7131 22.251499 -974.30499
-20.4105 22.2236 -973.505
-19.991899 22.157301 -972.85901
-19.125799 22.089899 -971.86102
-18.8634 22.047899 -971.13098
-18.2682 22.0138 -970.93103
-17.846001 21.947599 -970.47498
-14.8831 21.6686 -967.12
-14.3289 21.618401 -966.92499
-13.9701 21.569599 -966.43402
-12.5536 21.4709 -965.44098
-11.5594 21.4011 -964.80902
-11.055 21.351101 -964.47498
-10.6486 21.329901 -964.06
-9.2381001 21.2059 -963.28699
-8.7689199 21.188601 -963.04498
-8.4486103 21.165899 -962.53101
-7.8966098 21.142599 -962.33197
-7.5479102 21.118401 -961.92603
-6.4523902 21.0753 -961.52197
-5.3473501 21.0179 -961.29999
-4.5647001 21.003901 -960.56799
-2.38043 20.759199 -959.112
-1.09033 20.7117 -959.18799
-0.21575899 20.6686 -958.76501
0.768372 20.577801 -958.495
1.039 20.6052 -958.04102
2.96631 20.469801 -958.15002
3.36554 20.450899 -957.87
5.2958999 20.3764 -957.35999
5.81354 20.357401 -957.26898
7.37573 20.2831 -957.086
8.5143995 20.233299 -957.00598
9.6461802 20.17 -957.03198
10.7128 20.1325 -957.05103
11.69 20.086901 -956.91901
12.7006 20.062 -956.81299
14.4504 19.982 -956.95203
15.0847 19.9622 -957.091
16.6173 19.910999 -957.13
18.396299 19.837799 -957.466
19.412201 19.8267 -957.43402
21.2425 19.793699 -957.935
23.5026 19.7274 -958.46802
24.7386 19.700701 -958.85999
-27.459299 24.177299 -996.65399
-27.3834 24.141899 -994.14203
-27.174999 23.923 -989.98999
-26.9252 23.797199 -988.552
-26.5585 23.745001 -987.41803
-26.396 23.642 -986.06598
-26.1752 23.6008 -984.93103
-25.970699 23.5362 -983.745
-25.396999 23.4776 -983.12598
-25.0179 23.4034 -982.24103
-24.5562 23.356701 -981.48199
-24.2537 23.2827 -980.53497
-23.997801 23.2306 -979.49298
-23.584801 23.1716 -978.74103
-23.255699 23.136101 -977.966
-22.362101 23.0231 -976.84698
-21.9863 22.9785 -976.12402
-21.662201 22.9482 -975.328
-21.312401 22.8887 -974.67603
-20.954 22.8347 -973.95099
-20.443199 22.7647 -973.466
-19.884399 22.725401 -973.09302
-19.4289 22.694099 -972.552
-18.9811 22.6325 -972.09802
-18.556 22.5851 -971.58398
-17.808399 22.483601 -970.56201
-17.501699 22.467199 -969.84698
-16.9958 22.431801 -969.50598
-16.0399 22.334801 -968.625
-12.9986 22.0826 -965.79303
-12.4414 22.0404 -965.59497
-12.0287 21.973 -965.146
-11.4913 21.9541 -964.89801
-11.0865 21.9266 -964.40302
-10.5996 21.8836 -964.08899
-10.136 21.8507 -963.83899
-9.7373695 21.8204 -963.45697
-9.2400503 21.764299 -963.27399
-8.8699999 21.749701 -962.83899
-8.4359703 21.7528 -962.51898
-7.64709 21.693501 -961.73602
-6.13239 21.6134 -961.065
-2.4827299 21.382401 -958.92798
-1.49304 21.3048 -958.617
1.08899 21.167 -958.08002
2.0117199 21.1068 -957.67798
3.0471201 21.032101 -958.24402
3.5780599 21.047701 -957.30402
4.49512 20.985901 -957.74799
6.3943501 20.875099 -957.284
7.0226402 20.8458 -957.35699
7.4416499 20.8235 -957.14301
8.8784199 20.768801 -956.68298
10.7112 20.6973 -957.01801
13.3545 20.5765 -956.88702
13.9753 20.557501 -956.98401
15.5466 20.5165 -956.99103
17.197599 20.4555 -957.21997
18.8234 20.4209 -957.29999
20.1322 20.344299 -957.69098
22.381201 20.330999 -958.21503
-26.9016 24.6436 -994.802
-27.423599 24.577499 -991.69397
-27.204599 24.4492 -989.94702
-26.713699 24.3398 -987.31
-26.236401 24.2381 -986.46399
-26.0961 24.1646 -985.21997
-25.9391 24.149799 -983.91998
-25.319599 24.0695 -983.34601
-24.608601 23.933399 -981.44702
-24.627701 23.9018 -980.03601
-23.924801 23.8368 -979.68103
-23.5646 23.7626 -978.836
-23.173599 23.7047 -978.12402
-22.6418 23.648199 -977.66901
-22.3967 23.633499 -976.84497
-22.1012 23.552799 -976.039
-21.48 23.498899 -975.69202
-21.199301 23.4611 -974.88098
-20.7677 23.389299 -974.23499
-20.436501 23.3526 -973.52502
-19.6959 23.2882 -973.35797
-19.3871 23.262899 -972.63501
-19.163099 23.2026 -971.83099
-18.5914 23.174299 -971.55499
-18.139299 23.1383 -971.14502
-17.8962 23.084 -970.422
-17.0123 22.994301 -969.50598
-13.9135 22.752501 -966.48999
-13.467 22.684299 -966.13397
-12.503 22.611799 -965.48901
-12.0694 22.5497 -965.07202
-11.1 22.4779 -964.38397
-10.5536 22.4303 -964.14801
-10.1513 22.4209 -963.76703
-9.7449999 22.396299 -963.40698
-9.2796001 22.365601 -963.17603
-8.80585 22.3316 -962.91901
-8.4592304 22.3027 -962.448
-7.60956 22.2341 -962.698
-6.27917 22.1429 -961.72998
-5.7234502 22.120399 -961.69202
-5.4334102 22.0907 -960.98999
-5.1838999 22.0578 -960.60999
-4.6032701 21.954599 -960.45898
-4.1658902 21.969801 -960.20001
-3.59357 22.0105 -960.14001
-0.47143599 21.804899 -958.35901
0.44787601 21.723801 -958.81897
0.98376501 21.709101 -958.72198
2.26703 21.637699 -958.841
3.3198199 21.6015 -957.73297
3.75861 21.580601 -957.51202
4.4678302 21.538099 -957.69501
6.29041 21.4566 -957.06897
7.49792 21.413401 -957.17999
7.9869399 21.366501 -957.04199
8.5719604 21.357 -957.02197
9.0477304 21.3494 -956.89899
10.2458 21.265301 -957.06799
11.1111 21.247101 -956.823
12.2059 21.2199 -956.823
13.417 21.158001 -956.95099
15.035 21.1108 -956.95697
17.3193 21.0382 -957.34998
18.972799 20.981701 -957.46899
20.6523 20.934299 -957.70001
23.0089 20.8804 -958.38501
24.861099 20.832701 -958.97699
-27.782499 25.437201 -996.24902
-27.679399 25.2353 -993.68201
-27.503799 25.1572 -991.80103
-27.0282 25.062201 -990.45099
-26.7756 24.9634 -989.06097
-26.141199 24.8111 -986.79498
-25.932899 24.735901 -985.64502
-25.380899 24.6581 -984.84802
-25.121901 24.600201 -983.77002
-25.0079 24.5417 -982.43298
-24.2356 24.4067 -980.70099
-23.750099 24.3773 -980.00403
-23.378099 24.278999 -979.16498
-23.113001 24.2498 -978.271
-22.3335 24.108999 -976.93903
-21.939301 24.101 -976.28198
-21.5368 24.0709 -975.58197
-20.9219 23.967699 -975.297
-20.3333 23.884501 -973.71698
-19.883101 23.849899 -973.09302
-19.409401 23.7754 -972.60199
-19.017799 23.738199 -972.06201
-18.5331 23.680401 -971.67102
-17.4837 23.597099 -969.875
-16.3741 23.474501 -969.28302
-16.023899 23.4664 -968.69
-14.2811 23.293699 -966.95001
-12.9743 23.177601 -965.797
-12.4286 23.130699 -965.59302
-12.0186 23.0951 -965.12299
-11.4119 23.049 -964.96002
-11.0458 23.0312 -964.44202
-10.6987 22.978201 -963.93103
-10.0273 22.9568 -963.94
-9.5760498 22.937099 -963.65601
-9.2220497 22.8927 -963.26801
-8.8141499 22.8766 -962.88
-7.53827 22.769699 -961.84399
-6.7103901 22.700701 -962.01898
-6.3291001 22.7092 -961.62701
-5.8357501 22.6628 -961.50702
-5.10321 22.5907 -960.68799
-4.2182598 22.5571 -960.138
-3.37585 22.4918 -960.45398
-3.54901 22.607 -959.24799
-2.18665 22.441601 -959.34698
-1.3139 22.360201 -959.64502
-1.0058 22.362 -959.23401
-0.30200201 22.324301 -958.59998
0.86035198 22.241301 -958.56403
2.1066301 22.1667 -958.55798
3.35864 22.136101 -957.74103
3.64886 22.123199 -957.315
4.9017301 22.066999 -957.50403
5.5487099 22.025101 -957.63
6.3220201 21.9799 -957.125
9.22192 21.8664 -957.09998
10.3104 21.794001 -957.13501
12.2496 21.737301 -956.85602
13.4563 21.687099 -956.987
16.673 21.5821 -957.13202
18.568899 21.519699 -957.61102
18.987101 21.520901 -957.46399
21.307899 21.464001 -957.92902
24.311001 21.384701 -958.84003
-27.282499 25.735701 -994.49298
-27.6651 25.691401 -991.73999
-27.0009 25.568001 -990.755
-26.645599 25.4454 -989.448
-26.497299 25.3792 -987.966
-25.875799 25.275801 -985.724
-25.8484 25.223101 -984.29199
-25.1094 25.130501 -983.90198
-24.514 24.972601 -981.80298
-24.195 24.9417 -980.81799
-23.7901 24.861799 -979.99701
-23.4611 24.8057 -979.10602
-23.098 24.7579 -978.32898
-22.7141 24.694401 -977.62201
-22.179199 24.624201 -977.19299
-21.756201 24.5874 -976.59802
-21.3925 24.534401 -975.87299
-20.9443 24.489901 -975.341
-20.740801 24.451099 -974.33899
-20.238501 24.388399 -973.849
-19.863701 24.334499 -973.16199
-19.247601 24.2878 -972.85797
-18.8915 24.236601 -972.25098
-18.559401 24.1929 -971.63599
-18.1257 24.1602 -971.20898
-17.729601 24.121 -970.66302
-16.324499 24.006901 -969.36603
-15.9879 23.9447 -968.72699
-14.7178 23.8354 -967.31897
-13.8007 23.762699 -966.65698
-11.9935 23.5833 -965.15601
-11.4888 23.5637 -964.83398
-11.0895 23.5151 -964.36499
-10.6513 23.489 -963.99103
-9.6887197 23.4305 -963.479
-8.7436504 23.3573 -962.98102
-8.2246103 23.3137 -962.771
-7.6729102 23.2778 -962.57202
-7.3225698 23.273001 -962.13
-5.9521499 23.1689 -961.28003
-5.0875902 23.095501 -960.67999
-4.5039101 23.0739 -960.48297
-3.91553 23.0172 -960.51398
-3.37463 22.9834 -960.48199
-0.48858601 22.816 -959.07898
0.75445598 22.7563 -959.16699
0.92071497 22.7348 -958.591
2.33533 22.6474 -958.06598
3.5053101 22.5905 -957.94
3.9756501 22.5938 -957.771
4.84167 22.5655 -957.36102
6.0036001 22.4932 -957.44501
6.4630098 22.4587 -957.29999
7.5323501 22.4328 -957.16302
8.65271 22.3715 -957.099
9.1571703 22.353901 -956.98297
10.2007 22.3123 -956.93597
11.7386 22.2241 -956.87903
13.9203 22.1919 -956.815
16.7313 22.0578 -957.18103
17.7908 22.071899 -957.21301
19.5823 21.994499 -957.534
-27.5728 26.353901 -994.27197
-26.9282 26.184099 -993.23499
-26.924 26.146 -991.12201
-26.7719 26.018 -989.41901
-26.501801 25.9499 -988.16302
-26.1819 25.8584 -986.96997
-25.749001 25.7799 -986.078
-25.5173 25.722601 -984.90399
-25.2507 25.6423 -983.72198
-24.8008 25.569201 -982.93298
-24.191299 25.4396 -980.87
-23.548901 25.376499 -980.42102
-23.293301 25.3312 -979.46399
-22.924 25.237801 -978.68402
-22.624201 25.187099 -977.83398
-21.3008 25.025101 -976.06799
-20.9974 24.9972 -975.27502
-20.5576 24.938 -974.659
-19.7363 24.845501 -973.36603
-19.4319 24.823099 -972.63098
-18.8638 24.745501 -972.32001
-18.544901 24.694 -971.69897
-18.1924 24.652901 -971.10797
-17.1859 24.5632 -970.36499
-13.7287 24.2446 -966.755
-12.8422 24.167299 -965.98602
-12.4722 24.1362 -965.48401
-11.9351 24.0837 -965.22498
-11.0632 24.0247 -964.36401
-10.576 23.984301 -964.08899
-8.7351103 23.850401 -962.97803
-8.2443199 23.7885 -962.724
-7.88727 23.790701 -962.245
-6.7263198 23.6917 -961.94897
-6.4197998 23.6964 -961.45099
-5.0892901 23.606001 -960.67798
-4.5420499 23.548401 -960.435
-3.2440801 23.520201 -959.646
-2.6635101 23.469 -959.61499
-1.58215 23.382099 -959.258
0.94470203 23.2372 -958.59003
2.24225 23.1339 -958.70099
2.3346601 23.150499 -958.02502
3.5950899 23.065201 -958.034
4.5560298 23.049101 -957.703
6.0524902 22.994699 -957.50098
7.1013799 22.9188 -957.33301
7.5834999 22.897699 -957.20398
8.7875996 22.8339 -957.24402
10.2805 22.789101 -957.008
11.7557 22.749001 -956.854
12.7213 22.706499 -956.646
14.5723 22.6141 -956.93799
17.881599 22.536501 -957.323
19.560499 22.502701 -957.46899
21.919399 22.4109 -958.099
-27.6031 27.0448 -997.70203
-26.802401 26.873699 -995.99103
-26.942699 26.728901 -993.38202
-26.6332 26.6035 -991.81097
-26.273899 26.5126 -990.40198
-26.1099 26.4095 -988.83698
-26.1672 26.3491 -987.08002
-25.7892 26.311399 -986.11401
-25.3885 26.189199 -985.198
-25.0595 26.121099 -984.13098
-24.7988 26.090799 -983.04303
-24.4265 26.0075 -982.06897
-23.6481 25.866199 -980.33197
-23.2484 25.811701 -979.50403
-22.9105 25.748699 -978.76599
-22.5872 25.7174 -977.90802
-22.316999 25.67 -977.11401
-21.817301 25.6052 -976.58301
-21.4181 25.541401 -975.91302
-20.833599 25.4685 -975.58002
-20.603201 25.427 -974.61401
-20.3319 25.3946 -973.76099
-19.190599 25.2778 -972.987
-18.812099 25.2229 -972.43701
-18.523899 25.178801 -971.69501
-18.0385 25.1413 -971.32599
-16.9531 25.032801 -969.55902
-16.3417 24.9683 -969.32898
-13.6564 24.736 -966.85199
-13.3326 24.6833 -966.297
-11.3295 24.5315 -965.073
-10.9596 24.5054 -964.54498
-10.0008 24.421301 -963.94702
-9.7086802 24.4095 -963.409
-9.1807299 24.3755 -963.258
-8.6942701 24.3367 -963.021
-8.4055796 24.302999 -962.47198
-7.6942101 24.2651 -962.52002
-7.3773799 24.2248 -962.065
-6.2396898 24.146601 -961.69202
-6.0551801 24.1392 -961.07599
-4.5116601 24.113501 -960.578
-3.80969 24.0786 -959.76599
-0.60961902 23.819401 -958.90399
-0.305603 23.788799 -958.48901
0.94549602 23.6999 -958.56702
2.2268701 23.6535 -957.83197
3.7636099 23.573299 -957.40302
4.6245699 23.5128 -957.77502
5.09796 23.5007 -957.67603
7.14221 23.398701 -957.375
8.1157198 23.370701 -957.09802
8.8634596 23.3319 -957.32599
10.8183 23.240601 -957.02698
11.8674 23.211 -956.98401
15.1933 23.086901 -957.065
16.7721 23.0256 -957.172
19.133101 22.9701 -957.59003
22.5109 22.900999 -958.242
25.615101 22.8412 -959.23602
-27.4123 27.4828 -995.30603
-26.9067 27.327999 -993.80298
-26.3978 27.164 -992.409
-26.2847 27.059601 -990.61401
-26.1367 26.948299 -989.02301
-25.8284 26.9058 -987.83801
-25.4023 26.742701 -985.31702
-24.979 26.653799 -984.38397
-24.6735 26.596001 -983.30103
-24.070999 26.473801 -981.263
-23.768801 26.403099 -980.19098
-23.174801 26.329201 -979.72101
-22.8153 26.281 -978.95398
-22.567699 26.246 -978.013
-22.216 26.170799 -977.32703
-21.263 26.080799 -976.185
-20.8501 26.0065 -975.54199
-20.5704 25.9645 -974.65802
-20.250401 25.9181 -973.89203
-19.681801 25.862499 -973.48901
-19.253401 25.7997 -972.91199
-18.942101 25.7533 -972.20099
-18.4526 25.717699 -971.802
-17.9907 25.658501 -971.42902
-17.155001 25.5814 -970.41498
-16.316 25.481899 -969.37
-14.0389 25.280701 -967.27698
-13.8115 25.26 -966.60699
-12.2445 25.1374 -965.841
-12.0022 25.099701 -965.11902
-10.925 25.011299 -964.59601
-10.5688 24.993 -964.06403
-10.058 24.927401 -963.85797
-9.4899302 24.910101 -963.71997
-9.0639 24.861099 -963.42603
-8.6687002 24.8155 -963.05402
-8.2860699 24.8374 -962.61102
-7.7117901 24.7712 -962.51398
-7.3172002 24.719101 -962.09698
-6.2652602 24.691099 -961.63501
-5.73456 24.6131 -961.539
-4.6521001 24.542101 -961.284
-4.5065899 24.5256 -960.474
-3.26227 24.4352 -959.495
-2.1988499 24.4184 -959.21503
-1.2478 24.346399 -959.62701
-0.45343 24.3002 -959.06299
0.62744099 24.242901 -958.93201
1.06244 24.2073 -958.72998
2.2058101 24.1416 -957.78497
3.2766099 24.0802 -958.375
3.67395 24.065001 -958.091
5.08075 23.986401 -957.64203
6.15485 23.9505 -957.56598
8.06458 23.870701 -957.00098
9.1353102 23.8113 -956.87
9.7073402 23.808001 -956.896
10.7137 23.788799 -956.841
14.6771 23.6054 -957.03497
15.7753 23.5746 -957.12701
20.367599 23.455299 -957.84302
20.945101 23.415199 -957.97601
-26.192301 27.945101 -997.73901
-26.924101 27.8799 -994.06403
-25.962799 27.724001 -993.33899
-25.926901 27.508101 -989.52301
-25.935499 27.4408 -987.79498
-25.590099 27.375401 -986.72198
-25.481199 27.310801 -985.263
-24.896099 27.222799 -984.591
-24.7728 27.172899 -983.245
-24.4587 27.084299 -982.19
-24.093599 27.0427 -981.26898
-23.415899 26.9217 -980.85901
-23.166901 26.885799 -979.79401
-22.7325 26.8174 -979.151
-22.4154 26.7353 -978.263
-21.7505 26.657301 -976.77802
-21.287001 26.591299 -976.18799
-20.993 26.5327 -975.32898
-20.6129 26.4776 -974.65198
-19.749599 26.3841 -973.409
-19.155001 26.3312 -973.09198
-18.770599 26.2738 -972.50201
-18.3841 26.2411 -971.91803
-17.871201 26.1539 -971.604
-17.191099 26.0898 -970.37299
-16.2686 26.006599 -969.453
-13.6436 25.751499 -966.85901
-12.6986 25.6789 -966.16498
-11.8253 25.6113 -965.35699
-11.3107 25.557899 -965.08698
-10.5012 25.4974 -964.15601
-9.93396 25.4585 -964.02802
-9.4232798 25.418501 -963.81201
-9.1085796 25.379801 -963.35699
-8.5582304 25.333799 -963.19598
-8.0869102 25.300699 -962.89001
-7.5890498 25.2535 -962.63599
-7.3626699 25.239799 -962.00598
-6.2859502 25.1901 -961.58801
-5.2165499 25.092899 -961.16602
-4.2961998 25.1229 -960.70599
-3.5111101 25.076401 -960.09497
-2.1035199 24.9314 -959.28497
-1.13586 24.843201 -958.90997
-0.1604 24.7969 -958.63397
1.04431 24.7089 -958.65601
2.2349899 24.670799 -957.771
3.2144201 24.604 -958.27502
3.9423201 24.5709 -957.58698
4.9910302 24.5352 -957.46698
5.5799599 24.488199 -957.53998
7.2186298 24.403099 -957.43402
8.3123798 24.3911 -957.32397
9.2863798 24.333401 -957.05103
10.2588 24.2778 -956.883
14.7233 24.112 -957.04901
16.3043 24.068001 -957.16699
16.8342 24.033501 -957.20898
17.489799 24.0476 -957.396
19.124599 23.996 -957.51001
23.8822 23.898199 -958.77899
-26.3904 28.445101 -995.30103
-26.1998 28.16 -991.15802
-25.5443 28.058599 -990.37701
-25.7437 28.025499 -988.27802
-25.687201 27.953699 -986.72101
-25.1492 27.8508 -985.979
-24.8172 27.771299 -984.836
-24.5439 27.692301 -983.73499
-24.266899 27.6161 -982.55902
-23.909201 27.562401 -981.659
-23.218 27.465099 -981.22198
-22.7603 27.3701 -980.50403
-22.324301 27.301901 -978.48999
-21.9655 27.238001 -977.75897
-21.531099 27.193501 -977.15002
-21.208599 27.137501 -976.35999
-20.7822 27.0788 -975.72302
-20.4321 27.039499 -974.92999
-19.833401 26.9534 -974.57703
-19.349001 26.881599 -972.79199
-18.7164 26.828501 -972.59601
-17.925501 26.719601 -971.55603
-17.5502 26.6719 -970.97601
-17.2052 26.6257 -970.36798
-16.2803 26.547701 -969.43799
-15.2457 26.424999 -968.68298
-13.1445 26.2484 -966.58197
-11.8426 26.1378 -965.31598
-10.7963 26.032 -964.73102
-10.364 26.003099 -964.33197
-9.8439302 25.9687 -964.15002
-9.5678101 25.942801 -963.55402
-8.7280302 25.8717 -962.90698
-8.1293297 25.8349 -962.80298
-7.4826002 25.7871 -962.78101
-5.8838501 25.660101 -961.27802
-5.1773701 25.619101 -961.21399
-4.3113999 25.5861 -960.703
-4.1975098 25.561701 -959.96802
-2.3380699 25.504801 -958.89301
-1.23926 25.3876 -959.58099
0.183411 25.287399 -959.06201
1.09802 25.224501 -958.70001
1.26563 25.242701 -958.117
2.1779799 25.2103 -957.677
3.12585 25.1322 -958.099
4.06494 25.085199 -957.737
5.0275898 25.030899 -957.47302
5.5994301 25.007601 -957.521
6.5938101 24.9603 -957.31201
7.4893799 24.942801 -956.95099
8.2874804 24.894199 -957.24298
9.2514 24.8694 -956.94702
10.3366 24.802601 -956.95801
12.3664 24.7278 -956.82001
13.5388 24.680099 -956.901
14.1367 24.6654 -956.95502
15.2803 24.6052 -957.08899
16.318701 24.583799 -957.14697
17.905899 24.568001 -957.24902
19.735901 24.511499 -957.60101
20.9249 24.4517 -957.89099
-26.347799 29.119101 -995.953
-26.388901 28.924101 -993.26801
-26.328899 28.7486 -991.19702
-26.055201 28.716499 -989.70203
-25.2563 28.501301 -987.534
-25.3179 28.485201 -985.828
-24.7971 28.357 -984.96399
-24.529499 28.2593 -983.823
-23.511499 28.0984 -982.349
-23.388901 28.058201 -981.04303
-22.9641 27.991899 -980.245
-22.681601 27.9366 -979.32599
-22.3309 27.8787 -978.51398
-21.628901 27.7656 -977.03699
-21.1726 27.7124 -976.43701
-20.6199 27.657801 -975.992
-20.4161 27.5916 -974.97302
-19.985201 27.5546 -974.341
-19.5588 27.4725 -973.73102
-19.1071 27.423201 -973.17102
