# .PCD v0.7 - Point Cloud Data file format
VERSION 0.7
FIELDS x y z
SIZE 4 4 4
TYPE F F F
COUNT 1 1 1
WIDTH 1599
HEIGHT 1
VIEWPOINT 0 0 0 1 0 0 0
POINTS 1599
DATA ascii
-0.92883301 -12.0418 -959.28101
1.53571 -12.6838 -958.81097
2.18402 -12.849 -958.65503
4.83148 -13.4937 -958.32202
-28.8813 0.152466 -1024.53
-32.127998 0.35797101 -1017.36
-32.507401 0.38382 -1016.48
-32.548199 0.31015 -1015.73
-32.905201 0.219147 -1014.16
-33.1777 0.226593 -1013.35
-33.509499 0.165161 -1011.84
-33.499199 0.0473633 -1010.44
-33.635399 0.034393299 -1009.74
-33.9772 -0.00354004 -1008.29
-34.026699 -0.071746796 -1007.62
-34.166 -0.15487701 -1006.27
-34.067902 -0.249725 -1005.62
-34.335602 -0.240417 -1004.89
-34.370399 -0.33602899 -1003.61
-34.316502 -0.450409 -1002.33
-34.3475 -0.52294898 -1001.7
-34.249901 -0.60342401 -1001.1
-34.248501 -0.74432403 -999.271
-34.269001 -0.83398402 -998.05902
-34.076302 -0.94632 -997.50598
-33.544899 -1.1553299 -997
-33.658901 -0.77206397 -994.60699
-33.1684 -0.97341901 -994.11798
-32.2318 -2.0176101 -990.42499
-32.160099 -1.6723599 -988.31
-30.4786 -2.37097 -985.33698
-29.6343 -2.69751 -983.95599
-29.337299 -2.8331599 -982.99902
-28.409401 -3.7662399 -980.29199
-27.681801 -3.5211501 -979.35699
-26.769501 -3.8301101 -978.48901
-25.8298 -4.2559199 -975.72699
-24.156601 -5.3393602 -973.79901
-23.8535 -4.9300499 -973.323
-23.178801 -5.1395302 -972.53802
-22.2547 -5.4714999 -971.37201
-21.4671 -5.7390399 -970.62903
-20.8596 -5.89081 -970.284
-19.528099 -6.3171401 -968.80902
-19.128099 -6.4490099 -968.46802
-17.419901 -6.9854698 -967.47302
-16.922001 -7.15308 -966.69202
-16.6625 -7.2427402 -966.27197
-16.0991 -7.4393902 -965.94
-15.3859 -7.6333299 -965.24902
-13.0348 -8.27069 -964.203
-11.5696 -8.6857004 -963.323
-10.9979 -8.8593798 -963.047
-10.3436 -9.0279503 -962.76703
-9.8145103 -9.1909504 -962.48199
-7.5736098 -9.8035002 -961.41901
-6.2114301 -10.178 -960.94098
-5.7357202 -10.3047 -960.68103
-3.6956799 -10.8202 -959.99103
-1.53693 -11.3877 -959.40503
0.77111799 -11.9781 -958.90198
1.61102 -12.1988 -958.75098
3.22034 -12.0779 -958.40601
4.0503502 -12.807 -958.36603
6.7381001 -13.4509 -958.09998
-31.5327 0.69955403 -1017.44
-32.3298 0.74633801 -1015.71
-32.694199 0.70367402 -1014.14
-32.865398 0.68527198 -1013.36
-33.217899 0.630615 -1011.81
-33.730598 0.51861602 -1008.95
-33.5905 0.384644 -1008.3
-33.9701 0.38497901 -1006.88
-34.037701 0.243774 -1005.55
-34.270802 0.218475 -1004.2
-34.264198 0.054992702 -1002.25
-34.229401 -0.036682099 -1001.65
-34.257599 -0.116028 -1000.41
-34.266499 -0.16571 -999.81403
-34.1353 -0.299591 -998.61603
-33.938202 -0.50723302 -996.87598
-33.701 -0.65069598 -995.724
-32.903301 -1.13754 -993.026
-32.906399 -1.14139 -992.48199
-32.534901 -1.36053 -991.41199
-32.024601 -1.09732 -990.336
-31.6003 -1.29877 -988.77802
-31.230801 -1.4769 -987.78101
-31.517099 -1.94107 -986.77698
-30.6877 -1.83435 -985.23798
-29.046301 -2.405 -982.96899
-28.419701 -2.71225 -980.61298
-27.397499 -3.0946701 -979.32098
-27.944901 -3.4400301 -978.85498
-26.7852 -3.3278201 -978.38702
-26.4893 -4.0224299 -976.54901
-25.6782 -3.82568 -975.23102
-23.775 -4.4429002 -973.27502
-22.378201 -4.9186702 -971.71802
-22.2111 -4.95261 -971.29401
-20.219999 -5.6188402 -969.47803
-19.447599 -5.8312702 -968.73999
-18.409 -6.1601901 -968.078
-17.6029 -6.4166899 -967.39301
-17.4216 -6.46347 -967.01398
-16.656 -6.6999502 -966.68903
-16.4653 -6.77811 -966.30798
-16.1077 -6.8963299 -965.90997
-15.1564 -7.1936598 -965.24298
-14.6472 -7.3521399 -964.961
-14.0562 -7.4879799 -964.71698
-12.3954 -7.9533701 -963.86298
-10.9135 -8.3497295 -962.98602
-10.2207 -8.5460501 -962.70398
-9.8035898 -8.6694002 -962.40399
-9.1129799 -8.8413696 -962.14301
-8.5014 -9.0335398 -961.888
-7.8647499 -9.20996 -961.64301
-6.8193402 -9.4842501 -961.11102
-4.8305101 -10.0177 -960.41302
-4.1574702 -10.1977 -960.18597
-2.88397 -10.536 -959.729
-0.73870802 -11.0789 -959.16498
0.090881303 -11.2671 -959.00098
1.6929899 -11.679 -958.69
5.9499502 -12.7387 -958.117
-31.3067 1.19147 -1017.43
-31.909901 1.1716599 -1015.72
-32.274101 1.17575 -1014.9
-32.538502 1.17972 -1014.09
-32.7701 1.17618 -1013.32
-33.3395 1.10211 -1011.05
-33.391899 1.0029 -1009.64
-33.656399 1.00845 -1008.88
-33.758999 0.82424903 -1006.87
-33.856998 0.710693 -1005.51
-34.144402 0.76052898 -1004.81
-34.056198 0.61325097 -1003.52
-34.0518 0.49011201 -1002.24
-34.239899 0.45892301 -1000.96
-34.206001 0.38134801 -1000.35
-34.0443 0.282013 -999.78198
-34.037102 0.23074301 -999.18298
-34.124802 0.203003 -998.55499
-34.138699 0.18026701 -997.93799
-33.9006 0.0454407 -997.388
-33.9958 -0.021118199 -996.19897
-33.711399 -0.157288 -995.66101
-33.473099 -0.25659201 -995.14001
-33.226799 -0.415436 -994.03101
-31.200399 -0.96456897 -987.71002
-31.4748 -0.95758098 -986.659
-30.600201 -1.35501 -984.211
-29.5294 -1.70068 -983.81702
-28.545799 -2.1082201 -981.49103
-27.052099 -2.7490799 -978.27899
-26.9335 -3.35602 -977.35303
-26.3092 -3.0583799 -976.89203
-25.8752 -3.20908 -976.02197
-24.1113 -3.81512 -973.61298
-23.081699 -4.1799598 -972.40601
-22.5819 -4.3205299 -972.04401
-22.3337 -4.4068899 -971.63501
-21.7714 -4.5967398 -970.84601
-21.403601 -4.7169199 -970.47998
-20.042999 -5.1423001 -969.40802
-19.298599 -5.3498802 -968.68103
-18.3281 -5.66467 -968.01801
-17.851101 -5.8006601 -967.68597
-17.217501 -6.00845 -967.36298
-17.1283 -6.0304899 -966.974
-16.629499 -6.1742201 -966.64099
-16.3381 -6.2690401 -966.28198
-15.3644 -6.5708599 -965.60602
-14.8973 -6.7164602 -965.29102
-14.3016 -6.9031701 -965.00897
-13.8486 -7.0135498 -964.703
-13.1933 -7.1953402 -964.42603
-12.7042 -7.3158302 -964.11298
-12.4149 -7.39182 -963.78101
-7.3389902 -9.3443604 -961.36603
-6.17731 -9.1351299 -960.79401
-5.4209599 -9.3358202 -960.58099
-3.52771 -9.8365202 -959.88397
-2.0885 -10.214 -959.47101
1.02771 -10.9755 -958.77502
1.7026401 -11.1376 -958.59802
3.55316 -11.6331 -958.36499
-31.129 1.7886699 -1018.25
-31.797701 1.7384 -1016.49
-32.231602 1.6267999 -1014.1
-32.757801 1.7062401 -1013.27
-33.195801 1.59824 -1011
-33.264 1.5541101 -1010.29
-33.270401 1.49042 -1009.6
-33.481201 1.4733599 -1008.87
-33.736099 1.36722 -1006.8
-33.7845 1.29303 -1006.12
-33.877899 1.26376 -1005.44
-33.933201 1.24292 -1004.77
-34.027901 1.17374 -1004.1
-34.133099 1.12479 -1002.79
-34.126801 1.00275 -1001.53
-34.107399 0.88641399 -1000.32
-33.809799 0.72674602 -999.74597
-33.932098 0.57870501 -997.31702
-33.595501 0.97210699 -996.716
-33.8922 0.47995001 -996.14899
-33.595901 0.89550799 -995.53802
-32.7145 -0.155029 -992.896
-32.7033 0.369019 -992.30103
-31.4667 -0.81851202 -988.729
-30.531099 -0.66949499 -986.68799
-30.340099 -1.35049 -985.75598
-30.2292 -0.89099097 -984.67297
-29.3318 -1.2048301 -983.77301
-29.3633 -1.77881 -982.85303
-29.0804 -1.35742 -982.34198
-28.0714 -2.3159201 -980.10999
-27.911501 -2.3801899 -979.66602
-27.308201 -2.0557899 -979.211
-26.641001 -2.3659999 -977.22601
-26.429199 -2.4603 -976.32599
-25.4821 -2.7762799 -975.10303
-24.7726 -3.03931 -974.29498
-23.007601 -3.6289999 -972.78497
-22.0168 -3.9519999 -971.17102
-21.2418 -4.2056899 -970.43597
-19.2327 -4.8488202 -968.63898
-18.0436 -5.1774902 -967.57703
-17.030899 -5.4854698 -966.90002
-15.9413 -5.8266001 -966.28003
-15.7126 -5.8923602 -965.91101
-15.0969 -6.0811501 -965.60699
-12.6843 -6.7859802 -964.039
-12.1478 -6.9655199 -963.74103
-11.8475 -7.0383301 -963.414
-11.2001 -7.2081599 -963.14398
-10.6597 -7.3576398 -962.86298
-8.5573702 -7.94592 -961.72101
-7.83002 -8.16605 -961.48602
-6.63831 -8.4349403 -960.97699
-3.9321301 -9.1746798 -960.06897
-3.3125 -9.3292503 -959.85199
-2.69244 -9.45648 -959.63098
-1.9390301 -9.6710796 -959.43701
-1.39606 -9.8357496 -959.216
-0.55554199 -10.0541 -959.04401
1.78589 -10.6376 -958.54303
5.2589102 -11.4748 -958.073
5.9542799 -12.2192 -958.03998
6.88904 -11.8687 -957.88202
-31.8974 2.2019 -1014.86
-32.332001 2.2460599 -1014.03
-32.555 2.2204599 -1013.25
-32.856899 2.1452301 -1011.66
-33.316101 2.0118699 -1008.83
-33.444901 1.83551 -1006.78
-33.715099 1.7251 -1004.75
-33.872601 1.6359299 -1003.42
-33.9632 1.6228 -1002.77
-33.916302 1.49683 -1001.49
-33.783401 1.31396 -999.67999
-33.5667 1.17651 -999.11603
-33.877499 1.2168601 -998.453
-33.807301 1.15228 -997.85498
-33.823799 1.10663 -997.25897
-33.497898 0.82855201 -994.974
-32.8339 0.53759801 -993.94098
-32.353901 0.18005399 -991.22998
-31.7019 0.242798 -987.47998
-31.2731 -0.381531 -987.61298
-30.8962 -0.013092 -987.06201
-30.563801 -0.24047901 -985.07001
-30.308201 -0.82665998 -985.15698
-29.440599 -0.62210101 -983.69299
-29.207899 -0.75851399 -982.73798
-28.230801 -1.15228 -980.41998
-27.598101 -1.96997 -978.70398
-24.7076 -2.51581 -974.229
-23.439301 -3.45294 -973.17603
-22.555901 -3.2419701 -971.87903
-21.7603 -3.4949 -971.12903
-20.0282 -4.0516701 -969.27698
-19.257799 -4.2821002 -968.57098
-17.739 -4.7393198 -967.52197
-15.6085 -5.3795199 -965.84003
-14.7688 -5.6442299 -965.18103
-14.2233 -6.3490901 -964.95398
-13.2164 -6.0815101 -964.25
-12.6729 -6.2605 -963.95203
-11.1525 -6.6887498 -963.06299
-10.0546 -6.9713702 -962.51801
-9.5 -7.1201801 -962.237
-8.4878502 -7.41467 -961.65997
-7.8626099 -7.6010699 -961.40302
-5.9219999 -8.1037903 -960.672
-5.3137202 -8.2645302 -960.42798
-4.5654302 -8.4635897 -960.20001
-3.9895 -8.5739098 -959.961
-2.5189199 -8.9891701 -959.56702
-1.1452 -9.3294401 -959.19397
0.29095501 -9.7052898 -958.82599
3.5180099 -10.5397 -958.21997
5.2196002 -10.9203 -957.99298
6.1876202 -11.1629 -957.91602
-31.8969 2.7679701 -1014.79
-32.379799 2.7132001 -1013.22
-32.7015 2.6282001 -1011.61
-32.986301 2.6543 -1010.88
-33.454201 2.5878301 -1008.73
-33.593102 2.5567901 -1008.03
-33.397499 2.3939199 -1006.74
-33.5909 2.31247 -1005.36
-33.689201 2.0876801 -1002.76
-33.709 1.88055 -1000.24
-33.886799 1.82758 -998.97998
-33.701 1.71158 -998.41199
-33.602798 1.6487401 -997.82898
-33.303001 1.4277 -996.677
-33.403301 1.39713 -995.50403
-33.4296 1.3125 -994.36499
-32.861099 1.08542 -993.86401
-32.169701 0.68801898 -991.18201
-31.141399 0.180756 -988.60602
-29.502001 0.047271699 -985.61603
-29.270901 -0.114624 -983.63098
-28.789101 -0.304535 -982.71399
-28.5284 -0.455383 -981.26898
-28.228001 -1.11972 -981.37903
-27.971399 -0.68545502 -980.37799
-27.818199 -1.3000799 -979.99298
-26.8496 -1.68863 -977.65198
-26.055201 -1.46674 -976.68597
-26.1103 -1.47421 -976.22302
-24.8046 -1.91687 -974.599
-24.506399 -2.01401 -974.18903
-24.1497 -2.68964 -973.87
-22.806 -3.1589999 -972.29901
-22.233 -2.76776 -971.84497
-21.223 -3.0925 -970.29102
-20.273399 -3.95807 -969.64203
-19.0919 -3.76193 -968.47803
-18.223101 -4.5967999 -967.86298
-16.917299 -4.44098 -966.77301
-15.4531 -4.85254 -965.77899
-15.1063 -4.97189 -965.45001
-14.6051 -5.1265602 -965.12402
-13.5205 -5.4408598 -964.51202
-13.233 -5.5299401 -964.18402
-11.5671 -5.9935002 -963.28699
-10.9214 -6.1884799 -963.01398
-10.4209 -6.3331599 -962.71899
-8.7739296 -6.7611098 -961.90601
-8.33002 -6.8763399 -961.59802
-7.0418701 -7.22791 -961.09399
-3.95099 -8.0312204 -959.89502
-3.2924199 -8.2192097 -959.68298
-1.89368 -8.5917997 -959.27301
0.340332 -9.1419697 -958.755
1.12134 -9.3398705 -958.60303
4.3692598 -10.1096 -958.01898
6.3001699 -10.581 -957.85101
-31.6691 3.34061 -1015.57
-32.022202 3.3061199 -1013.96
-32.500401 3.3210101 -1013.13
-32.364799 3.1223099 -1011.6
-32.748798 3.1573501 -1010.85
-32.831001 3.0497701 -1009.48
-33.381802 3.0797701 -1007.99
-33.434399 2.9059801 -1005.99
-33.772598 2.9084499 -1005.25
-33.738602 2.70715 -1003.3
-33.564098 2.45612 -1000.78
-33.697498 2.37326 -999.54999
-33.402401 2.1470001 -997.78497
-33.615799 2.1519499 -997.14502
-33.195599 1.99933 -996.62097
-33.313301 2.5357699 -995.95203
-33.252899 1.87262 -994.88599
-32.669998 1.61215 -993.82397
-32.3013 1.40149 -992.75702
-31.7299 1.03061 -990.05902
-31.497 0.88592499 -988.48401
-29.5753 0.59780902 -984.51501
-29.2075 0.41253701 -983.57202
-28.8535 0.257202 -982.64099
-28.1954 -0.0095825205 -981.24701
-27.828501 -0.77188098 -979.46198
-26.864401 -0.585693 -977.96802
-26.6896 -0.64544702 -977.50098
-26.6558 -0.69345099 -977.039
-25.969601 -0.94485497 -976.625
-25.2162 -1.7617199 -974.98798
-24.582701 -1.42584 -974.539
-23.883801 -1.65308 -973.73499
-23.7463 -1.7148401 -973.31799
-23.471399 -1.7916 -972.91602
-19.849701 -2.9731801 -969.11798
-19.0378 -3.2339201 -968.40002
-18.0592 -3.5362501 -967.72699
-15.8904 -4.1778302 -966.03497
-14.6317 -4.5574298 -965.034
-12.5401 -5.1469102 -963.815
-10.4929 -5.7101698 -962.62097
-8.2318697 -6.35886 -961.54303
-7.5668302 -6.5371099 -961.27899
-6.4155302 -6.8615999 -960.76898
-5.6655898 -7.0518498 -960.54901
-4.59094 -7.3004799 -960.03998
-3.9179699 -7.4956102 -959.83197
1.26227 -8.7993202 -958.52502
2.0573101 -9.0047903 -958.38098
4.64783 -9.6351299 -957.98999
6.4282799 -10.0858 -957.802
-31.440701 3.79901 -1014.74
-31.828501 3.7950699 -1013.94
-31.859301 3.6451099 -1012.44
-32.685398 3.8071599 -1011.45
-32.779301 3.67538 -1010.11
-33.128502 3.5601499 -1007.98
-33.3549 3.50949 -1006.58
-33.6133 3.3728299 -1004.56
-33.676899 3.3340499 -1003.87
-33.512901 3.2288499 -1003.26
-33.702099 3.1560099 -1001.93
-33.726101 3.1061399 -1001.25
-33.678799 3.0466599 -1000.65
-33.5406 2.8968799 -999.49799
-33.538799 2.85443 -998.87799
-33.3265 2.7392299 -998.32001
-33.416302 2.7185099 -997.716
-32.994598 2.4071 -995.422
-32.757 2.19626 -993.76099
-32.522099 1.95834 -991.55103
-32.348202 1.7957799 -989.80103
-31.520399 1.3966399 -987.91199
-30.7747 1.54388 -986.33502
-30.541901 0.94171101 -985.43903
-30.434 0.89489698 -984.91498
-28.7223 0.78219599 -982.58301
-27.9613 0.48196399 -981.21002
-27.817499 0.37933299 -980.24402
-26.694799 -0.0052795401 -978.953
-26.254801 -0.147003 -978.02197
-25.3223 -0.604065 -975.70001
-23.297001 -1.31973 -972.87201
-22.008499 -1.73483 -971.29401
-21.729799 -1.8143899 -970.90399
-20.820299 -2.0999501 -970.172
-20.052799 -2.9081399 -969.513
-19.8132 -2.4405501 -969.05298
-18.927401 -2.7107501 -968.33197
-17.6752 -3.09677 -967.29901
-16.619499 -3.41397 -966.67499
-16.1849 -3.5239301 -966.32898
-15.7231 -3.6492 -965.97101
-15.2635 -3.8008699 -965.64801
-13.9091 -4.1851501 -964.66699
-13.5326 -4.3104601 -964.33698
-12.8619 -4.5011601 -964.07397
-11.9404 -4.7702899 -963.44202
-10.1827 -5.2580299 -962.58698
-9.7381601 -5.3678598 -962.29102
-6.9259 -6.1578698 -960.95599
-6.3564501 -6.3011198 -960.70502
-5.0328999 -6.6422701 -960.22699
-4.5747099 -6.7432899 -959.96802
-3.08038 -7.1651602 -959.56799
-2.3522301 -7.3601398 -959.35901
-1.61304 -7.5535002 -959.16498
-0.77313203 -7.74191 -958.98297
0.58300799 -8.07407 -958.60199
3.0820899 -8.6922302 -958.18903
3.89343 -8.8740797 -958.05402
-30.870501 4.2470398 -1015.6
-31.499399 4.2715101 -1013.96
-32.105301 4.2696199 -1012.35
-32.443699 4.2091098 -1010.77
-32.7533 4.1726999 -1009.34
-32.801399 4.0886502 -1008.64
-33.368698 3.8761599 -1004.45
-33.634399 3.83636 -1003.1
-33.809101 3.76053 -1001.74
-33.742699 3.6287501 -1001.09
-33.442101 3.3270299 -998.23602
-33.3815 3.24756 -997.65601
-33.042702 3.4599299 -994.70697
-32.8158 2.8006301 -994.24597
-32.571899 2.69699 -993.70001
-32.439899 2.58408 -992.58502
-32.538601 2.5557599 -992
-32.311199 2.4192801 -990.84601
-32.473499 2.3984101 -990.15198
-31.9879 2.1191399 -988.63098
-30.7663 2.16501 -986.81897
-30.1437 1.94489 -986.37299
-28.477699 1.24338 -982.51801
-27.824699 0.98352098 -981.15601
-27.358601 0.78814697 -980.23102
-26.555901 0.501221 -978.90198
-26.277399 0.37564099 -977.97302
-26.3729 0.38613901 -977.49701
-26.5737 -0.16073599 -977.091
-25.440599 0.0079345703 -975.61603
-24.540899 -0.198975 -976.802
-25.001101 -0.181366 -974.78101
-24.423 -0.926727 -974.03998
-22.5527 -1.54721 -972.08398
-22.1031 -1.14612 -971.64001
-19.7377 -1.89658 -968.98401
-18.9314 -2.14539 -968.24597
-17.888599 -2.4791901 -967.59302
-17.5275 -2.5920701 -967.24902
-16.7782 -2.80515 -966.58398
-14.9364 -3.3519599 -965.22302
-13.8313 -3.6642799 -964.60699
-12.8703 -3.94608 -963.98999
-12.3383 -4.0885901 -963.71002
-11.4308 -4.3709998 -963.08099
-10.8759 -5.0486498 -962.85199
-10.2526 -4.70996 -962.51898
-9.7078896 -4.85953 -962.23798
-9.1161499 -4.9945102 -961.95099
-8.08179 -5.2745099 -961.40503
-7.3600502 -5.4672899 -961.17499
-6.8206801 -5.63412 -960.91101
-1.62781 -6.9818401 -959.086
2.1715701 -8.4828501 -958.31299
4.8319702 -8.5620403 -957.87799
5.70435 -8.7856102 -957.77899
-30.25 4.9443102 -1018.1
-30.417299 4.34589 -1017.28
-30.8036 4.9390001 -1016.33
-31.080999 4.91675 -1015.5
-31.670401 4.7133198 -1012.37
-32.7141 4.7127399 -1009.29
-32.931198 4.6870699 -1008.54
-33.0424 4.64993 -1007.85
-33.3083 4.6256399 -1006.42
-33.522202 4.2933998 -1002.89
-33.708801 4.2288499 -1001.63
-33.535301 4.6444702 -1000.99
-33.024799 3.87045 -999.435
-33.263199 3.8185401 -998.20898
-33.168499 3.74231 -997.61401
-33.0854 3.61432 -996.422
-33.1017 3.5307901 -995.25201
-32.641998 3.00931 -990.60901
-32.515999 2.9080501 -990.02301
-32.191299 2.7375801 -989.51001
-31.955601 3.1932399 -989.052
-28.9769 1.53757 -985.49298
-28.9741 1.97641 -983.87799
-28.5931 1.8204 -982.44501
-27.8783 1.51859 -981.07703
-27.5739 1.39386 -980.133
-26.7722 1.07626 -978.80103
-26.076099 0.81216401 -977.92999
-25.514299 0.59234601 -976.48199
-24.716101 0.24948099 -974.76202
-23.705799 -0.59616101 -973.62598
-22.929399 -0.86181599 -971.95898
-22.505699 -0.50524902 -971.94098
-21.83 -0.72192401 -971.16498
-18.867001 -1.64648 -968.20398
-16.5086 -2.3733499 -966.534
-15.729 -2.6003399 -965.81799
-15.2181 -2.7468901 -965.49799
-14.8329 -2.8664601 -965.17401
-13.7512 -3.19525 -964.539
-13.3009 -3.3128099 -964.224
-12.7618 -3.4636199 -963.92499
-10.272 -4.1739802 -962.42999
-9.58002 -4.3768902 -962.17297
-8.5976601 -4.62045 -961.60602
-4.91364 -5.60391 -960.12598
-4.19098 -5.7829599 -959.90802
-2.1122999 -6.3109698 -959.26398
-1.48248 -6.48422 -959.03998
-0.84826702 -6.6665301 -958.82898
-0.091918901 -6.8586402 -958.65601
1.64746 -7.2561002 -958.35797
3.1054101 -7.6069298 -958.04602
4.0411401 -7.8477502 -957.93103
4.8546801 -8.04568 -957.81897
6.5980802 -9.0072603 -957.68402
-31.1437 5.36975 -1014.67
-31.4224 5.3248301 -1013.83
-31.7194 5.32974 -1013.07
-32.0439 5.3678598 -1012.26
-32.145 5.2938499 -1011.44
-32.5662 5.3421602 -1010.58
-32.7742 5.2645001 -1009.17
-32.891102 5.13449 -1007.8
-33.5723 5.0670199 -1005.44
-33.451099 4.96558 -1004.75
-33.5909 4.8872399 -1003.44
-33.487701 4.7315698 -1002.22
-33.243 4.5205698 -999.94598
-32.412498 3.7046199 -993.57703
-32.311199 3.6022899 -992.42102
-32.523399 3.6321399 -991.771
-32.285599 3.4665201 -991.18103
-32.636101 3.48279 -990.48999
-32.570499 3.4452801 -989.953
-31.957399 3.7446001 -989.505
-30.739201 3.2879 -987.74597
-29.783701 2.7876 -986.29303
-28.6569 2.43555 -983.85999
-28.3057 2.2388301 -982.41901
-27.830799 2.02405 -981.01001
-27.1656 1.78067 -980.117
-26.764999 1.58722 -978.73901
-26.011101 1.28348 -977.87402
-25.764799 1.12433 -975.909
-24.6686 0.76931798 -974.69397
-24.056299 0.53979498 -973.90503
-23.2222 0.27334601 -973.57001
-22.103701 -0.113647 -971.49402
-19.847 -0.84121698 -969.24701
-18.7988 -1.16953 -968.14099
-16.416 -1.86859 -966.453
-14.2961 -2.5134599 -964.78101
-13.7208 -2.6693399 -964.47998
-13.1505 -2.85321 -964.177
-11.1755 -3.3901999 -962.97302
-10.5885 -3.56534 -962.68298
-10.1296 -3.6823101 -962.37299
-8.9539804 -4.0369902 -961.83398
-7.7916298 -4.3281898 -961.30499
-7.0509 -4.5360699 -961.05701
-6.03479 -4.7989202 -960.534
-4.9404898 -5.0771499 -960.05499
-4.0917401 -5.2696199 -959.84198
-3.40576 -5.4502602 -959.612
-2.1829801 -5.7582998 -959.17902
-1.47339 -5.9696002 -959.00098
-0.79858398 -6.14886 -958.79401
0.94152802 -6.5912199 -958.46002
2.4284699 -6.9321599 -958.15399
6.8081698 -7.9932299 -957.58301
-32.313801 5.7810402 -1010.47
-32.820099 5.8464999 -1009.63
-32.907398 5.7481399 -1008.3
-33.0583 5.7263198 -1007.63
-32.893398 5.5532198 -1006.9
-33.069302 5.5177898 -1006.14
-33.4464 5.5450101 -1005.4
-33.476398 5.5144 -1004.7
-33.432301 5.2757301 -1002.21
-33.3438 5.0843201 -1000.42
-33.234501 4.9506202 -999.29199
-33.179199 4.8913298 -998.68799
-32.896999 4.7522001 -998.12402
-33.319099 4.7790198 -996.70898
-33.063301 4.5321999 -994.979
-32.974899 4.46561 -994.43402
-32.552898 4.2849398 -993.40698
-32.4739 4.5500498 -991.53302
-32.2038 4.4260898 -990.5
-32.212101 4.3645301 -990
-30.935499 3.94434 -989.20099
-28.818001 2.9420199 -983.29199
-28.322001 2.7606201 -982.35901
-27.460501 2.3708501 -980.01898
-26.582001 2.0460501 -978.69397
-25.517599 1.55646 -975.87402
-24.7808 1.31381 -975.06897
-24.025999 1.05203 -974.29797
-24.123199 1.0845 -973.84302
-23.368299 0.85223401 -973.47803
-19.8729 -0.32635501 -969.16803
-18.631901 -0.72415203 -968.091
-17.6812 -0.99527001 -967.41101
-16.463699 -1.35129 -966.37598
-15.5926 -1.61691 -965.69897
-14.23 -2.0221901 -964.71002
-13.7574 -2.15765 -964.40503
-11.4172 -2.81741 -963.27197
-9.99261 -3.2154801 -962.33899
-9.5736704 -3.3270299 -962.02899
-7.1455102 -3.9712501 -960.98199
-5.85815 -4.3362999 -960.48999
-4.7667799 -4.5984201 -960.008
-2.04144 -5.2961998 -959.11102
-0.64312702 -5.6629 -958.755
0.164307 -5.8703599 -958.59601
1.82349 -6.2799702 -958.255
2.5309401 -6.4470501 -958.09698
3.2815599 -6.6245999 -957.95001
5.2213101 -7.0875902 -957.72803
6.0103102 -7.2754502 -957.61902
6.7958999 -7.4470201 -957.51501
-32.4963 6.2983999 -1010.3
-32.6199 6.2107201 -1008.89
-33.3428 6.0752902 -1005.39
-33.306 6.0052199 -1004.73
-32.963001 5.8120399 -1004.13
-33.140099 5.5740099 -1000.43
-33.0336 6.0336599 -999.815
-33.166901 5.4844398 -999.24701
-33.198101 5.4304199 -998.60901
-33.134701 5.3536701 -997.98102
-33.139599 5.2167702 -996.63599
-32.865101 5.10818 -996.091
-32.858101 4.93292 -994.34601
-32.733799 4.8605299 -993.80603
-32.641201 4.74158 -992.60999
-31.5217 4.75809 -990.62097
-30.538799 4.3680401 -990.22803
-30.386801 4.21487 -987.57202
-30.6161 3.74298 -986.66602
-29.9014 3.4941399 -986.20398
-29.466101 3.7452099 -984.14899
-28.8904 3.5132401 -983.70398
-28.079599 3.21573 -982.31598
-27.611 2.4663701 -980.98102
-27.6828 3.0223401 -980.89301
-27.1315 2.8290401 -979.98901
-26.701401 2.6003699 -978.60602
-26.4653 1.92108 -977.17798
-25.950001 2.2423699 -976.67798
-24.800699 1.8383501 -975.00598
-24.0688 1.60938 -974.19897
-23.995001 1.57794 -973.75702
-22.9499 1.2064199 -972.56403
-22.338499 1.01651 -971.758
-21.5993 0.75820899 -970.99298
-20.681 0.46832299 -970.27002
-19.8743 0.21606401 -969.53198
-19.628799 0.129761 -969.133
-19.1266 -0.042877201 -968.79401
-18.438999 -0.23645 -968.05298
-17.5718 -0.49713099 -967.36603
-17.181601 -0.60342401 -967.021
-16.393999 -0.85769701 -966.31
-14.4442 -1.4300801 -965.00299
-14.0552 -1.5236501 -964.67603
-13.6605 -1.65417 -964.34802
-12.5173 -1.98984 -963.74402
-11.3795 -2.30966 -963.20697
-10.4944 -3.0980799 -962.63202
-7.0969801 -3.48312 -960.92499
-6.57794 -3.6095901 -960.65997
-5.7188101 -3.8341401 -960.435
-5.3806801 -3.91205 -960.185
-4.0933199 -4.2708998 -959.71198
-3.2713599 -4.4642301 -959.50098
-1.9213901 -4.7891798 -959.05798
-1.0656101 -5.0204501 -958.89398
0.307861 -5.3710899 -958.61603
3.4270599 -6.1125798 -957.89697
4.28333 -6.8631001 -957.83502
6.2849102 -6.84518 -957.59497
-32.5084 6.8129902 -1009.55
-32.744499 6.8034101 -1008.84
-32.744301 6.6585999 -1007.46
-32.788898 6.6053801 -1006.79
-33.1511 6.6475801 -1006.06
-33.007 6.2873201 -1002.82
-33.0849 6.1822801 -1001.55
-32.894501 6.07196 -1001.01
-33.094299 5.8695102 -997.97198
-32.877899 6.15308 -995.52301
-32.4128 5.9628601 -995.01001
-32.2747 5.8776202 -994.44397
-32.867199 5.4164701 -993.76501
-32.496899 5.2607098 -993.20502
-32.3708 5.10992 -992.04199
-32.191002 5.0417199 -991.53601
-32.233601 4.9895601 -991.01898
-30.8841 5.0451398 -989.11902
-29.0198 4.1185899 -983.63397
-28.802999 3.4762599 -983.22101
-28.0937 3.7656901 -982.25299
-27.089701 3.3413401 -979.922
-26.328899 3.04965 -978.60303
-24.6471 2.51794 -976.80701
-25.287201 2.5991199 -976.216
-25.048 1.9400001 -975.422
-19.250099 0.54678297 -968.71002
-17.144501 -0.077179 -966.94202
-16.098 -0.395264 -966.27899
-15.3283 -0.62133801 -965.58899
-14.8117 -0.76190197 -965.276
-14.3839 -0.87780797 -964.94
-13.4037 -1.1617399 -964.31097
-12.8783 -1.3205 -964
-10.9438 -1.84549 -962.82001
-10.2764 -2.0538299 -962.53302
-9.1903095 -2.3377399 -961.94897
-8.3876305 -2.5727501 -961.35699
-6.9213901 -2.93823 -960.862
-4.34479 -3.6303999 -959.94598
-3.74036 -3.78738 -959.69299
-3.2997401 -3.89572 -959.427
-1.7284499 -4.2882099 -959.01599
1.5835 -5.14047 -958.49701
2.1964099 -5.2646499 -958.27197
3.6275599 -5.6076002 -957.867
-32.184299 7.3538499 -1010.26
-32.754902 7.1543598 -1006.74
-32.931301 7.0546899 -1005.37
-33.137402 6.9945698 -1004
-32.810902 6.5755901 -1000.4
-32.822701 6.52811 -999.79401
-32.890499 6.4247699 -998.55103
-32.471699 6.2090502 -997.40698
-32.4091 6.0421801 -996.19098
-32.185101 5.6868601 -992.67603
-31.619699 5.9961901 -992.21503
-31.2735 5.24646 -990.65601
-31.125999 5.2105999 -989.55402
-30.549101 5.4003 -987.98297
-27.9849 4.3480201 -983.69299
-26.822201 3.8101201 -979.89099
-26.063999 3.49402 -977.60699
-26.025299 2.91995 -977.11603
-25.381701 3.1465499 -975.69397
-24.649 2.8733799 -974.87201
-24.3305 2.77005 -974.461
-22.914101 1.74625 -972.48901
-21.6173 1.85944 -971.27399
-19.5429 1.2013201 -969.45099
-18.4536 0.86886603 -967.91199
-17.1304 0.45184299 -966.87402
-16.0453 0.13867199 -966.216
-15.2215 -0.113159 -965.53802
-12.9093 -0.76901197 -963.92603
-12.1909 -0.969971 -963.65302
-11.6323 -1.13388 -963.362
-9.7788095 -1.6566499 -962.18701
-9.2268105 -1.80856 -961.89801
-8.7608004 -2.45486 -961.64398
-7.69696 -2.2333701 -961.039
-6.1620498 -2.6091299 -960.56702
-4.25177 -3.1264999 -959.888
0.929138 -4.3958998 -958.64899
1.8335 -4.6199298 -958.51001
2.5372901 -4.7896399 -958.32001
3.1038799 -4.9242902 -958.10602
3.90552 -5.13416 -957.90302
4.6162701 -5.3189702 -957.71802
-31.3692 7.9339299 -1012.56
-31.771999 7.9351802 -1011.77
-32.130501 7.8944402 -1010.22
-32.402401 7.8227801 -1008.78
-32.592499 7.7256198 -1007.35
-32.916698 7.5531301 -1004.62
-32.778099 7.3777199 -1003.33
-32.381802 7.1689801 -1002.18
-32.4823 7.0883799 -1000.99
-32.8069 7.0611 -999.75201
-32.6292 6.9487 -999.16998
-32.5718 6.7818599 -997.33197
-32.2299 6.5697598 -996.18799
-32.122101 7.05582 -995.56
-32.4272 6.5280499 -994.961
-32.319599 6.4446998 -994.40802
-31.6429 6.1198702 -993.367
-31.612499 6.5650301 -991.65503
-31.4664 6.4330702 -990.50098
-31.379 6.3480802 -990.09601
-31.010599 6.1814599 -989.48901
-30.7295 5.5457802 -989.08502
-28.5569 5.0038099 -982.55798
-28.0058 4.82758 -982.146
-27.2516 4.5300298 -980.74103
-26.105101 4.0830102 -978.49597
-25.3297 3.7941301 -977.64801
-25.7442 3.9180601 -977.104
-24.490499 3.43188 -975.27899
-21.6329 2.42557 -971.203
-20.2649 1.99637 -970.11499
-19.067101 1.6160001 -968.56598
-18.2932 1.37024 -967.85999
-17.762899 1.19846 -967.53101
-14.7217 0.311676 -965.13898
-14.2418 0.175598 -964.82397
-13.3299 -0.645935 -964.25598
-12.1354 -0.442902 -963.58698
-11.2464 -0.67303503 -963.01801
-10.7248 -0.832672 -962.69397
-9.5653095 -1.13361 -962.13098
-8.4208403 -1.45715 -961.57001
-7.4448199 -1.7309901 -961.00201
-6.8284302 -1.88629 -960.74799
-5.4986 -2.2291901 -960.255
-4.8502202 -2.41049 -960.02698
-2.9635 -2.8909299 -959.34003
-2.15955 -3.0866699 -959.12097
-1.2674 -3.3143301 -958.96198
1.9251699 -4.0581398 -958.48499
2.7701399 -4.2529602 -958.33301
3.6479499 -4.4841299 -958.18201
4.4239502 -4.6696801 -958.00403
5.1242099 -4.8499799 -957.828
6.9133301 -5.2433801 -957.612
-30.216101 8.5855999 -1016.59
-30.5753 8.5274401 -1014.91
-31.1327 8.6318998 -1014.07
-30.900101 8.3661203 -1012.64
-31.6448 8.4914904 -1011.73
-31.812599 8.44736 -1010.97
-31.9772 8.43011 -1010.19
-32.2341 8.4046001 -1009.43
-32.563202 8.2811298 -1007.29
-32.4482 8.1179504 -1005.95
-32.863201 8.0352802 -1003.88
-32.432098 7.6441002 -1000.89
-32.525002 7.6235399 -1000.31
-32.473801 7.47824 -999.10498
-32.499901 7.3638301 -997.89001
-32.424999 7.3049002 -997.30298
-31.812799 6.8204002 -993.87097
-31.236 6.5578899 -992.836
-31.554399 6.5380902 -991.15601
-27.9709 4.79318 -981.65002
-27.370399 5.1260099 -980.66199
-26.925699 4.3912401 -979.81598
-26.437401 4.73419 -978.37799
-26.3657 4.68887 -977.93402
-25.481701 4.4158001 -977.55603
-24.9284 4.1542101 -976.151
-24.982901 4.16187 -975.651
-24.1894 3.8478401 -974.34497
-23.740499 3.13937 -974.02802
-22.7698 2.79175 -972.36902
-21.226299 2.8457 -970.76801
-19.6686 2.3598001 -969.27301
-19.0103 2.15411 -968.50702
-18.1343 1.88599 -967.81097
-16.5732 1.43054 -966.82501
-15.9415 1.22537 -966.086
-15.4844 1.08679 -965.76898
-14.951 0.93255597 -965.43903
-14.4123 0.76675397 -965.11102
-14.1572 0.70376599 -964.763
-13.6829 0.0090332003 -964.51501
-12.6756 0.28659099 -963.82098
-12.0812 0.109894 -963.521
-11.4948 -0.059082001 -963.24597
-11.0554 -0.17694101 -962.96301
-10.0324 -0.44222999 -962.34399
-8.4426899 -0.87493902 -961.50702
-7.7948599 -1.0650899 -961.23199
-7.2522001 -1.19879 -960.94702
-6.7733798 -1.32822 -960.67499
-5.4836998 -1.68625 -960.185
-2.96527 -2.33707 -959.27197
-2.0469999 -2.5529201 -959.08197
-1.20331 -2.74646 -958.93903
0.33258101 -3.1139801 -958.73602
1.34784 -3.37076 -958.61798
3.7014201 -3.89905 -958.15503
4.5559101 -4.1248202 -958.01501
5.2704501 -4.2917199 -957.87
6.1832299 -4.4962802 -957.76202
7.0433998 -4.67697 -957.66602
-30.2138 9.2013197 -1016.61
-30.489201 9.1945496 -1015.72
-30.750299 9.09161 -1014.13
-31.101 8.9750996 -1012.55
-31.4608 9.0191698 -1011.71
-31.828199 9.0122995 -1010.88
-31.993999 8.8990498 -1009.43
-32.190601 8.8964796 -1008.66
-32.385201 8.7776804 -1007.24
-32.612499 8.72153 -1005.83
-32.698502 8.5429096 -1003.89
-32.942902 8.4817495 -1002.49
-32.867001 8.3917799 -1001.87
-32.376701 8.0035696 -999.04102
-32.278 7.7589998 -996.66803
-31.969101 7.6255498 -996.11798
-32.277302 7.6766701 -995.47699
-32.137299 7.5779099 -994.90698
-31.428499 7.2271099 -993.32098
-30.898899 7.0016799 -992.22803
-31.4512 7.0592699 -991.63702
-30.4795 6.4435701 -987.94397
-27.6499 5.3961501 -983.62402
-28.2209 6.0539198 -982.47198
-27.7855 5.88202 -982.039
-27.0982 5.5873098 -980.63599
-26.603701 5.3808298 -979.25598
-26.052999 5.1813998 -978.35101
-24.633699 4.6293898 -976.16803
-24.195999 4.4517798 -974.737
-23.715799 4.2579999 -973.89801
-23.4974 4.1732798 -973.46802
-22.2967 3.7815599 -972.29901
-19.329901 2.82321 -968.82202
-18.781401 2.6582301 -968.47498
-18.023899 2.4146399 -967.74701
-15.811 1.7418801 -966.02899
-15.4195 1.62323 -965.69501
-14.8337 1.47171 -965.38599
-12.0018 0.61645502 -963.47498
-11.5403 0.52828997 -963.17297
-10.9276 0.356354 -962.89801
-10.5651 0.259918 -962.57599
-9.8670702 0.049835201 -962.29401
-9.5 -0.053375199 -961.98499
-8.7927904 -0.236206 -961.71997
-7.2109399 -0.64053297 -960.87799
-6.0216098 -0.98565698 -960.37903
-4.20087 -1.43619 -959.651
-2.84869 -1.79245 -959.25598
-1.73663 -2.09656 -959.10999
1.3140301 -2.7697101 -958.55902
2.04565 -2.95068 -958.40698
2.92365 -3.1530199 -958.26001
4.6224999 -3.56674 -957.992
6.29144 -3.95383 -957.758
-30.790001 9.5832195 -1013.29
-30.816601 9.4921904 -1012.52
-31.4095 9.5683899 -1011.65
-31.666599 9.4681997 -1010.14
-31.941 9.4755602 -1009.34
-32.021999 9.3013296 -1007.92
-32.461498 9.2971201 -1006.49
-32.437 9.1513996 -1005.1
-32.631401 9.0934095 -1003.83
-32.557301 8.9948397 -1003.21
-32.692001 8.7398996 -999.992
-31.7358 8.2739897 -997.87799
-31.737 7.9751601 -994.35901
-31.5158 7.8234901 -993.23297
-31.3239 7.61169 -991.56299
-30.6422 7.8182998 -990.01398
-30.4431 7.6788301 -989.43701
-30.787399 7.1826801 -988.37598
-27.4734 6.41394 -983.54797
-27.521299 6.3592501 -981.99103
-27.7229 6.4057598 -981.47803
-27.0231 6.1465802 -980.55798
-26.4776 5.9264798 -979.66803
-25.856899 5.6508799 -978.31299
-25.1103 5.3810401 -976.56
-24.3771 5.1352201 -976.15802
-24.238899 5.0408301 -975.21698
-23.738899 4.8597398 -974.31897
-23.176901 4.6473098 -973.48901
-18.3223 3.0466599 -968.06097
-17.629999 2.8527501 -967.33801
-16.132601 2.4246199 -966.34198
-14.39 1.88416 -964.97601
-13.5217 1.6415401 -964.328
-13.1224 1.51923 -964.00598
-12.5581 1.36551 -963.698
-11.9919 1.19727 -963.40198
-11.4313 1.05206 -963.10498
-10.3824 0.77572602 -962.52002
-7.6749902 0.032775901 -961.11298
-6.8688998 -0.216125 -960.86902
-6.4432402 -0.29705799 -960.58899
-4.68188 -0.75341803 -959.83099
-2.7074001 -1.23651 -959.26898
-0.90026897 -1.69348 -959.00299
1.4159499 -2.2235401 -958.50403
2.3262899 -2.4734199 -958.36401
3.1786499 -2.6605799 -958.216
3.95135 -2.8299 -958.07397
4.7683101 -3.0443399 -957.95599
5.7810702 -3.3031001 -957.86499
6.7880201 -3.52386 -957.78003
-30.5886 10.1192 -1013.3
-30.8381 10.0341 -1012.47
-31.2563 10.113 -1011.65
-31.6702 10.0168 -1010.02
-31.8214 9.9097605 -1008.59
-31.930599 9.7959003 -1007.19
-32.367802 9.7499399 -1005.74
-32.254601 9.6641798 -1005.06
-32.390099 9.6402597 -1004.38
-32.4105 9.5774498 -1003.78
-32.378201 9.4739399 -1002.56
-32.091499 9.8477497 -1001.94
-32.439602 9.3360596 -1001.22
-32.196201 9.6740103 -1000.04
-32.0439 8.9400902 -997.75702
-32.206799 8.9327097 -997.16101
-32.006699 8.7672997 -995.992
-31.828699 8.6564903 -995.41602
-31.5814 9.0792198 -994.83301
-31.424999 8.3465004 -993.18701
-31.511999 8.3202801 -992.60101
-30.892 8.0996704 -992.12903
-31.273399 8.16611 -991.521
-27.6035 6.9210801 -982.41699
-26.804701 6.6019602 -980.52197
-26.2838 6.4092698 -979.62799
-25.681299 6.1388502 -978.28101
-25.2582 5.9826398 -977.39099
-24.9541 5.8333101 -976.51501
-24.3895 5.65802 -976.10199
-23.869101 5.45859 -975.24103
-24.008699 5.4702101 -974.74902
-23.109699 5.1466398 -973.49298
-22.2148 4.82724 -972.25
-17.804001 3.405 -967.64801
-17.4111 3.2730401 -967.30499
-16.176201 2.95047 -966.26202
-15.1888 2.6500199 -965.58899
-14.3132 2.3738699 -964.93402
-13.9022 2.2715499 -964.59302
-13.3962 2.11847 -964.28302
-12.4619 1.85645 -963.64398
-11.4829 1.5782501 -963.04401
-10.7993 1.3830301 -962.78003
-10.2368 1.2453001 -962.49597
-9.2462797 0.98126203 -961.88098
-8.7172899 0.84674102 -961.60101
-8.0013399 0.658508 -961.35101
-6.68396 0.272522 -960.85699
-6.3175702 0.187897 -960.54602
-5.8519301 0.053924602 -960.28101
-5.1160302 -0.15127601 -960.04901
-2.9453101 -0.66949499 -959.466
-2.2885699 -0.82476801 -959.31897
-1.49097 -1.03113 -959.146
4.02246 -2.34677 -958.03802
4.9836998 -2.5763199 -957.92798
-30.992201 10.5474 -1011.64
-31.333099 10.5569 -1010.81
-31.4835 10.422 -1009.26
-32.264999 10.1759 -1004.99
-32.3344 10.0958 -1003.72
-32.007301 9.32938 -996.539
-31.2437 8.8533897 -993.73901
-30.8993 8.6096497 -992.06299
-30.7122 8.3851604 -989.94397
-30.0082 8.2011995 -989.44397
-29.921801 8.5124197 -988.89099
-27.790899 7.4980502 -982.33099
-27.5748 7.3895898 -981.37201
-25.4401 6.5844402 -978.25201
-23.908701 5.9958801 -975.19299
-23.719999 5.8851299 -974.30701
-22.934401 5.6395602 -973.93701
-22.3922 5.4408598 -973.099
-22.2437 5.3763099 -972.664
-21.521099 5.1615601 -971.47302
-20.544701 4.83392 -971.13599
-18.114901 4.0222201 -967.96503
-17.884701 3.9386899 -967.565
-16.732401 3.6049199 -966.91602
-15.3819 3.21387 -965.91101
-14.7415 3.0207801 -965.19501
-13.2328 2.56989 -964.245
-12.7553 1.93918 -963.979
-12.1675 2.3007801 -963.61499
-11.8234 2.19418 -963.30103
-10.8433 1.90948 -962.70001
-10.187 1.74716 -962.42798
-9.6128502 1.57898 -962.13898
-9.0047598 1.41599 -961.854
-8.5684795 1.30969 -961.552
-7.9806499 1.13626 -961.30798
-7.35712 0.965729 -961.10101
-6.7372999 0.813263 -960.82599
-6.24158 0.70291102 -960.51001
-4.3759198 0.21255501 -959.76801
-3.56458 0.019104 -959.61603
2.66589 -1.50308 -958.29303
3.3666999 -1.646 -958.13501
-30.079901 10.9937 -1013.22
-30.822001 11.0467 -1011.61
-31.317101 11.0867 -1010.75
-31.434 10.9135 -1009.24
-31.657301 10.9267 -1008.48
-31.782801 10.8346 -1007.08
-31.9161 10.6989 -1005.7
-32.2089 10.6305 -1004.28
-32.0359 10.4887 -1003.08
-31.966 10.3887 -1002.49
-32.058498 10.1885 -1000.02
-31.602301 9.9581604 -998.92798
-31.5439 10.2943 -997.11298
-31.721701 9.7293997 -995.94098
-31.707001 9.6633902 -995.34399
-31.3165 9.4886799 -994.82397
-31.117399 9.2897301 -993.11298
-30.4594 8.87152 -990.35901
-30.5744 8.8859596 -989.89801
-26.814501 7.7146001 -982.37701
-26.750799 7.1174898 -980.47601
-26.118601 7.3737202 -979.53497
-25.240101 7.04919 -978.229
-23.8967 6.5048199 -975.133
-23.532301 6.3773499 -974.745
-23.4536 6.3397799 -974.29199
-22.153601 5.9128399 -973.09003
-21.184099 5.5651598 -971.89801
-21.263901 5.5820298 -971.46503
-20.1984 5.2642498 -971.151
-16.2332 3.96332 -966.51202
-15.3339 3.7123101 -965.87903
-14.8684 3.5559399 -965.53699
-14.4687 3.4674399 -965.16803
-14.0016 3.3348701 -964.84302
-13.0735 3.0434899 -964.20398
-11.6486 2.64468 -963.26099
-10.1378 2.2318699 -962.36401
-9.0525503 1.96347 -961.78601
-8.5739698 1.83771 -961.495
-7.83392 1.62433 -961.276
-7.1295199 1.44666 -961.09399
-6.42871 1.26334 -960.87
-5.9650898 1.13745 -960.53198
-3.93256 0.58245802 -959.83502
-0.48730499 -0.243164 -958.90302
1.72998 -0.75927699 -958.38702
2.6345201 -0.97485399 -958.24701
4.2910199 -1.37274 -957.961
6.9717398 -1.99799 -957.64801
8.2554903 -2.20667 -957.39301
-31.4641 11.4716 -1009.14
-31.9202 11.1421 -1004.97
-31.778299 10.9529 -1003.71
-31.8447 10.8124 -1001.85
-31.9993 10.7595 -1000.58
-31.7742 11.1635 -1000.06
-31.762899 11.1186 -999.47302
-31.4844 10.4487 -998.91602
-31.578501 10.2411 -996.495
-31.5975 10.2161 -995.91602
-31.3762 9.9618502 -993.61102
-30.4373 9.3994398 -990.354
-30.038799 9.2289104 -989.29102
-27.7176 7.96524 -981.79498
-26.886999 8.2686796 -982.336
-26.273899 7.9858098 -980.43402
-26.003201 7.8540602 -979.49799
-25.376801 7.6017799 -978.15002
-24.4489 6.70081 -975.992
-23.9575 7.1140699 -975.96399
-23.068701 6.7541499 -974.27301
-22.704399 6.6099901 -973.43402
-21.9683 6.3705702 -973.078
-21.0991 6.0535002 -971.85901
-20.2512 5.79742 -971.09302
-20.3088 5.7916899 -970.65698
-18.3361 5.1186199 -968.224
-17.953699 5.0273399 -967.86102
-17.478399 4.8838501 -967.508
-16.185101 4.4929199 -966.48199
-15.1791 4.1941199 -965.87903
-14.2946 3.9329801 -965.13599
-13.9862 3.81528 -964.78601
-13.4877 3.7077 -964.474
-12.9576 3.5304301 -964.15802
-12.5407 3.4240401 -963.83002
-11.9609 3.2505801 -963.53601
-11.5184 3.1257601 -963.21002
-11.0834 2.9953899 -962.90302
-10.4428 2.8245499 -962.62201
-9.4717398 2.5775101 -962.03101
-8.7699003 2.3917799 -961.76001
-7.4363999 2.0274999 -961.28003
-6.9630098 1.93018 -961.08899
-5.56464 1.57507 -960.60101
-5.14294 1.45752 -960.30603
-4.5784898 1.2952 -960.05701
-3.76263 1.09317 -959.88
-2.56201 0.832367 -959.45203
-1.81689 0.64434803 -959.25299
-1.09692 0.46826199 -959.05298
-0.44049099 0.29736301 -958.85303
0.239502 0.117767 -958.672
2.0058601 -0.29815701 -958.367
2.7950399 -0.48190299 -958.21198
6.0910001 -1.81033 -957.74902
6.9625902 -1.4670399 -957.59399
-31.0424 11.9827 -1009.91
-31.0336 11.8788 -1009.16
-31.5054 11.735 -1006.41
-31.446301 11.5344 -1005.06
-31.7274 11.4907 -1003.69
-31.841101 11.3018 -1001.77
-31.6035 10.8577 -997.05701
-31.5406 10.7229 -995.85901
-31.270599 11.1221 -995.26202
-31.0746 11.0625 -994.68701
-31.073099 10.4249 -994.16602
-30.6581 10.1109 -991.94702
-30.849199 10.1214 -991.34601
-30.2481 9.8526001 -990.31799
-29.9149 9.7156696 -989.89801
-27.001801 8.3820801 -983.341
-26.8284 8.8422203 -982.27698
-27.2999 8.8657503 -980.75299
-26.0429 8.4595299 -980.401
-25.147499 8.1137695 -978.10602
-24.745399 7.9263601 -977.22699
-23.3575 7.3992 -974.63397
-23.032801 7.2821002 -974.23499
-22.625799 7.1495099 -973.82202
-20.187 6.3373399 -971.05298
-20.1084 6.27637 -970.63
-19.8405 6.2109699 -970.22998
-19.223 6.0094299 -969.87
-18.6269 5.8133202 -969.05499
-17.7201 5.4967299 -967.862
-17.4084 5.3940401 -967.48297
-16.151899 5.0183101 -966.48199
-15.128 4.7481399 -965.87201
-14.0641 4.3998098 -965.13898
-13.3301 4.1921401 -964.42798
-11.9553 3.8240399 -963.47101
-9.8431997 3.22769 -962.27301
-8.71875 2.94504 -961.70697
-8.0042105 2.7488999 -961.47198
-6.7109399 2.41571 -961.09698
-6.1582599 2.2925401 -960.84198
-5.5521202 2.1375101 -960.58197
-4.9300499 1.96899 -960.34003
-3.6375101 1.63721 -959.87
-2.45416 1.34271 -959.41302
-0.85351598 0.94070399 -959.03601
0.56542999 0.61459398 -958.64697
1.03241 -0.057922401 -958.508
2.0943601 0.235687 -958.32703
2.76331 0.080291703 -958.15802
3.64044 -0.129822 -958.02502
6.3924599 -0.77658099 -957.67603
7.9569101 -1.1027499 -957.46198
-31.1066 12.5604 -1009.93
-30.8866 12.3326 -1008.47
-31.4172 12.2748 -1006.39
-31.586 12.0921 -1004.36
-31.565701 11.9184 -1002.4
-31.5352 11.5849 -998.854
-31.1903 11.9325 -998.23901
-31.337999 11.9309 -997.60999
-31.458 11.3654 -997.02802
-30.941799 10.8986 -993.56799
-30.580299 10.7354 -993.05603
-30.227301 10.4355 -990.237
-27.5471 9.5770302 -982.138
-27.164801 9.4052095 -981.19702
-26.3804 9.1169996 -980.30603
-25.745399 8.8866596 -979.409
-24.601299 8.4316702 -977.19501
-24.8438 7.9469299 -976.74902
-23.544201 8.0184298 -974.99298
-22.4767 7.6420002 -973.78302
-21.667801 7.3510699 -972.55402
-21.342199 6.7263198 -972.20801
-20.186899 6.8653898 -970.98401
-19.856501 6.7838402 -970.59003
-18.9394 6.4884 -969.88098
-18.998899 6.4842501 -969.45001
-18.359301 6.2855802 -969.086
-18.207001 6.2244301 -968.66602
-17.9151 6.13199 -968.26398
-17.5278 5.98453 -967.89801
-17.034599 5.8513799 -967.56097
-16.5644 5.7168598 -967.20502
-16.1968 5.6125498 -966.85999
-15.7459 5.4684401 -966.54401
-14.8326 5.2372098 -965.87201
-14.0381 4.9689898 -965.125
-13.8013 4.87503 -964.72601
-12.8405 4.59937 -964.04602
-12.342 4.4806499 -963.73798
-11.3517 4.1807899 -963.11401
-10.7578 4.0239301 -962.82501
-9.5566998 3.7148099 -962.25897
-9.0465097 3.5696101 -961.98199
-7.83002 3.24951 -961.48102
-6.5546298 2.94998 -961.07898
-5.3095102 2.6236601 -960.565
-3.4505 2.15347 -959.83899
-2.3845799 1.89087 -959.36902
-1.59161 1.69424 -959.17297
-0.661865 1.43887 -959.00403
0.665649 1.14291 -958.60602
1.51068 0.94369501 -958.44202
2.94226 0.59484899 -958.11902
6.4225502 -0.226715 -957.62097
8.1932402 -0.62914997 -957.45203
-30.132099 13.0304 -1011.47
-30.233801 12.8795 -1010.07
-30.9279 12.9026 -1008.49
-31.337799 12.8943 -1007.04
-31.1236 12.5885 -1005.05
-31.435499 12.6347 -1004.34
-31.2519 12.4275 -1003.14
-31.2992 12.1305 -999.44702
-31.257401 11.8624 -997.01099
-31.013399 11.7335 -996.44702
-31.0595 11.6003 -994.63898
-30.3092 11.0944 -991.88702
-30.2015 10.9151 -989.72803
-29.6572 10.7549 -989.18103
-29.505501 11.1498 -988.64697
-27.391399 9.51758 -981.66998
-27.0042 9.9286499 -981.14801
-26.071501 9.59583 -980.26703
-25.418501 9.3454905 -979.383
-25.856199 8.9126301 -978.90997
-25.0574 9.1657696 -978.034
-23.333401 8.51791 -974.95801
-18.2082 6.8174701 -969.04999
-16.9932 6.45087 -967.94098
-16.9634 6.4491 -967.54901
-16.144699 6.1864901 -967.24701
-14.6949 5.7491102 -965.83801
-13.8325 5.4932299 -965.151
-13.5677 5.4224501 -964.75598
-12.9435 5.2231102 -964.42102
-12.6194 5.1187401 -964.05499
-12.121 4.98315 -963.75299
-11.3923 4.7779799 -963.46698
-11.0355 4.67944 -963.10901
-10.0339 4.3953199 -962.49402
-9.3807402 4.2340398 -962.26898
-8.9230299 4.1224999 -962.03699
-8.2642803 3.9361 -961.77899
-7.75635 3.7941899 -961.52399
-5.38727 3.18381 -960.50702
-4.5682998 2.974 -960.284
-3.8850701 2.83371 -960.04401
-2.8166499 2.5395801 -959.573
-1.30878 2.19592 -959.16101
-0.60095203 2.00226 -958.95001
0.114929 1.8385 -958.758
2.53052 1.23206 -958.263
7.5919199 0.093536399 -957.51599
-30.230301 13.4791 -1010
-30.446199 13.4227 -1009.26
-30.814199 13.3877 -1007.79
-30.760401 13.2209 -1006.44
-31.219999 13.664 -1003.68
-31.437599 13.0771 -1003.08
-31.120501 13.3466 -1001.08
-31.1175 12.7466 -1000.6
-31.2013 12.7192 -1000.02
-31.1359 12.6504 -999.42999
-31.009199 12.4941 -998.22998
-30.8748 12.163 -995.20801
-30.723801 12.6015 -994.59698
-30.951599 12.07 -994.01801
-30.656401 11.9295 -993.48999
-30.5488 11.8627 -992.94299
-30.327499 11.691 -991.83197
-30.342699 11.6204 -990.70801
-30.044901 11.4591 -990.15997
-29.840799 11.9418 -989.65302
-26.7838 9.9373198 -982.17902
-25.954 10.1316 -980.22699
-25.5333 9.9406099 -979.31
-24.848499 9.6677198 -977.987
-24.237101 9.4556599 -977.09399
-23.4944 9.1596699 -975.79303
-22.7885 8.3127699 -974.13702
-22.237101 8.1270399 -973.30902
-17.5972 6.6223102 -968.28601
-15.4312 6.5503802 -966.48102
-14.3541 6.22891 -965.82898
-13.1757 5.8773198 -964.79901
-12.7042 5.7451501 -964.45398
-12.4547 5.6533198 -964.09601
-11.819 5.46561 -963.802
-11.2183 5.3047199 -963.49902
-10.993 5.2553401 -963.13098
-10.414 5.06744 -962.80603
-9.8360596 4.91711 -962.53003
-8.7221699 4.6195402 -962.047
-8.1558199 4.4830298 -961.77197
-4.3892202 3.5199001 -960.25098
-2.52863 3.0545001 -959.54602
-1.6731 2.84781 -959.34998
-1.23248 2.7309 -959.11499
-0.65081799 2.58319 -958.89502
0.204346 2.3685601 -958.71301
0.97515899 2.17349 -958.54303
1.62921 2.0134301 -958.362
2.4362199 1.83234 -958.19897
4.28192 1.4046 -957.93103
5.9808302 1.03931 -957.68903
6.9155898 0.83074999 -957.59198
-29.865801 14.0547 -1010.77
-30.2052 14.0471 -1009.97
-30.523399 13.9607 -1008.5
-30.866699 13.9933 -1007.72
-30.9403 13.6592 -1004.41
-30.9638 13.2921 -1000.53
-30.9688 13.0532 -998.17499
-31.005301 13.0195 -997.57098
-30.9065 12.843 -996.34601
-30.823 12.7012 -995.15698
-30.541 12.4721 -993.453
-30.636499 12.4433 -992.88098
-30.0172 12.1746 -991.81
-29.8522 11.9907 -990.12402
-29.337099 12.379 -989.67999
-29.1537 11.7664 -989.12799
-29.061399 11.7162 -988.64203
-25.910601 10.7647 -982.15601
-26.620701 10.9523 -981.08002
-24.617201 10.1552 -977.95502
-23.4223 9.7148104 -975.73401
-22.196699 9.25632 -973.62402
-21.1539 8.8840904 -971.98297
-16.939301 7.5580702 -967.85498
-16.4494 7.4159198 -967.49902
-15.1731 7.0215502 -966.45697
-14.3486 6.75949 -965.77502
-13.4819 6.54742 -965.10199
-12.6354 6.3101501 -964.43799
-11.6901 6.0394001 -963.79102
-11.0871 5.86624 -963.48401
-10.5223 5.7183499 -963.19098
-9.98102 5.5608201 -962.89697
-9.5032301 5.40201 -962.59302
-7.5331998 4.89258 -961.453
-6.9075899 4.7404199 -961.18402
-5.0747099 4.2846699 -960.427
-3.7704501 3.9170201 -959.95203
-3.3054199 3.81793 -959.70099
-2.4910901 3.6154799 -959.49103
-0.27551299 3.06955 -958.88599
1.08698 2.7279699 -958.49799
3.4281001 2.1921401 -958.01801
4.2967501 1.97931 -957.88599
5.1651001 1.7731301 -957.76898
6.1648598 1.54211 -957.672
7.9475698 1.17035 -957.47302
-30.077101 14.5013 -1009.27
-30.4123 14.5097 -1008.49
-30.4722 14.3081 -1006.47
-30.518999 14.1798 -1005.14
-30.8962 14.1872 -1004.38
-30.846701 14.0536 -1003.07
-30.9515 13.9459 -1001.78
-30.842199 13.6131 -998.76898
-30.6754 13.9716 -996.89001
-30.860399 13.3808 -996.30902
-30.566 13.2384 -995.76501
-30.5231 13.0152 -993.41498
-30.045099 12.7671 -991.76599
-30.1924 12.7397 -991.15997
-30.1702 12.7175 -990.62799
-29.4559 12.9997 -990.09399
-28.893101 12.2072 -989.12201
-29.009899 12.1663 -988.60602
-26.4468 11.4771 -981.53998
-25.809299 11.1777 -980.14001
-24.4496 10.674 -977.91302
-24.2017 10.5352 -976.52899
-24.157499 10.4837 -976.08002
-23.288 10.2191 -975.69598
-21.7897 9.6784401 -973.625
-16.019899 7.8371902 -967.09302
-15.1376 7.5726299 -966.40503
-12.8322 6.8973999 -964.74799
-12.0916 6.7083101 -964.06897
-11.5356 6.5579801 -963.76599
-9.4952402 5.97931 -962.56799
-8.9616098 5.8370099 -962.263
-8.37146 5.66818 -961.98297
-7.87994 5.52316 -961.70099
-7.2396202 5.3737798 -961.435
-4.8710899 4.7551899 -960.39203
-4.2429199 4.6186199 -960.14899
-3.60217 4.4688401 -959.91602
-2.95996 4.2832899 -959.68799
-2.1690099 4.0687599 -959.47699
-0.93450898 3.82516 -959.03802
-0.182373 3.6067801 -958.84698
1.38257 3.24582 -958.48401
2.09375 3.0787001 -958.29303
2.78705 2.8974299 -958.13702
3.7306499 2.6543901 -958.00598
6.3428302 2.0891399 -957.63501
7.0907001 1.9147 -957.52002
-30.070601 15.0949 -1009.3
-30.155899 15.0001 -1008.57
-30.2817 14.8872 -1007.19
-30.569799 14.7609 -1005.13
-30.852501 14.4746 -1001.7
-30.902599 14.3376 -1000.45
-30.440201 14.1655 -999.95801
-30.657801 14.1499 -998.75299
-30.6168 14.0725 -998.13501
-30.506399 13.7054 -994.52899
-30.1682 13.4392 -992.84302
-30.249201 13.4096 -992.25702
-28.9984 13.2704 -988.97998
-25.429399 11.547 -979.16498
-24.4617 11.1923 -977.85199
-24.0284 11.0211 -976.96301
-23.3402 10.7395 -975.63898
-22.6164 10.4717 -974.37299
-20.725901 9.81458 -971.94098
