# .PCD v0.7 - Point Cloud Data file format
VERSION 0.7
FIELDS x y z
SIZE 4 4 4
TYPE F F F
COUNT 1 1 1
WIDTH 1661
HEIGHT 1
VIEWPOINT 0 0 0 1 0 0 0
POINTS 1661
DATA ascii
-5.1524701 -50.4744 -1055.26
-5.9414101 -50.1497 -1055.08
-7.0335698 -50.079899 -1054.33
-7.4398499 -50.709999 -1054.48
-8.3501301 -50.4454 -1054.1801
-12.4981 -50.793201 -1052.5601
32.0877 -64.389702 -1045.1801
31.2337 -63.085602 -1046.38
30.4252 -62.802101 -1046.97
29.871401 -61.761299 -1047.6899
27.4851 -60.429401 -1049.4
26.858299 -59.4576 -1050.04
26.0275 -59.173599 -1050.78
25.351299 -58.302898 -1051.22
24.926399 -58.1348 -1051.6
24.0998 -57.434898 -1051.78
22.638201 -57.097698 -1052.77
21.818399 -56.276901 -1053.14
20.777901 -56.221298 -1053.47
20.5077 -55.410301 -1053.74
19.945 -55.399502 -1053.9301
18.8064 -55.3367 -1054.34
18.445999 -54.6642 -1054.48
17.2353 -54.662498 -1054.77
16.329599 -53.989899 -1055.1899
15.3821 -53.337399 -1055.5
14.775 -53.308201 -1055.75
14.0562 -53.436798 -1055.71
13.5887 -52.895 -1055.73
12.9943 -52.8326 -1056.01
11.7821 -52.362099 -1055.97
11.0531 -52.492901 -1056
10.6484 -51.8713 -1056.0699
9.3290701 -51.840099 -1056.47
7.9584999 -51.550999 -1056.26
7.2725801 -51.485401 -1056.48
6.8009601 -50.833401 -1056.59
5.9317899 -51.037701 -1056.4399
5.4246502 -50.383202 -1056.5601
4.6001601 -50.532799 -1056.5
3.2219501 -50.125599 -1056.41
2.3231201 -50.3022 -1056.42
1.64957 -49.8619 -1056.23
0.70455903 -50.129799 -1056.12
-0.0383301 -49.728699 -1055.97
-1.02298 -49.9203 -1055.98
-1.7098401 -49.500198 -1055.9
-2.9467499 -49.979 -1055.46
-4.5549002 -49.418499 -1054.8
-4.8307199 -49.953999 -1055
-5.8600798 -49.903198 -1054.22
-9.3347502 -50.0056 -1054.0699
-11.722 -49.864399 -1052.86
-13.35 -50.160099 -1051.36
31.050699 -62.292198 -1046.62
30.691601 -62.0438 -1047.1
30.036301 -61.174702 -1047.59
28.8762 -60.670399 -1048.67
28.535801 -60.0322 -1048.79
27.7607 -59.628399 -1049.62
27.066299 -58.7579 -1050.0601
26.2073 -58.548 -1050.6
25.6362 -57.491299 -1051.34
24.607901 -57.435299 -1051.66
23.4079 -56.436298 -1052.48
22.8806 -56.379601 -1052.7
22.4708 -56.124298 -1053.26
21.0609 -55.441399 -1053.5699
20.178699 -54.749802 -1053.91
19.6194 -54.7141 -1054.1
19.2964 -54.020802 -1054.3
18.799101 -53.832199 -1054.76
18.124701 -53.9562 -1054.72
17.2397 -53.2164 -1055.21
16.527901 -53.405499 -1055.1
16.0303 -53.2953 -1055.42
15.5643 -52.790798 -1055.34
15.0575 -52.575199 -1055.84
14.2835 -52.816399 -1055.64
13.1508 -52.306599 -1055.71
12.5417 -52.238201 -1056.03
11.3973 -51.696499 -1056.14
10.3499 -51.044701 -1056.41
9.6400099 -51.0952 -1056.51
8.3815298 -50.568501 -1056.52
7.6234102 -50.674 -1056.63
6.2732501 -50.2271 -1056.58
4.94064 -49.7542 -1056.65
4.0530701 -50.007599 -1056.37
2.49948 -49.832699 -1056.13
0.34030199 -49.0322 -1056.0601
-0.66519201 -49.278198 -1055.9399
-1.5059201 -49.022598 -1055.5601
-2.35834 -48.8992 -1056.0601
-3.36566 -49.004398 -1055.02
-5.23138 -48.8619 -1054.75
-6.3706398 -48.9669 -1054.84
-7.2972999 -48.755001 -1054.37
-8.7459402 -49.176899 -1054.12
-9.8105202 -48.975601 -1053.63
-11.2011 -49.107498 -1052.49
35.063099 -65.2164 -1042.25
33.9604 -63.644501 -1043.8199
32.8409 -62.186001 -1045.3
31.355499 -61.421799 -1046.86
30.6236 -60.647301 -1047.26
29.7745 -60.431499 -1047.8199
29.181601 -59.438202 -1048.42
28.2458 -59.364799 -1048.8
27.8612 -59.118999 -1049.26
26.427601 -57.826698 -1050.5699
24.915701 -56.644402 -1051.79
24.0861 -55.918301 -1052.02
23.681801 -55.668201 -1052.52
23.1642 -55.624599 -1052.76
22.293501 -54.9272 -1053.04
20.8321 -54.584801 -1053.97
19.8986 -53.974701 -1054.24
18.9284 -53.391399 -1054.4399
18.2882 -53.4631 -1054.55
17.9587 -52.746899 -1054.79
17.389 -52.747601 -1054.95
16.8167 -52.706402 -1055.16
15.2191 -52.101501 -1055.52
14.6698 -51.929298 -1055.91
14.1491 -51.468102 -1055.8
13.498 -51.486198 -1055.91
12.3643 -50.900501 -1056.09
11.6931 -50.9846 -1056.14
11.0449 -50.937099 -1056.3199
10.6409 -50.261799 -1056.4399
9.9401903 -50.338001 -1056.55
9.1522503 -50.493 -1056.52
8.7667198 -49.703899 -1056.74
7.8088698 -50.098 -1056.34
7.3187299 -49.490799 -1056.35
6.5124798 -49.569901 -1056.47
5.9080501 -49.360199 -1056.98
4.3719501 -49.2742 -1056.47
3.5925 -49.363899 -1056.53
2.95767 -48.921902 -1056.48
2.30109 -48.512299 -1056.4301
2.16394 -48.925499 -1056.6801
1.28488 -48.82 -1056.08
-0.17837501 -48.274799 -1056.4
-2.0707099 -48.327 -1055.84
-5.81635 -48.0625 -1055.04
-11.9 -48.176701 -1053.24
-11.8784 -48.163502 -1052.15
34.637299 -64.0569 -1043.02
32.709999 -61.314602 -1045.66
31.9769 -60.9268 -1046.47
31.1719 -60.592999 -1047.17
29.6182 -59.5294 -1048.14
28.158899 -58.348999 -1049.35
27.2712 -58.1385 -1049.9
26.68 -57.166401 -1050.53
25.856899 -56.8773 -1051.1801
25.419399 -56.695599 -1051.55
24.629299 -55.924198 -1051.84
23.334499 -55.0564 -1052.61
22.8564 -54.908901 -1052.9399
22.0681 -54.108898 -1053.4301
21.4629 -54.217701 -1053.4
21.016899 -54.053001 -1053.8
20.0504 -53.4813 -1054.05
19.1702 -52.740299 -1054.47
18.564199 -52.745399 -1054.64
16.498501 -51.960499 -1055.36
15.8976 -52.028599 -1055.4399
15.3458 -51.6511 -1055.21
14.8148 -51.4786 -1055.58
13.787 -50.759602 -1055.92
13.0765 -50.859901 -1055.95
11.9553 -50.2505 -1056.14
11.3046 -50.2691 -1056.25
10.8272 -49.728001 -1056.1801
10.0812 -49.828201 -1056.2
9.4411898 -49.700199 -1056.53
8.2140503 -49.161301 -1056.64
6.72751 -48.979599 -1056.34
5.9969802 -49.0117 -1056.47
5.4643602 -48.451199 -1056.5
4.55264 -48.781898 -1056.23
4.0167198 -48.259602 -1056.29
3.8462501 -48.723801 -1056.55
1.7360801 -47.914799 -1056.46
0.76330602 -48.147202 -1056.39
0.0799255 -47.730202 -1056.17
-0.80114698 -47.7505 -1056.36
-1.73193 -47.6166 -1055.71
-2.84219 -47.9655 -1055.51
-3.6043999 -47.654999 -1055.1899
-4.68469 -47.898102 -1055.1
-6.42273 -47.2272 -1054.35
-7.7148399 -47.612701 -1054.11
-8.9214802 -47.582298 -1054.38
-9.0307903 -47.766499 -1053.05
-10.4138 -48.0518 -1053.03
35.5228 -64.825401 -1041.6
33.506302 -62.582802 -1044.53
32.565498 -60.417999 -1046.05
31.716299 -60.264999 -1046.49
30.379601 -59.916599 -1047.33
29.8078 -58.965 -1047.97
29.0368 -58.585701 -1048.84
28.4883 -57.553902 -1049.46
27.606701 -57.320099 -1050.05
27.000601 -56.322102 -1050.64
26.1029 -56.093899 -1051.1899
25.3999 -55.209202 -1051.74
24.875401 -55.212101 -1051.9
24.1082 -54.407902 -1052.4399
23.599899 -54.315102 -1052.7
23.0474 -54.2887 -1052.91
21.7216 -53.575001 -1053.49
20.8668 -52.807098 -1053.9399
20.211901 -52.965599 -1053.86
19.773701 -52.703201 -1054.39
18.821699 -52.027302 -1054.66
18.1919 -52.101002 -1054.72
17.867599 -51.403 -1054.91
17.3123 -51.344398 -1055.17
16.393299 -50.605099 -1055.53
15.7774 -50.604198 -1055.64
15.0811 -50.6954 -1055.6801
14.4826 -50.598099 -1055.95
14.086 -49.952301 -1056.03
13.3435 -50.0868 -1056.04
12.2007 -49.5527 -1056.09
11.4766 -49.682598 -1056.05
10.4944 -48.867199 -1056.55
9.68188 -49.103001 -1056.38
8.9782104 -49.079102 -1056.58
8.4170799 -48.6138 -1056.5
7.71136 -48.626202 -1056.65
7.0672598 -48.1917 -1056.5
6.2676101 -48.335201 -1056.49
5.8161001 -47.695702 -1056.71
4.9267902 -47.908298 -1056.6
2.5812099 -47.861198 -1056.3199
1.89502 -47.462601 -1056.12
1.11743 -47.3983 -1056.41
0.3461 -47.096298 -1056.0699
-0.53115797 -47.101299 -1056.25
-1.37573 -46.851898 -1055.8
-2.39642 -47.1161 -1055.7
-3.2012899 -46.813301 -1055.24
-4.0119901 -46.738499 -1055.72
-9.7062397 -46.9119 -1053.5
33.428699 -61.694199 -1044.91
31.910601 -59.593102 -1046.4301
31.115801 -59.1982 -1047.27
30.433599 -58.431999 -1047.54
29.7174 -58.044399 -1048.38
28.9676 -57.595501 -1049.23
28.3396 -56.654099 -1049.78
26.769899 -55.560299 -1050.89
26.258699 -55.575802 -1051
25.501301 -54.784401 -1051.4399
24.635401 -54.405499 -1052.3101
24.2502 -53.918499 -1052.24
23.3491 -53.554501 -1053.11
22.8964 -53.154999 -1052.87
22.461 -52.958199 -1053.24
21.382099 -52.929298 -1053.61
21.161301 -52.057899 -1054.01
20.4995 -52.205601 -1053.9301
19.015301 -51.4244 -1054.54
18.4485 -51.394001 -1054.77
18.0912 -50.725498 -1054.84
17.533199 -50.643398 -1055.0699
16.992399 -50.606499 -1055.35
15.9864 -49.937599 -1055.54
15.3864 -49.8885 -1055.8101
14.2179 -49.460201 -1055.7
13.5494 -49.493801 -1055.77
11.82 -48.810902 -1056.26
11.1722 -48.877102 -1056.3199
10.6569 -48.322201 -1056.3199
9.8966703 -48.456699 -1056.3101
9.4856005 -47.750198 -1056.58
8.6709604 -47.930099 -1056.54
7.9856 -47.921001 -1056.72
6.5185199 -47.7103 -1056.52
6.0278602 -47.1152 -1056.6
5.2080998 -47.277302 -1056.5699
4.4505301 -47.3102 -1056.6899
3.7535999 -46.989899 -1056.36
2.823 -47.2248 -1056.24
1.4220901 -46.708401 -1056.38
0.669891 -46.375599 -1056.0699
-0.23538201 -46.4058 -1056.22
-2.0604899 -46.421799 -1055.6
-3.86795 -46.2659 -1055.26
-4.9242902 -46.4091 -1055.25
-5.8360901 -46.178299 -1054.6801
-6.7588801 -45.848 -1054.55
-8.2395897 -46.539902 -1053.8101
-9.1546602 -45.994499 -1053.8101
-10.3799 -46.0019 -1053.28
-11.9554 -46.325298 -1052.13
36.112 -64.248703 -1041.29
35.235802 -60.988098 -1043.42
34.369999 -61.2724 -1044.3
33.446301 -60.227501 -1045.04
32.6833 -59.9189 -1045.73
32.2215 -58.7388 -1046.61
30.9774 -58.3265 -1047.58
30.4564 -57.2999 -1048.22
29.620501 -57.0229 -1048.83
28.020901 -56.018902 -1049.86
27.591299 -55.8563 -1050.2
26.899799 -55.0457 -1050.6801
25.2556 -54.027599 -1051.83
23.9377 -53.244099 -1052.49
23.521299 -52.9874 -1052.96
22.187201 -52.219501 -1053.46
20.1439 -51.513401 -1054.14
19.6071 -51.469398 -1054.33
19.202101 -50.798698 -1054.41
18.674299 -50.682999 -1054.71
17.681299 -50.101398 -1054.85
17.1523 -50.024399 -1055.11
16.641199 -49.866798 -1055.5
15.6067 -49.219898 -1055.6801
14.9274 -49.2957 -1055.72
13.8347 -48.667702 -1055.89
13.1275 -48.756302 -1055.95
12.6129 -48.573502 -1056.4
12.0946 -48.095901 -1056.3199
11.4277 -48.164001 -1056.42
10.9391 -47.650299 -1056.39
10.1438 -47.7966 -1056.3101
8.9661903 -47.2202 -1056.65
7.5934801 -46.851799 -1056.5601
6.7931499 -47.007599 -1056.5601
5.54074 -46.494301 -1056.6899
4.7144198 -46.6628 -1056.65
4.0809302 -46.233002 -1056.51
3.2413299 -46.3153 -1056.5
2.47089 -46.274399 -1056.8101
1.65634 -46.0742 -1056.23
0.089141801 -45.6656 -1056.29
-0.99557501 -46.046001 -1055.92
-1.68787 -45.616299 -1055.6899
-2.6601601 -45.744499 -1055.73
-3.5369 -45.591202 -1055.0601
-4.6620202 -45.8936 -1054.92
-7.6879601 -45.560299 -1054.2
36.873299 -63.0602 -1040.84
33.3536 -59.2616 -1045.48
32.5938 -58.914799 -1046.1899
32.033798 -57.911098 -1046.87
31.2752 -57.530701 -1047.66
30.258699 -56.5294 -1048.45
29.1406 -55.6021 -1049.26
27.566999 -54.493999 -1050.47
26.7584 -54.1735 -1051.2
25.939301 -53.472698 -1051.55
25.362801 -53.573502 -1051.53
24.9851 -53.2817 -1052.13
24.172199 -52.525799 -1052.48
23.6742 -52.4212 -1052.73
22.689899 -52.279099 -1053.24
22.3755 -51.617599 -1053.37
21.341299 -51.468399 -1053.88
20.936701 -50.884899 -1053.8199
20.4216 -50.786301 -1054.15
19.8825 -50.6735 -1054.4301
18.384001 -49.9016 -1054.98
17.380699 -49.3162 -1055.0601
16.8069 -49.259998 -1055.28
16.253799 -49.1661 -1055.61
15.7729 -48.635899 -1055.46
15.2167 -48.512798 -1055.84
14.5487 -48.585899 -1055.92
14.0833 -47.984798 -1055.96
13.2872 -48.250599 -1055.77
12.3407 -47.421001 -1056.3101
11.6176 -47.6194 -1056.23
10.3724 -47.177601 -1056.33
9.6738901 -47.225101 -1056.45
9.1113596 -46.730999 -1056.42
8.5418701 -46.513199 -1056.89
7.1656499 -46.167198 -1056.77
6.3303199 -46.365101 -1056.7
4.9379601 -46.073601 -1056.46
4.3199501 -45.610199 -1056.33
3.5174 -45.658901 -1056.52
1.97296 -45.260502 -1056.37
0.96075398 -45.7117 -1055.98
-0.56945801 -45.162601 -1056.09
-2.44748 -45.222198 -1055.35
-4.1641202 -44.9324 -1055.29
-5.1544199 -44.791698 -1054.78
-6.2136502 -44.952599 -1054.84
-7.1782198 -44.726898 -1054.48
-8.5556602 -45.042099 -1054.3199
-9.84799 -45.119202 -1053.52
36.116501 -60.737598 -1042.53
34.109501 -59.5588 -1044.83
33.2379 -58.3162 -1045.91
32.605701 -57.522301 -1046.35
31.8811 -57.047901 -1047.23
31.122499 -56.7015 -1047.99
30.500299 -55.842999 -1048.55
29.6217 -55.6353 -1049.0699
27.981701 -54.6534 -1050.11
27.3118 -53.8125 -1050.6801
26.900299 -53.659401 -1051.01
26.134701 -52.872898 -1051.45
25.6929 -52.6772 -1051.8199
24.738501 -52.486099 -1052.38
23.911699 -51.762901 -1052.75
23.287001 -51.900501 -1052.67
22.9772 -51.488499 -1053.42
22.121401 -50.787498 -1053.71
21.5236 -50.849098 -1053.74
21.224501 -50.062698 -1053.96
20.0627 -50.045399 -1054.26
19.454 -50.074799 -1054.47
19.075899 -49.4049 -1054.52
18.5317 -49.318401 -1054.75
18.0051 -49.2686 -1055.02
17.642 -48.559601 -1055.11
16.5072 -48.4254 -1055.61
15.3969 -47.905399 -1055.74
13.6047 -47.4244 -1056
12.9852 -47.4389 -1056.14
11.8758 -46.9622 -1056.3101
11.198 -46.938999 -1056.49
10.5232 -46.6661 -1056.11
9.8280296 -46.733002 -1056.1899
9.3699303 -46.038799 -1056.38
8.6113005 -46.159199 -1056.36
7.9570599 -46.046902 -1056.78
7.3246498 -45.602798 -1056.55
6.62253 -45.604099 -1056.78
5.8080702 -45.738201 -1056.77
5.1524401 -45.452499 -1056.3101
2.9026501 -45.105598 -1056.39
1.3902299 -44.718601 -1056.27
0.54284698 -44.744801 -1056.5
-1.12985 -44.469101 -1056.26
-1.94144 -44.2029 -1055.84
-3.0213599 -44.5723 -1055.51
-5.8347802 -44.200401 -1054.96
-8.1627798 -44.370399 -1054.3199
-15.528 -45.4702 -1050.13
35.008099 -59.211899 -1044.02
34.136002 -58.108299 -1045.01
33.0681 -57.499298 -1046.24
31.7176 -56.216 -1047.6
31.0588 -55.4953 -1048.05
30.2292 -55.179501 -1048.67
29.620199 -54.208401 -1049.4301
28.673901 -54.096699 -1049.91
28.191799 -54.023602 -1050.1
27.514 -53.149899 -1050.63
26.642 -52.906101 -1051.28
26.3617 -52.162998 -1051.48
25.3843 -52.0154 -1052
24.9548 -51.8251 -1052.39
24.131001 -51.039398 -1052.77
23.629801 -51.018002 -1052.9399
22.281601 -50.193199 -1053.52
21.757 -50.1008 -1053.77
20.297899 -49.329399 -1054.3
19.745501 -49.2822 -1054.5
19.319099 -48.6702 -1054.47
18.2265 -48.511002 -1055.02
17.174101 -48.060501 -1055.0601
16.636801 -47.913101 -1055.38
16.209299 -47.350201 -1055.49
15.5442 -47.408798 -1055.5601
15.0237 -47.217701 -1055.96
14.2848 -47.4109 -1055.87
13.8648 -46.769199 -1056.1
13.0775 -47.077099 -1055.8101
12.6441 -46.413502 -1055.97
12.1192 -46.266701 -1056.37
11.3607 -46.417099 -1056.29
10.9146 -45.7551 -1056.4301
10.0854 -46.023701 -1056.24
9.5921898 -45.398998 -1056.33
8.9343004 -45.342201 -1056.58
8.0293903 -45.621201 -1056.35
6.9007902 -44.924099 -1056.79
4.6863999 -44.7286 -1056.51
3.1571701 -44.4893 -1056.24
2.2697401 -44.575401 -1056.29
1.62036 -44.106899 -1056.1
0.71755999 -44.200001 -1056.17
-0.0150452 -43.841599 -1055.9301
-0.91290301 -43.943401 -1056.03
-1.75427 -43.702202 -1055.62
-2.76736 -43.9991 -1055.45
-4.64499 -43.898701 -1055.09
-5.5894799 -43.712101 -1054.72
-6.56952 -43.449799 -1054.35
-9.2167997 -44.099602 -1053.85
-11.8772 -44.2458 -1052.24
36.963902 -60.460899 -1041.62
35.858799 -59.017601 -1043.21
35.207199 -58.576401 -1044
32.306801 -55.759899 -1047.29
31.9035 -55.657101 -1047.5699
30.490299 -54.478699 -1048.8101
29.3421 -53.5378 -1049.5601
28.865601 -53.442799 -1049.83
28.483999 -53.217899 -1050.29
27.756001 -52.421101 -1050.6899
26.8057 -52.324699 -1051.09
26.1327 -51.3493 -1051.73
25.6187 -51.3018 -1051.97
25.219101 -51.0443 -1052.45
24.329399 -50.3978 -1052.66
23.8776 -50.280899 -1052.98
22.882401 -50.134201 -1053.47
22.567699 -49.375198 -1053.62
21.4368 -49.388802 -1053.9
21.0569 -48.6922 -1054.02
20.5439 -48.593899 -1054.27
19.9196 -48.657799 -1054.39
19.0532 -47.879799 -1054.85
18.377501 -48.0331 -1054.8101
17.967501 -47.7159 -1055.36
17.553101 -47.155899 -1055.4399
15.744 -46.799 -1055.51
15.1146 -46.815701 -1055.64
14.5354 -46.7328 -1055.9399
14.0199 -46.223499 -1055.88
12.357 -45.550598 -1056.38
11.1914 -44.975601 -1056.58
10.4859 -45.054798 -1056.6
8.47995 -44.638699 -1056.73
7.6121502 -44.8685 -1056.59
7.15732 -44.226799 -1056.73
6.39288 -44.294102 -1056.76
5.5100398 -44.5793 -1056.55
4.9516001 -43.993198 -1056.49
4.1046801 -44.1478 -1056.5
3.4797101 -43.650002 -1056.37
1.8773201 -43.453098 -1056.05
0.962982 -43.5914 -1056.08
0.25946 -43.1838 -1055.95
-2.4325299 -43.291302 -1055.51
-3.46188 -43.4366 -1055.52
-4.2546101 -43.070202 -1055.4301
-8.6521301 -43.154701 -1054.27
-9.8571796 -43.087002 -1053.59
-10.9838 -43.0434 -1052.92
-12.8989 -43.838001 -1052.21
37.905602 -61.0144 -1040.5601
36.477402 -59.485401 -1042.27
34.137199 -56.720299 -1045.28
33.444901 -56.258598 -1046.17
32.438599 -55.245201 -1047.1
31.6668 -54.956299 -1047.75
31.1255 -53.933998 -1048.45
30.2523 -53.701199 -1049.08
29.497499 -52.9501 -1049.41
28.6605 -52.614399 -1050.1899
27.5432 -51.633202 -1050.97
27.072599 -51.5546 -1051.1899
25.8736 -50.5746 -1051.99
25.3349 -50.5751 -1052.12
24.754801 -50.630199 -1052.15
24.105 -49.550999 -1052.98
23.5877 -49.518299 -1053.15
23.0515 -49.518398 -1053.28
22.2202 -48.673302 -1053.74
21.626101 -48.738701 -1053.8199
21.295601 -48.0107 -1054.0601
20.1665 -47.9324 -1054.4399
19.6178 -47.8643 -1054.72
19.2201 -47.259102 -1054.78
18.6381 -47.3018 -1054.9301
18.070101 -47.3195 -1055.04
17.639799 -46.763802 -1055.12
17.011 -46.750702 -1055.25
16.493299 -46.568001 -1055.6801
15.3187 -46.209202 -1055.62
14.1861 -45.659901 -1055.74
12.9109 -45.670399 -1056.04
12.5327 -44.993801 -1056.2
11.8182 -45.097198 -1056.22
10.6072 -44.567299 -1056.3101
9.9908104 -44.464901 -1056.64
9.1437397 -44.716702 -1056.4301
8.5980501 -44.176102 -1056.4301
7.8710899 -44.216202 -1056.51
7.3229098 -43.6348 -1056.46
6.5717802 -43.7183 -1056.52
5.7714801 -43.8918 -1056.4399
5.2474399 -43.2663 -1056.51
3.6861 -43.109299 -1056.14
2.78879 -43.2794 -1056.15
2.1568601 -42.826599 -1056.0601
1.3283401 -42.794201 -1056.3199
-0.42181399 -42.7463 -1055.8101
-1.30084 -42.768101 -1056.02
-1.95676 -42.338299 -1055.9301
-3.1205101 -42.824501 -1055.52
-4.10706 -42.685902 -1054.92
-5.02246 -42.451801 -1054.45
-6.3221698 -42.8923 -1054.0699
-7.2718201 -42.7607 -1054.53
-9.5249004 -42.501499 -1053.35
-12.1897 -42.909901 -1052.2
37.719101 -59.300499 -1041.29
35.558399 -57.388901 -1043.92
35.0741 -56.4105 -1044.63
33.995499 -55.846901 -1045.72
33.071899 -54.663799 -1046.85
31.499001 -54.158298 -1048.0699
30.865801 -53.176498 -1048.71
30.3759 -53.198601 -1048.78
29.361 -51.955898 -1049.9301
28.8543 -51.957901 -1050.1
26.8309 -50.740501 -1051.45
26.0821 -49.864899 -1051.9301
25.4902 -49.9879 -1051.9
24.7549 -48.988701 -1052.6
24.2465 -48.958599 -1052.78
23.7414 -48.910198 -1052.96
22.826599 -48.288502 -1053.1801
22.398701 -48.0602 -1053.6899
21.82 -48.098999 -1053.77
20.3367 -47.348 -1054.37
19.658001 -47.5182 -1054.29
18.8437 -46.661201 -1054.92
17.857401 -46.082901 -1055.1899
17.1628 -46.239498 -1055.1
16.604099 -46.132301 -1055.36
16.236799 -45.3815 -1055.65
15.6418 -45.354198 -1055.79
14.4738 -44.8466 -1055.91
13.8312 -44.867401 -1056.0699
12.7558 -44.315701 -1056.17
12.0159 -44.451199 -1056.11
11.4103 -44.356602 -1056.46
10.023 -44.1035 -1056.1
9.4324598 -43.932999 -1056.55
8.8348103 -43.444302 -1056.42
8.0821199 -43.5425 -1056.47
6.8382301 -43.030998 -1056.45
6.1061101 -43.050701 -1056.63
5.4671302 -42.666401 -1056.4399
4.72504 -42.6124 -1056.6801
3.08447 -42.5453 -1056.25
1.51138 -42.285099 -1056.14
0.65249598 -42.3284 -1056.23
-0.0635681 -42.020401 -1056.01
-1.73996 -41.760799 -1055.77
-2.7045 -41.916 -1055.77
-3.5401299 -41.647202 -1055.41
-7.9678001 -41.952702 -1053.88
37.514198 -58.637001 -1041.4399
35.832699 -56.602501 -1044.13
34.9286 -55.539799 -1044.98
33.862202 -54.943901 -1046.2
33.264301 -54.020802 -1046.79
32.41 -53.889999 -1047.27
31.902201 -52.765301 -1048.0699
31.041201 -52.561401 -1048.5601
30.184 -52.310799 -1049.1899
29.4935 -51.4258 -1049.66
29.042101 -51.315201 -1050
28.2208 -51.007198 -1050.7
27.528799 -50.118198 -1051.1899
26.524799 -50.025799 -1051.6
26.2353 -49.293301 -1051.74
25.2556 -49.075001 -1052.3
24.940201 -48.3564 -1052.54
23.942101 -48.243301 -1052.98
23.486799 -48.115101 -1053.3
23.0235 -47.7132 -1053.15
22.539499 -47.513401 -1053.55
21.440901 -47.465401 -1053.9301
20.993999 -47.001301 -1053.85
20.5284 -46.770599 -1054.33
20.1022 -46.220501 -1054.36
18.9596 -46.209702 -1054.6899
18.4751 -46.072102 -1055.04
18.055099 -45.441799 -1055.08
17.330799 -45.622101 -1055
16.333 -44.9352 -1055.34
15.8112 -44.735199 -1055.74
15.1122 -44.904499 -1055.6899
14.6502 -44.284698 -1055.73
14.0098 -44.315601 -1055.85
13.4575 -44.156101 -1056.24
12.3032 -43.653099 -1056.1801
11.5973 -43.746601 -1056.3101
11.1242 -43.124802 -1056.29
10.3503 -43.268002 -1056.3101
9.6595497 -43.281399 -1056.4399
9.1355 -42.689098 -1056.42
8.2999296 -42.8564 -1056.3101
7.6472201 -42.803101 -1056.64
7.0479102 -42.4119 -1056.42
6.4324298 -42.241501 -1056.8199
5.67242 -42.049702 -1056.37
4.9208398 -42.040298 -1056.54
4.0637202 -42.247898 -1056.4399
3.3261099 -41.9412 -1056.1801
1.7413599 -41.732899 -1055.97
0.043853801 -41.609798 -1055.5601
-0.84585601 -41.694 -1055.67
-1.55048 -41.287201 -1055.35
-2.4755199 -41.372898 -1055.6
-3.3928199 -41.163799 -1054.98
-4.3029199 -41.0798 -1055.37
-5.4162598 -41.154499 -1054.4301
-6.37012 -41.019001 -1054.9
-8.8209496 -41.382999 -1053.8101
-9.84869 -41.171902 -1053.25
38.445301 -59.199299 -1040.36
37.373798 -57.855499 -1041.78
35.976799 -56.048 -1043.96
34.7314 -54.793301 -1045.27
34.042801 -54.303799 -1046.15
33.0583 -53.243999 -1047.05
32.308498 -52.8587 -1047.8101
31.7262 -51.920502 -1048.34
30.9146 -51.593102 -1049.04
29.810801 -50.549702 -1049.9
29.0376 -49.813499 -1050.2
28.1215 -49.6479 -1050.66
27.7216 -49.438999 -1051.09
26.7253 -49.381599 -1051.48
25.9175 -48.5905 -1051.9399
25.480101 -48.3638 -1052.39
24.5984 -47.7584 -1052.62
24.1413 -47.6091 -1052.97
23.681601 -47.4935 -1053.33
22.691299 -46.9963 -1053.41
22.2027 -46.859402 -1053.78
21.696199 -46.719002 -1054.14
20.6989 -46.164799 -1054.3199
19.7967 -45.451199 -1054.64
19.224199 -45.4128 -1054.8101
18.614901 -45.517502 -1054.84
18.1957 -44.890701 -1054.92
17.6492 -44.785301 -1055.23
17.032101 -44.8139 -1055.3101
16.0508 -44.057701 -1055.74
15.3812 -44.090801 -1055.85
14.3085 -43.489899 -1056.01
13.5879 -43.6348 -1055.96
12.5822 -42.861099 -1056.35
11.883 -42.944698 -1056.36
10.637 -42.462299 -1056.4
9.8684702 -42.614601 -1056.3101
9.2565298 -42.188702 -1056.15
8.5927095 -42.108501 -1056.45
7.8049302 -42.2766 -1056.4301
7.2778301 -41.7514 -1056.4
6.6568899 -41.601799 -1056.79
5.8839402 -41.487099 -1056.24
5.0683599 -41.612499 -1056.28
4.3516502 -41.5508 -1056.5699
3.6577499 -41.151501 -1056.38
2.7692299 -41.330101 -1056.37
2.15433 -40.788898 -1056.29
-2.0896001 -40.581299 -1055.63
-2.6982999 -40.1581 -1055.4399
-3.8791201 -40.3965 -1055.26
-5.4047198 -39.819698 -1054.38
-6.6374502 -39.982601 -1054.55
-8.0640297 -40.3125 -1054.24
37.993801 -58.253399 -1041.01
35.4799 -55.066299 -1044.5601
34.907799 -54.097698 -1045.2
33.767399 -53.656601 -1046.1801
33.235199 -52.564602 -1046.92
32.154499 -52.000599 -1048.13
31.5422 -51.110699 -1048.5601
30.673 -50.921398 -1049.09
30.2728 -50.681599 -1049.5699
29.503599 -49.915298 -1049.9301
28.306999 -49.031502 -1050.65
27.4251 -48.726101 -1051.3199
26.0728 -48.027599 -1051.85
25.603001 -47.860802 -1052.2
24.732901 -47.2202 -1052.55
22.8612 -46.4072 -1053.35
22.4069 -46.229099 -1053.79
22.027 -45.560299 -1053.86
20.944201 -45.476398 -1054.3199
20.3186 -45.515202 -1054.38
19.9706 -44.827702 -1054.55
19.3477 -44.922901 -1054.5601
18.8209 -44.833801 -1054.83
17.798201 -44.195801 -1055.0601
17.278999 -44.055801 -1055.41
16.627001 -44.096699 -1055.48
16.08 -43.684299 -1055.23
15.6033 -43.415401 -1055.78
14.9348 -43.483799 -1055.86
14.4859 -42.8573 -1055.88
13.9201 -42.758301 -1056.1801
13.2086 -42.946201 -1056.03
12.7372 -42.310799 -1056.11
12.0891 -42.2896 -1056.3101
11.3318 -42.455799 -1056.21
10.7823 -41.925499 -1056.1899
9.4773598 -41.557899 -1056.15
8.8465595 -41.465 -1056.49
8.0225496 -41.7015 -1056.3101
7.4858999 -41.170601 -1056.35
6.7922101 -41.157299 -1056.55
6.1672401 -40.8214 -1056.27
5.2632098 -41.100498 -1056.08
1.49429 -40.4617 -1056.01
0.724823 -40.372898 -1056.35
-0.80777001 -40.059299 -1056.17
-1.53326 -39.830101 -1055.58
-3.2592499 -39.632599 -1055.3
-7.3042302 -39.348099 -1054.65
-8.78864 -39.861 -1054.17
-9.8633099 -39.7836 -1053.6
-10.8517 -39.578602 -1053.3101
39.013302 -57.299099 -1040.26
38.1469 -56.605499 -1041.54
37.360699 -55.351002 -1042.66
36.3475 -54.7701 -1043.8199
35.631199 -54.445999 -1044.47
34.3923 -53.0383 -1045.95
33.788799 -52.079102 -1046.5
33.063702 -51.7029 -1047.24
32.295799 -51.481098 -1047.79
31.3762 -50.293098 -1048.87
30.8958 -50.237598 -1049.04
29.952101 -50.0555 -1049.5699
28.8195 -49.010101 -1050.5601
27.5509 -48.220901 -1051.17
27.117201 -48.054699 -1051.54
26.2146 -47.486099 -1051.78
24.973101 -46.472401 -1052.65
23.940599 -46.443802 -1052.98
23.4554 -46.366001 -1053.27
23.102501 -45.638 -1053.46
22.5072 -45.695 -1053.51
21.6077 -45.001499 -1053.89
21.094299 -44.861099 -1054.24
20.492201 -44.891102 -1054.3
19.0166 -44.167999 -1054.75
18.3843 -44.222198 -1054.86
18.001301 -43.504002 -1054.99
17.4014 -43.5401 -1055.11
16.8403 -43.425999 -1055.45
16.2824 -42.9944 -1055.15
15.7579 -42.823502 -1055.5699
15.1307 -42.8619 -1055.75
14.6746 -42.225201 -1055.7
13.3562 -42.369701 -1055.85
12.9464 -41.693501 -1056.03
12.2309 -41.788601 -1056.0601
11.6051 -41.723499 -1056.3101
9.1455097 -40.7841 -1056.52
8.3471403 -40.908798 -1056.53
7.0693402 -40.548599 -1056.47
5.7890902 -40.1488 -1056.45
5.1471601 -39.930401 -1056.97
3.6510899 -39.741001 -1056.63
2.6036699 -40.052898 -1056.39
1.90564 -39.7598 -1055.99
-0.35025001 -39.260399 -1056.25
-2.0798299 -39.133099 -1055.85
-2.91537 -38.8946 -1055.27
-3.84708 -38.949402 -1055.4399
-5.9728699 -38.862099 -1055.0601
-7.2216501 -39.0037 -1054.1899
-9.41187 -38.968601 -1053.84
-15.553 -40.007599 -1050.46
37.108299 -56.111198 -1042.54
36.194199 -53.925098 -1044.09
34.694698 -53.359501 -1045.38
32.207001 -50.543201 -1048.25
31.4841 -49.783798 -1048.66
30.654499 -49.4412 -1049.4301
30.189301 -49.333099 -1049.7
29.4305 -48.520802 -1050.21
28.976 -48.421299 -1050.5
28.1964 -47.700001 -1050.86
27.7472 -47.5835 -1051.21
26.753799 -47.4445 -1051.65
25.959999 -46.638699 -1052.16
25.3901 -46.716599 -1052.21
24.6397 -45.834801 -1052.79
24.139999 -45.765099 -1052.99
23.599199 -45.790298 -1053.14
23.254499 -45.078602 -1053.3
22.1936 -44.957298 -1053.77
21.8015 -44.323502 -1053.79
21.215099 -44.310001 -1053.99
20.6357 -44.346901 -1054.11
19.741899 -43.5662 -1054.5
19.185699 -43.544102 -1054.66
18.612499 -43.478001 -1054.88
18.2276 -42.820599 -1054.95
17.047701 -42.741001 -1055.34
15.937 -42.213699 -1055.46
15.3918 -42.045101 -1055.83
14.3717 -41.430698 -1056.08
13.6931 -41.5294 -1056.09
12.5046 -41.151402 -1056.03
11.8602 -41.100201 -1056.29
11.0599 -41.2262 -1056.23
10.6167 -40.710201 -1056.2
9.9469604 -40.6161 -1056.59
8.0669298 -40.097698 -1056.9301
7.5641799 -39.7047 -1056.73
6.86514 -39.647499 -1057.01
4.5454998 -39.517502 -1056.8101
3.95316 -39.061798 -1056.59
3.0525501 -39.199001 -1056.58
1.58997 -38.772099 -1056.58
0.505615 -39.228802 -1056.11
-0.102783 -38.606602 -1056.11
-1.06537 -38.900799 -1055.95
-1.7899801 -38.321899 -1055.86
-3.55197 -38.155998 -1055.6801
-4.9240398 -38.856899 -1054.9
-6.0060101 -38.590099 -1054.54
-8.0911903 -38.5117 -1054.22
-9.4379902 -38.684399 -1053.27
-10.4803 -38.723499 -1053.58
-11.9518 -38.940102 -1052.47
-13.1752 -38.540699 -1052.34
-16.740101 -39.143002 -1050.09
38.234402 -54.9963 -1041.9
36.321999 -53.3036 -1043.91
35.6768 -52.876099 -1044.75
34.7155 -51.754398 -1045.66
34.016399 -51.357201 -1046.52
33.0895 -50.278702 -1047.46
32.362 -49.91 -1048.22
31.2589 -48.967999 -1049.0601
30.7563 -48.907001 -1049.24
30.366199 -48.661999 -1049.73
29.5296 -48.046001 -1050.02
29.055201 -47.973 -1050.22
27.443001 -46.876999 -1051.46
26.903799 -46.8979 -1051.53
26.0788 -46.131001 -1051.92
25.5842 -46.057701 -1052.1801
23.851 -45.008701 -1053.28
22.889999 -44.414398 -1053.36
22.366899 -44.307598 -1053.66
21.4142 -43.637501 -1053.97
20.3388 -43.534199 -1054.38
19.393101 -42.874199 -1054.5699
18.862499 -42.734699 -1054.95
17.2024 -42.1945 -1055.11
16.631201 -42.1021 -1055.4
16.186701 -41.525299 -1055.47
15.5028 -41.6106 -1055.48
13.8583 -41.090099 -1055.78
12.8503 -40.428799 -1056.2
12.2274 -40.372501 -1056.45
11.408 -40.520599 -1056.42
10.3495 -39.836399 -1056.8101
9.6870098 -39.772701 -1057.11
8.2532997 -39.692501 -1056.52
7.73492 -39.1376 -1056.5601
7.1281099 -38.999199 -1056.9301
6.2857699 -39.140701 -1056.92
5.5669298 -38.833401 -1056.54
4.8011498 -38.867401 -1056.6801
4.0137901 -38.557301 -1056.3
3.1756899 -38.678501 -1056.27
2.38379 -38.716 -1056.41
1.58118 -38.376499 -1056.0601
0.721466 -38.490398 -1056.0699
-0.92584199 -38.2341 -1055.8
-2.76263 -38.1539 -1055.39
-3.68121 -37.693501 -1055.38
-4.80478 -38.153999 -1054.92
-6.0898399 -38.296398 -1054.0699
-6.93713 -38.142502 -1054.53
-7.1441002 -37.948502 -1053.9
-8.1044598 -38.071499 -1053.96
-9.3840599 -38.0793 -1053.22
-10.415 -38.161098 -1053.3199
-11.8589 -38.202702 -1052.5601
-13.2842 -38.219799 -1051.77
-14.9429 -38.3367 -1050.9399
-17.0818 -38.9697 -1049.29
-19.1201 -39.461601 -1047.9
39.774502 -57.0411 -1039.35
39.111 -55.723 -1040.52
35.567699 -51.886398 -1045.3
34.527199 -50.9515 -1046.03
33.483799 -50.357399 -1047.23
33.270901 -49.650299 -1047.45
32.097301 -49.225101 -1048.42
31.747601 -48.639099 -1048.52
30.8622 -48.431198 -1049.09
30.1693 -47.4963 -1049.77
29.7691 -47.339199 -1050.15
28.076599 -46.392899 -1051
27.6087 -46.279701 -1051.33
26.251499 -45.537201 -1051.84
25.473801 -44.694901 -1052.25
24.968599 -44.626301 -1052.52
24.0068 -44.398399 -1053.13
23.474199 -44.339802 -1053.36
23.1462 -43.6236 -1053.52
22.5411 -43.666599 -1053.58
22.045401 -43.570499 -1053.88
21.078199 -42.873001 -1054.15
20.5049 -42.917801 -1054.23
19.953899 -42.852901 -1054.45
18.439301 -42.124001 -1054.88
17.910101 -41.9995 -1055.26
17.473301 -41.4622 -1055.2
16.794399 -41.616699 -1055.17
16.546499 -40.7523 -1055.64
15.7722 -41.002602 -1055.46
15.2331 -40.899799 -1055.73
14.5907 -40.8937 -1055.92
14.3066 -40.215599 -1056.2
13.6234 -40.2327 -1056.34
12.4279 -39.877701 -1056.29
11.7994 -39.754799 -1056.59
10.462 -39.408901 -1056.4399
9.8241596 -39.365101 -1056.71
9.2444496 -38.9021 -1056.6
8.5495901 -38.895401 -1056.71
7.19736 -38.454498 -1056.6899
6.3710899 -38.634998 -1056.58
4.9144602 -38.278099 -1056.51
2.4218099 -38.193901 -1056.12
1.59674 -37.7649 -1055.92
0.77749598 -37.847401 -1055.9399
-0.0888367 -37.559399 -1055.67
-1.905 -37.401901 -1055.4301
-3.8143301 -37.315102 -1055.12
-5.1322899 -37.5107 -1054.17
-6.1628098 -37.747299 -1053.99
-7.45117 -37.7356 -1053.28
-8.25949 -37.683399 -1053.5601
-9.4834299 -37.4925 -1053.05
-10.7416 -38.043999 -1052.48
-12.2469 -38.202499 -1051.51
-13.7845 -38.1661 -1050.78
-15.3064 -37.9767 -1050.33
39.969501 -56.367901 -1039.3199
37.219898 -52.942699 -1043.1801
36.253799 -52.330898 -1044.42
35.314999 -51.230499 -1045.42
34.685699 -50.3871 -1045.9399
33.9314 -50.073002 -1046.62
32.627399 -48.820999 -1047.99
32.247898 -48.621101 -1048.39
31.4841 -47.860199 -1048.8101
31.0595 -47.722198 -1049.17
30.384001 -46.7836 -1049.8101
29.488899 -46.6035 -1050.33
28.987801 -46.6465 -1050.41
28.222099 -45.846802 -1050.84
26.879299 -45.413898 -1051.87
26.020901 -44.643799 -1052.2
24.1227 -43.914398 -1052.86
23.630199 -43.764702 -1053.1801
23.271299 -43.1091 -1053.22
21.6063 -42.992001 -1053.8199
20.7911 -42.109901 -1054.34
20.146099 -42.23 -1054.3101
19.281799 -41.5424 -1054.64
18.731501 -41.445099 -1054.96
17.197001 -40.793499 -1055.49
15.485 -40.2966 -1055.77
14.4525 -39.697701 -1055.97
13.8377 -39.674702 -1056.17
13.1714 -39.691502 -1056.36
12.6859 -39.106098 -1056.35
11.9612 -39.179501 -1056.4301
11.212 -39.356899 -1056.36
10.6088 -38.846901 -1056.3199
9.97153 -38.755699 -1056.59
9.32162 -38.2621 -1056.49
8.5323801 -38.487701 -1056.3
7.8575101 -38.5322 -1056.39
7.2365699 -37.904999 -1056.52
6.4142499 -38.132999 -1056.34
4.8773499 -37.711102 -1056.3
4.0483999 -37.9305 -1056.15
2.4393001 -37.5438 -1056.0699
1.47934 -37.322201 -1055.7
-0.13797 -37.019199 -1055.58
-1.08618 -37.377102 -1055.27
-2.14871 -37.185902 -1054.9
-3.0711401 -37.447201 -1054.73
-4.20679 -37.301102 -1054.2
-6.5016198 -37.5947 -1053.3
-7.5397601 -37.204201 -1053.04
-12.1334 -37.192902 -1051.98
-13.976 -37.617901 -1050.51
-15.8403 -38.111401 -1049.11
-17.0231 -38.0317 -1049.53
-17.6707 -38.2327 -1048.35
39.9039 -55.436199 -1039.7
38.556599 -53.736801 -1041.65
37.756599 -52.446701 -1042.89
36.880001 -51.3354 -1043.9
36.184101 -51.019501 -1044.6
35.434399 -50.685398 -1045.27
34.472 -49.590302 -1046.33
33.7892 -49.229698 -1047.09
32.754501 -48.2514 -1047.9
32.402302 -48.022598 -1048.36
31.712999 -47.110199 -1048.95
30.709299 -47.129501 -1049.22
30.0291 -46.2286 -1049.8
29.583799 -46.130501 -1050.05
27.9809 -44.990898 -1051.15
27.566299 -44.821201 -1051.5699
26.6481 -44.203201 -1051.71
26.2791 -43.882099 -1052.35
25.679399 -44.0177 -1052.26
24.8974 -43.176399 -1052.71
24.317699 -43.2131 -1052.83
23.8297 -43.1022 -1053.09
22.970501 -42.365799 -1053.4
22.469101 -42.2187 -1053.74
21.798 -42.355801 -1053.64
21.321501 -42.1703 -1054.11
20.465099 -41.4496 -1054.47
20.219101 -40.751598 -1054.72
18.494301 -40.629299 -1055.36
18.020399 -40.186001 -1055.3
17.300699 -40.3736 -1055.16
16.8501 -40.0634 -1055.83
16.3022 -39.628201 -1055.67
15.7475 -39.587601 -1055.91
15.1281 -39.592499 -1056.03
14.6771 -38.964802 -1056.13
13.351 -39.044998 -1056.29
12.7729 -38.488602 -1056.3
12.0503 -38.654598 -1056.25
11.4469 -38.560101 -1056.54
10.0055 -38.2355 -1056.34
9.2862196 -37.754002 -1056.29
7.9269099 -37.8423 -1056.39
6.33569 -37.6045 -1056.11
5.6268301 -37.626301 -1056.21
5.4440899 -37.291901 -1055.8
3.85745 -37.586498 -1055.66
2.1217 -36.804699 -1055.3199
1.22412 -37.132099 -1055.09
-0.294067 -36.754501 -1055.09
-1.27756 -37.0667 -1054.87
-2.28387 -36.839401 -1054.47
-3.0306399 -36.237499 -1054.51
-4.3085299 -36.867599 -1053.86
-5.0665898 -36.2966 -1053.88
-6.4706998 -36.976501 -1053.08
-8.3815899 -36.516499 -1053.1899
-9.6821299 -36.6516 -1052.2
-11.0923 -37.1768 -1051.73
-12.3359 -36.962002 -1051.1899
-15.7847 -37.717701 -1048.71
40.702499 -55.1185 -1038.9301
39.6623 -53.739101 -1040.36
38.728298 -53.109001 -1041.58
38.064899 -52.7174 -1042.39
37.064499 -50.700401 -1043.95
36.322399 -50.460602 -1044.5
35.318802 -49.4753 -1045.36
34.571602 -49.131199 -1046.11
33.307098 -47.771599 -1047.53
32.561199 -47.375401 -1048.36
31.8606 -46.4972 -1048.91
30.992599 -46.268902 -1049.48
30.265499 -45.472198 -1049.86
29.2799 -45.440399 -1050.13
28.9541 -45.158001 -1050.71
28.2318 -44.229698 -1051.3
26.4074 -43.312599 -1052.14
25.338699 -43.298901 -1052.4
24.598301 -42.4161 -1052.9
24.065001 -42.369801 -1053.09
23.565201 -42.323399 -1053.29
23.248699 -41.705101 -1053.42
22.6684 -41.684601 -1053.58
21.632299 -41.459801 -1054.21
21.3368 -40.763901 -1054.4399
20.720699 -40.858398 -1054.45
19.759199 -40.275501 -1054.71
19.143499 -40.3134 -1054.8
18.138901 -39.6353 -1055.17
17.484301 -39.765301 -1055.17
16.9512 -39.604301 -1055.54
16.4076 -39.070202 -1055.45
15.9406 -38.8409 -1055.97
15.1961 -39.078098 -1055.79
14.7252 -38.382 -1055.99
13.4305 -38.483799 -1056.17
12.6586 -38.133202 -1055.87
12.0251 -38.165001 -1055.97
11.1517 -37.871899 -1055.62
10.4886 -37.861099 -1055.77
9.8835802 -37.7757 -1056.04
9.0742197 -37.4249 -1055.71
8.3660898 -37.504501 -1055.77
7.7100501 -37.576 -1055.86
6.0071402 -37.4636 -1055.34
5.2604098 -36.996601 -1055.27
4.5164499 -36.9855 -1055.42
2.9324601 -36.768902 -1055.26
1.3597701 -36.412399 -1055.17
0.38650501 -36.818001 -1054.85
-1.31738 -36.5849 -1054.5699
-0.98168898 -35.703098 -1054.86
-2.0737901 -36.0923 -1054.52
-3.8312399 -35.784 -1054.38
-4.9557199 -35.8246 -1053.54
-6.2195401 -36.279999 -1053.09
-7.1950998 -36.041302 -1052.58
-8.1485004 -35.856602 -1053.17
-9.43332 -36.095798 -1051.96
-10.8725 -36.471001 -1051.6801
-13.3972 -36.226101 -1050.6
-15.1115 -36.556801 -1049.48
38.3479 -51.571499 -1042.21
37.627998 -51.278099 -1042.9
36.789902 -50.139 -1043.98
36.108601 -49.695599 -1044.78
35.593899 -48.634998 -1045.64
34.762798 -48.4426 -1046.12
33.809399 -47.3577 -1047.08
33.012001 -47.095501 -1047.66
32.2612 -46.290199 -1048.0601
31.4534 -45.979401 -1048.75
31.073 -45.742699 -1049.2
29.9821 -44.766201 -1050.02
28.693501 -44.339199 -1050.95
27.376801 -43.531399 -1051.52
27.0825 -42.741299 -1051.77
26.041401 -42.7201 -1052.03
25.5909 -42.536999 -1052.46
24.871201 -41.783798 -1052.9
24.361099 -41.684898 -1053.13
23.4832 -41.047501 -1053.45
22.9475 -40.979301 -1053.6801
22.357 -40.993099 -1053.83
21.932501 -40.431 -1053.9
21.485001 -40.250301 -1054.3
19.962099 -39.576302 -1054.79
19.359301 -39.595901 -1054.92
18.725201 -39.678299 -1054.98
16.9548 -39.1502 -1055.2
16.5422 -38.358002 -1055.6
13.2703 -38.1619 -1055.64
12.4389 -37.855701 -1055.35
11.8155 -37.826199 -1055.54
8.9692097 -36.980801 -1055.35
6.8600202 -36.666698 -1055.34
6.0770302 -36.796001 -1055.3199
5.4482098 -36.281399 -1055.34
4.4899902 -36.624001 -1055.01
3.0932 -36.129101 -1055.2
2.2929699 -35.868198 -1054.84
1.3647799 -36.093399 -1054.6899
0.57516497 -36.125401 -1054.9
-0.124512 -35.719799 -1054.61
-1.89737 -35.556198 -1054.29
-2.8882799 -35.744801 -1054.21
-3.7985499 -35.528599 -1053.8
-5.8937101 -35.562599 -1053.11
-8.2167397 -35.910301 -1052.0699
-10.3413 -35.604198 -1051.86
39.4995 -51.563499 -1041.0601
38.462601 -51.068699 -1042.02
36.966499 -49.467701 -1043.97
35.288101 -48.002399 -1045.6801
34.9212 -47.8311 -1046.05
34.003399 -46.5979 -1047.11
32.779598 -46.2775 -1047.97
31.5912 -45.378101 -1048.64
30.8246 -44.988998 -1049.4301
30.117901 -44.118 -1049.89
29.751301 -43.897701 -1050.35
28.0404 -42.947399 -1051.16
26.843 -41.992401 -1052.04
26.296 -42.041698 -1052.08
25.372601 -41.807701 -1052.71
24.015699 -41.0951 -1053.24
23.598101 -40.5028 -1053.38
23.129101 -40.358898 -1053.75
22.516399 -40.3871 -1053.8
21.433001 -39.951099 -1053.85
21.082899 -39.6143 -1054.5
20.4991 -39.661301 -1054.53
20.0175 -39.051498 -1054.64
19.441 -39.044601 -1054.79
18.5389 -38.9879 -1054.09
18.3314 -38.374802 -1055.1
15.6483 -38.189301 -1055
15.0809 -37.5368 -1055.08
14.3775 -37.715599 -1055.02
13.8354 -37.623001 -1055.36
13.1813 -37.679699 -1055.41
12.3772 -37.3461 -1055.01
11.1322 -36.698299 -1055.16
10.3579 -36.854698 -1055.14
9.6043701 -36.998901 -1055.12
9.0481005 -36.414398 -1055.17
8.36765 -36.433899 -1055.35
7.8408198 -35.849701 -1055.4301
6.97015 -36.139 -1055.17
6.2708702 -36.100498 -1055.4
4.7397499 -35.875599 -1055.21
4.1705298 -35.357399 -1055.22
3.12994 -35.752201 -1054.85
2.5383899 -35.167099 -1054.91
1.55573 -35.541698 -1054.54
0.91326898 -35.268902 -1055.1801
0.36373901 -34.7827 -1055.05
-0.82134998 -35.213001 -1054.58
-1.48291 -34.732899 -1054.54
-2.3780501 -34.790001 -1054.59
-3.5576799 -34.860699 -1053.67
-4.4322801 -34.752499 -1054.05
-5.48141 -34.644299 -1053.38
-6.63553 -35.0256 -1053.11
-7.56317 -34.626499 -1052.79
-8.9866896 -35.161999 -1052.24
-9.94559 -34.789299 -1052.16
-11.2037 -34.747601 -1051.49
-12.7572 -35.280899 -1051
-14.2727 -35.542099 -1050.04
40.68 -52.442101 -1039.33
39.642502 -50.952499 -1040.9301
38.713001 -50.302299 -1042.1899
37.122299 -48.840302 -1043.88
36.024502 -48.372398 -1044.89
35.0499 -47.223499 -1045.87
34.7644 -46.8904 -1046.46
33.691399 -46.028599 -1047.11
32.995899 -45.533001 -1048.0699
32.270199 -44.6982 -1048.4399
31.8799 -44.502102 -1048.85
31.0298 -44.259998 -1049.46
30.334999 -43.414799 -1049.86
29.477501 -43.1758 -1050.45
29.011299 -43.088299 -1050.74
28.226601 -42.3885 -1051.0601
27.3279 -42.085701 -1051.79
27.0443 -41.368801 -1052.03
25.625401 -41.1362 -1052.8199
25.186501 -40.616299 -1052.8
24.1565 -40.5145 -1053.2
22.5762 -39.897999 -1053.63
21.374201 -39.557598 -1053.5
21.187599 -38.938301 -1054.49
20.226999 -39.067699 -1053.55
19.5145 -38.3587 -1054.86
18.2327 -37.891998 -1054.88
17.319599 -38.409302 -1054.25
16.899401 -38.158001 -1054.75
15.5283 -37.793499 -1054.6
13.6801 -37.246399 -1054.77
12.4436 -36.754299 -1054.79
11.7428 -36.750999 -1054.88
11.3202 -36.0466 -1055.14
10.4654 -36.3358 -1054.84
9.6904898 -36.4543 -1054.89
9.2760897 -35.757999 -1055.11
8.5678101 -35.805801 -1055.3101
7.9976201 -35.387199 -1055.23
7.1939402 -35.470001 -1055.26
5.7519202 -35.2075 -1055.09
1.89807 -34.7131 -1054.75
1.10922 -34.772499 -1054.83
-0.362183 -34.2733 -1055
-1.2728601 -34.1259 -1054.36
-1.94189 -33.887402 -1054.8101
-3.1557 -34.0322 -1053.86
-7.2657199 -33.9342 -1052.8199
-8.4000196 -34.105801 -1052.85
-9.7975502 -34.4697 -1051.66
-10.7859 -34.063999 -1051.58
-12.4787 -34.700199 -1050.88
-15.8103 -35.2314 -1048.87
-17.0847 -34.947899 -1048.5
39.316799 -50.752102 -1041.29
38.529999 -49.480999 -1042.55
37.8241 -49.1381 -1043.21
36.957199 -47.960098 -1044.24
35.862202 -47.4231 -1045.33
35.270699 -46.469799 -1045.99
34.435001 -46.296902 -1046.42
33.8563 -45.343601 -1046.99
33.145599 -44.882099 -1047.92
31.5793 -43.812698 -1048.91
30.784 -43.502201 -1049.64
30.126301 -42.7136 -1050.0601
29.6607 -42.628399 -1050.3101
28.747101 -42.399502 -1050.92
28.4774 -41.665298 -1051.22
27.582199 -41.376301 -1051.88
27.218599 -40.7449 -1052.08
26.2148 -40.669498 -1052.47
25.586201 -40.421101 -1052.03
23.808901 -39.763 -1053.5601
22.6539 -39.263699 -1053.58
21.2353 -39.2141 -1053.05
21.1712 -38.450298 -1054.3199
20.1364 -38.591999 -1053.23
19.7675 -38.280602 -1053.8101
19.3997 -37.913502 -1054.51
18.5364 -37.819401 -1053.77
18.125999 -37.560001 -1054.33
16.359301 -36.9277 -1054.67
15.6199 -37.133099 -1054.46
14.5341 -36.518398 -1054.62
13.9115 -36.470901 -1054.83
13.255 -36.4618 -1055.0601
11.934 -36.163502 -1054.79
10.866 -35.5284 -1055.12
10.1604 -35.480598 -1055.38
9.5997601 -35.165401 -1055.1899
8.6620197 -35.449299 -1054.95
7.46768 -34.833 -1055.26
6.54739 -35.111301 -1055.0699
4.34097 -34.806702 -1055.05
3.6157501 -34.4007 -1054.87
2.81915 -34.437599 -1055.02
1.3917201 -34.054298 -1054.9
0.59667999 -34.136101 -1054.92
-0.34234601 -33.984501 -1054.35
-3.9119301 -33.396999 -1053.89
-4.9256902 -33.629299 -1053.83
-5.90378 -33.449501 -1053.3101
-8.20084 -33.563702 -1052.66
-12.045 -33.8773 -1051.11
-13.2594 -33.653999 -1050.7
-15.2199 -34.410801 -1048.96
40.426201 -50.7243 -1040.1
38.704102 -48.793201 -1042.54
38.035702 -48.3983 -1043.27
37.149399 -47.258999 -1044.24
36.340401 -47.0807 -1044.74
35.417702 -45.8428 -1045.84
34.3214 -45.344501 -1046.9301
33.7001 -44.439499 -1047.39
32.879601 -44.2052 -1048.02
32.009899 -43.972401 -1048.5601
31.4203 -43.010899 -1049.29
31.027201 -42.8494 -1049.63
30.2799 -42.151299 -1050
29.443399 -41.8036 -1050.74
28.9391 -41.7542 -1050.9301
27.9851 -41.256302 -1051.11
27.599899 -41.0149 -1051.5601
26.2707 -40.161098 -1052.3101
25.2651 -39.546501 -1052.51
23.927799 -39.4114 -1052.05
22.8253 -39.3815 -1052.35
22.5907 -38.830101 -1053.3199
22.118999 -38.076801 -1053.52
21.011 -38.132801 -1053.77
19.778099 -37.776798 -1053.54
19.331301 -37.526901 -1054.05
18.1931 -37.006699 -1054.05
17.614901 -36.948399 -1054.29
16.9939 -36.924198 -1054.47
16.4447 -36.4412 -1054.33
15.8017 -36.4771 -1054.38
15.2017 -36.451401 -1054.5699
14.1607 -35.843899 -1054.77
13.5515 -35.669102 -1055.17
12.81 -35.828098 -1055.11
12.3475 -35.363098 -1055.0699
11.5585 -35.519199 -1055.02
11.1652 -34.9156 -1055.25
10.5508 -34.741798 -1055.66
9.18155 -34.537498 -1055.37
8.4298096 -34.534302 -1055.52
7.8489399 -34.1255 -1055.33
6.9114399 -34.3158 -1055.16
6.0905499 -34.3895 -1055.34
5.2617202 -34.2285 -1054.77
4.57513 -34.061798 -1055.15
3.8928499 -33.6758 -1054.9
2.9781799 -33.9062 -1054.79
1.72375 -33.255402 -1055.03
0.89392102 -33.420399 -1054.95
0.051361099 -33.083401 -1054.62
-0.98791498 -33.417099 -1054.3199
-2.9072299 -33.2952 -1053.86
-3.8049901 -32.970501 -1053.51
-4.9570298 -33.333302 -1053.25
-5.6847801 -32.780701 -1053.35
-7.7463398 -32.730301 -1053.02
-9.1904602 -33.3106 -1052.35
-11.4831 -33.094501 -1051.1
-16.4193 -33.7654 -1048.99
39.3601 -49.1992 -1041.71
37.812698 -47.684399 -1043.4301
37.266602 -46.707001 -1044.05
36.196999 -46.1119 -1045.25
35.2117 -45.013401 -1046.1
33.9645 -43.726898 -1047.5
32.68 -43.4258 -1048.3101
32.437 -42.702099 -1048.58
30.748301 -42.140701 -1049.84
30.369699 -41.635399 -1049.89
29.615 -41.1759 -1050.79
28.036699 -40.777599 -1050.9
27.7082 -40.4077 -1051.53
26.320101 -39.5975 -1052.22
25.565001 -39.929001 -1051.87
25.2083 -39.128799 -1052.1899
24.892099 -38.763302 -1052.83
21.364201 -37.973598 -1052.85
21.018999 -37.595402 -1053.5
20.397499 -37.709801 -1053.47
19.9671 -37.044899 -1053.5601
19.3234 -37.105801 -1053.63
18.8197 -36.938801 -1053.96
17.0536 -36.426399 -1054.16
14.9221 -35.683601 -1054.89
14.3854 -35.337101 -1054.6899
13.7214 -35.364601 -1054.8
13.1677 -35.134701 -1055.33
12.5694 -34.8153 -1055.0699
11.997 -34.645302 -1055.48
11.3743 -34.292198 -1055.26
10.6615 -34.3578 -1055.34
9.9101601 -34.493401 -1055.29
9.3041401 -34.064098 -1055.0601
8.6222496 -34.093899 -1055.1899
7.4016399 -33.425201 -1055.52
5.6906099 -33.293201 -1055.04
4.7498798 -33.539398 -1054.91
4.1224699 -33.027802 -1054.83
3.24423 -33.145901 -1054.86
2.4887099 -33.130699 -1055.03
1.88809 -32.685001 -1054.78
1.24356 -32.5881 -1055.1
-0.665039 -32.6115 -1054.42
-1.5589 -32.700298 -1054.41
-2.33832 -32.132801 -1054.59
-4.6930799 -32.7071 -1053.25
-5.5397 -32.3452 -1053.0601
-6.35602 -32.2523 -1053.46
-8.9806499 -32.796902 -1052.2
-9.9662199 -32.638901 -1051.64
-14.4669 -33.0504 -1049.91
41.711498 -51.021301 -1038.24
40.4067 -49.291401 -1040.25
39.1758 -48.398201 -1041.98
38.626202 -47.398701 -1042.6
37.113602 -45.771198 -1044.47
32.9104 -42.731701 -1048.42
32.120098 -42.034901 -1048.79
31.763 -41.7892 -1049.28
30.844801 -41.6628 -1049.6801
30.3507 -41.259602 -1049.54
29.727501 -40.610401 -1050.73
28.959999 -40.418201 -1050.1899
28.836599 -40.3475 -1051.4
26.4154 -39.650799 -1050.99
25.5061 -38.977798 -1051.28
25.2066 -38.585899 -1051.95
23.7696 -38.269199 -1052.86
23.0784 -38.0065 -1052.33
22.642099 -37.732601 -1052.91
22.038099 -37.812302 -1052.9399
21.128599 -36.994301 -1053.35
20.5795 -36.992199 -1053.49
19.58 -36.315102 -1053.77
18.962601 -36.344398 -1053.85
18.2724 -36.484501 -1053.79
17.9247 -35.693401 -1054.17
17.261 -35.762699 -1054.29
16.2054 -35.259499 -1054.4
15.6591 -35.215599 -1054.6
15.1059 -35.172501 -1054.78
13.9739 -34.692402 -1054.89
12.781 -34.175701 -1055.08
12.1071 -34.163101 -1055.22
10.7592 -33.839298 -1055.09
10.0857 -33.835899 -1055.22
9.5541096 -33.236401 -1055.3
8.7997704 -33.445999 -1055.16
8.1725197 -33.356098 -1055.49
7.60992 -32.811199 -1055.45
6.7867999 -32.921398 -1055.4
5.1936002 -32.576801 -1055.29
3.5222199 -32.404598 -1054.89
2.6182899 -32.652 -1054.66
1.35291 -32.059799 -1054.83
-0.444336 -31.970699 -1054.37
-1.2681 -31.987101 -1054.55
-3.40714 -32.171101 -1053.8
-4.3649001 -31.954399 -1053.4399
-7.2811899 -31.670099 -1052.5601
-8.53055 -31.916 -1052.47
41.2048 -48.969601 -1039.49
39.305099 -47.7906 -1041.8101
37.406399 -46.069099 -1043.88
36.1894 -44.680199 -1045.39
35.005798 -44.310001 -1046.27
34.520401 -43.312099 -1047.0601
33.816799 -42.573502 -1047.55
33.019901 -42.197601 -1048.29
32.196499 -41.517502 -1048.71
31.231001 -41.4636 -1048.99
31.0744 -40.8643 -1049.95
29.996 -40.530499 -1049.8
28.5411 -39.770302 -1050.33
28.045 -39.666801 -1050.61
26.203699 -38.749298 -1051.52
25.246401 -38.128502 -1051.65
24.865801 -37.831402 -1052.21
23.7708 -37.789398 -1052.53
22.795099 -37.105301 -1052.76
22.2717 -37.031898 -1053.08
21.7784 -36.498501 -1052.9301
21.233999 -36.459801 -1053.12
20.736 -36.369801 -1053.41
19.740499 -35.7043 -1053.7
19.1299 -35.7565 -1053.78
18.027399 -35.211498 -1053.99
17.332001 -35.375198 -1053.9301
15.7426 -34.733898 -1054.42
15.279 -34.5798 -1054.75
14.7801 -34.020199 -1054.84
14.2294 -33.951199 -1055.1
13.512 -34.0527 -1055.11
12.2625 -33.590099 -1055.09
11.5811 -33.576 -1055.3
10.3061 -33.084801 -1055.36
8.9362202 -32.8013 -1055.0601
8.1980305 -32.889999 -1055.11
7.6510301 -32.360901 -1055.05
7.0197101 -32.2845 -1055.35
6.1151099 -32.495602 -1055.28
3.6758699 -31.872101 -1054.6
2.8930399 -31.921101 -1054.72
1.52716 -31.517799 -1054.71
0.55743402 -31.684799 -1054.6801
-0.328491 -31.5228 -1054.05
-1.12607 -31.413 -1054.47
-2.0387299 -31.098 -1054.27
-3.1961701 -31.597799 -1053.73
-4.1406298 -31.369801 -1053.39
-5.2920198 -31.6518 -1053.2
-6.0987201 -31.3347 -1052.79
-8.42484 -30.658001 -1052.25
-9.6315603 -30.966499 -1052.04
42.354801 -49.879299 -1037.78
38.537399 -46.068298 -1042.64
