# .PCD v0.7 - Point Cloud Data file format
VERSION 0.7
FIELDS x y z
SIZE 4 4 4
TYPE F F F
COUNT 1 1 1
WIDTH 1619
HEIGHT 1
VIEWPOINT 0 0 0 1 0 0 0
POINTS 1619
DATA ascii
-34.505699 -57.040901 -1012.27
-34.082802 -57.6147 -1011.16
-33.876301 -58.112999 -1009.96
-33.0905 -59.513401 -1006.97
-11.5424 -52.513 -1051.98
-12.56 -52.228001 -1051.54
-13.4415 -51.983898 -1051.12
-14.0331 -51.862202 -1050.74
-14.343 -51.841499 -1050.42
-14.9119 -51.720901 -1050.04
-16.426701 -51.3671 -1049.16
-16.9554 -51.251301 -1048.77
-17.3897 -51.212799 -1048.39
-18.0292 -51.110802 -1047.96
-19.0278 -50.928501 -1047.13
-19.572399 -50.8456 -1046.71
-20.174601 -50.7537 -1046.27
-20.949499 -50.678398 -1045.46
-21.6045 -50.573502 -1044.98
-22.3584 -50.542702 -1044.15
-22.7868 -50.517899 -1043.72
-23.3741 -50.423401 -1043.24
-23.665501 -50.434101 -1042.8199
-24.135401 -50.408401 -1042.37
-24.5308 -50.3619 -1041.9301
-24.974899 -50.355 -1041.48
-25.2703 -50.367901 -1041.03
-25.6583 -50.384899 -1040.58
-26.843 -50.3335 -1039.2
-27.142799 -50.381001 -1038.76
-27.465799 -50.391602 -1038.29
-27.6168 -50.4604 -1037.87
-28.0131 -50.462502 -1037.39
-28.1784 -50.537601 -1036.95
-28.603201 -50.528999 -1036.46
-28.7374 -50.632 -1036.02
-29.1992 -50.612499 -1035.51
-29.3344 -50.6917 -1035.0601
-29.9184 -50.7953 -1034.11
-30.181 -50.828201 -1033.62
-30.7626 -50.914001 -1032.65
-31.098301 -51.086498 -1031.7
-31.4056 -51.123699 -1031.1899
-31.755699 -51.336399 -1030.24
-31.959999 -51.426102 -1029.74
-32.254299 -51.481098 -1029.23
-32.526501 -51.541599 -1028.71
-32.5042 -51.704201 -1028.26
-32.800098 -51.758202 -1027.74
-32.8508 -51.887402 -1027.26
-33.003799 -52.0117 -1026.74
-33.118599 -52.127399 -1026.24
-33.367699 -52.368801 -1025.23
-33.464001 -52.514999 -1024.72
-33.570099 -52.815102 -1023.72
-33.8181 -52.896099 -1023.18
-33.9249 -53.036999 -1022.66
-33.9515 -53.203098 -1022.17
-34.3349 -53.6035 -1020.52
-34.221199 -53.819801 -1020.05
-34.222599 -53.985401 -1019.53
-34.445999 -54.1185 -1018.93
-34.433899 -54.269402 -1018.41
-34.4827 -54.472401 -1017.87
-34.4963 -54.6432 -1017.33
-34.547901 -55.019402 -1016.23
-34.530998 -55.222401 -1015.65
-34.601898 -55.372501 -1015.1
-34.463902 -55.644798 -1014.55
-34.518101 -55.7817 -1013.97
-34.320202 -56.077499 -1013.44
-34.3237 -56.486401 -1012.28
-34.3582 -56.708302 -1011.69
-33.989899 -57.909199 -1008.67
-33.244099 -58.816898 -1006.9
-33.230999 -59.072701 -1006.27
-11.8491 -51.763401 -1051.88
-12.4805 -51.632 -1051.52
-13.2187 -51.453899 -1051.12
-14.0245 -51.2551 -1050.71
-14.5874 -51.132401 -1050.33
-15.1 -51.014 -1049.95
-15.8441 -50.836601 -1049.52
-16.4741 -50.740799 -1049.11
-17.644699 -50.523102 -1048.28
-18.126699 -50.451199 -1047.89
-19.190399 -50.2705 -1047.05
-19.7302 -50.186901 -1046.63
-20.2855 -50.089001 -1046.1899
-20.847401 -50.007301 -1045.75
-21.4272 -49.915798 -1045.3
-21.812901 -49.905899 -1044.88
-22.181101 -49.900799 -1044.47
-22.5229 -49.8885 -1044.05
-22.962601 -49.843399 -1043.63
-23.539 -49.779499 -1043.15
-23.952299 -49.764301 -1042.72
-24.3009 -49.752102 -1042.29
-24.663 -49.747299 -1041.84
-25.1115 -49.716801 -1041.38
-25.4415 -49.711399 -1040.9399
-25.7397 -49.730801 -1040.5
-26.186899 -49.721001 -1040.04
-26.781099 -49.7766 -1039.15
-27.8155 -49.801102 -1037.77
-28.3195 -49.7826 -1037.26
-28.4505 -49.847198 -1036.84
-28.660299 -49.9146 -1036.38
-28.937599 -49.962502 -1035.9
-29.4629 -50.0536 -1034.97
-29.667 -50.122299 -1034.52
-29.930201 -50.182499 -1034.05
-30.2652 -50.198101 -1033.55
-30.4718 -50.281502 -1033.08
-30.7383 -50.327301 -1032.6
-30.956301 -50.407398 -1032.11
-31.33 -50.577099 -1031.16
-32.100201 -50.626598 -1030.1
-32.2686 -50.866901 -1029.17
-32.481701 -50.967701 -1028.67
-32.706001 -51.176899 -1027.7
-33.208 -51.5341 -1026.17
-33.177799 -51.695702 -1025.71
-33.526901 -51.898701 -1024.6801
-33.701199 -52.1632 -1023.65
-33.793201 -52.321602 -1023.13
-34.006802 -52.416199 -1022.59
-34.1292 -52.5606 -1022.07
-34.283699 -52.6763 -1021.52
-34.165501 -52.8923 -1021.03
-34.279701 -53.016201 -1020.5
-34.327 -53.185699 -1019.96
-34.442699 -53.332401 -1019.44
-34.453701 -53.524601 -1018.9
-34.813801 -53.755699 -1017.78
-34.801899 -53.9534 -1017.23
-34.4398 -54.255901 -1016.75
-34.448399 -54.843498 -1015.09
-34.713001 -55.377701 -1013.32
-34.125999 -56.8139 -1009.87
-12.858 -50.851299 -1051.39
-14.3035 -50.524101 -1050.6
-15.4147 -50.294102 -1049.84
-15.905 -50.236 -1049.47
-17.1754 -49.948002 -1048.62
-17.8202 -49.8428 -1048.2
-18.4079 -49.741501 -1047.78
-18.789801 -49.668201 -1047.4
-19.3778 -49.5909 -1046.96
-19.9548 -49.494099 -1046.53
-20.4669 -49.423401 -1046.1
-21.050699 -49.325401 -1045.66
-21.615999 -49.232101 -1045.2
-22.058701 -49.309299 -1044.45
-22.7136 -49.204102 -1043.96
-23.135 -49.1586 -1043.52
-23.586599 -49.121201 -1043.08
-23.994101 -49.087002 -1042.64
-24.1588 -49.153801 -1042.27
-24.9228 -49.0144 -1041.73
-25.368999 -49.004002 -1041.26
-25.467501 -49.077999 -1040.87
-25.7728 -49.104099 -1040.4301
-26.242599 -49.064701 -1039.96
-26.967699 -49.054798 -1039.05
-27.246799 -49.084499 -1038.59
-27.5224 -49.144699 -1038.16
-28.005301 -49.110901 -1037.66
-28.3466 -49.1278 -1037.1899
-28.506599 -49.230301 -1036.75
-28.710501 -49.287998 -1036.3
-29.1136 -49.2873 -1035.8199
-29.7353 -49.330799 -1034.85
-30.0814 -49.489601 -1033.95
-30.364 -49.5504 -1033.46
-30.665899 -49.5872 -1032.97
-30.823999 -49.672901 -1032.52
-31.2117 -49.7019 -1032.01
-31.221001 -49.8447 -1031.5601
-31.8181 -49.931702 -1030.55
-32.007599 -50.0494 -1030.05
-32.346699 -50.219398 -1029.09
-32.478298 -50.3232 -1028.61
-32.933998 -50.482201 -1027.6
-32.8442 -50.691502 -1027.16
-33.262501 -50.863602 -1026.11
-33.418598 -51.148602 -1025.12
-33.756001 -51.1828 -1024.5699
-33.8363 -51.3409 -1024.0601
-33.949402 -51.6231 -1023.05
-34.088902 -51.7752 -1022.52
-34.303001 -51.841702 -1021.98
-34.5023 -52.152802 -1020.91
-34.695702 -52.268799 -1020.35
-34.680099 -52.442902 -1019.84
-34.637501 -52.838699 -1018.82
-34.641998 -52.990799 -1018.28
-34.823502 -53.112999 -1017.73
-34.607601 -53.390099 -1017.22
-34.754501 -53.528801 -1016.65
-34.744701 -53.913502 -1015.54
-34.735298 -54.115501 -1014.99
-34.8745 -54.228699 -1014.38
-34.629601 -54.528301 -1013.88
-34.650799 -54.7444 -1013.3
-34.5975 -54.951401 -1012.74
-34.824501 -55.094601 -1012.12
-34.5359 -55.3936 -1011.57
-34.412701 -55.863098 -1010.41
-34.268902 -56.1231 -1009.81
-34.1003 -56.5882 -1008.6
-33.904999 -56.879101 -1008.03
-33.8414 -57.135899 -1007.42
-33.717999 -57.412701 -1006.8
-32.7202 -58.927299 -1003.61
-11.7402 -50.425499 -1052.05
-12.4694 -50.254902 -1051.67
-13.1755 -50.103699 -1051.28
-13.7435 -49.970299 -1050.9301
-14.3906 -49.802101 -1050.53
-15.5668 -49.570999 -1049.76
-16.6579 -49.376801 -1048.97
-17.322901 -49.250198 -1048.54
-17.898199 -49.152 -1048.13
-18.468 -49.071602 -1047.72
-19.0306 -48.973999 -1047.29
-19.657301 -48.866501 -1046.84
-20.1887 -48.794601 -1046.41
-20.636999 -48.7299 -1046
-21.0172 -48.673401 -1045.6
-21.487499 -48.6432 -1045.17
-21.9515 -48.5914 -1044.73
-22.4028 -48.561298 -1044.3101
-22.9163 -48.503601 -1043.85
-23.1577 -48.509399 -1043.46
-24.350599 -48.4641 -1042.15
-24.8139 -48.4347 -1041.6899
-25.4788 -48.451401 -1040.8101
-25.9384 -48.419498 -1040.33
-26.605801 -48.429798 -1039.4301
-26.962601 -48.451 -1038.99
-27.4037 -48.423302 -1038.5
-27.6759 -48.4641 -1038.0601
-28.077499 -48.445801 -1037.58
-28.539301 -48.5494 -1036.6801
-29.1579 -48.6437 -1035.74
-29.487101 -48.664501 -1035.26
-29.903999 -48.797199 -1034.34
-30.34 -48.791302 -1033.8199
-30.5002 -48.879002 -1033.37
-30.829399 -48.8988 -1032.88
-30.944599 -49.0229 -1032.4399
-31.3456 -49.186401 -1031.48
-31.772301 -49.176201 -1030.9301
-32.096298 -49.3885 -1029.98
-32.297401 -49.620701 -1029.03
-32.469501 -49.696098 -1028.55
-32.827099 -49.737999 -1028.04
-33.083302 -49.806702 -1027.5
-33.336899 -50.071899 -1026.5
-33.577099 -50.1385 -1025.98
-33.4384 -50.330898 -1025.53
-33.640099 -50.438 -1025.02
-33.880199 -50.5163 -1024.5
-33.914902 -50.679901 -1023.99
-34.070999 -50.963001 -1022.97
-34.281399 -51.060001 -1022.43
-34.609699 -51.134998 -1021.87
-34.485298 -51.336201 -1021.38
-34.565498 -51.479099 -1020.85
-34.7122 -51.615002 -1020.33
-34.818501 -51.947601 -1019.25
-34.964001 -52.066299 -1018.69
-35.000599 -52.419201 -1017.63
-34.955898 -52.834202 -1016.56
-34.998402 -52.994099 -1016
-34.773998 -53.269699 -1015.49
-34.846298 -53.453899 -1014.94
-34.899399 -54.2047 -1012.63
-34.566502 -54.7057 -1011.53
-34.620899 -55.127102 -1010.32
-33.668201 -56.9673 -1006.15
-33.5089 -57.2808 -1005.5
-33.091499 -57.888 -1004.25
-32.8297 -58.247299 -1003.59
-32.653702 -58.564701 -1002.93
-11.7354 -49.803902 -1052.01
-12.5803 -49.571201 -1051.61
-13.4124 -49.3634 -1051.1899
-13.8386 -49.278 -1050.85
-14.3214 -49.1931 -1050.51
-15.0822 -49.040401 -1050.08
-15.8549 -48.849098 -1049.65
-16.5016 -48.726501 -1049.24
-17.1138 -48.617298 -1048.83
-17.582899 -48.549198 -1048.4399
-17.9797 -48.510601 -1048.0601
-18.6467 -48.366699 -1047.61
-19.063499 -48.323399 -1047.22
-19.5861 -48.2164 -1046.8
-20.082899 -48.189499 -1046.39
-20.692801 -48.073399 -1045.92
-21.1227 -48.031898 -1045.51
-21.679199 -47.950802 -1045.0699
-22.246599 -47.860298 -1044.6
-22.4429 -47.906799 -1044.23
-22.9597 -47.852798 -1043.77
-23.3351 -47.8204 -1043.36
-23.744499 -47.811699 -1042.91
-24.173599 -47.788799 -1042.47
-24.6112 -47.747799 -1042.02
-25.183901 -47.681198 -1041.54
-25.3757 -47.737202 -1041.14
-25.7824 -47.7019 -1040.67
-26.111 -47.7253 -1040.22
-26.425501 -47.744999 -1039.78
-26.8762 -47.7034 -1039.3
-27.259501 -47.7108 -1038.85
-27.5077 -47.771099 -1038.42
-27.924299 -47.7593 -1037.9399
-28.2374 -47.921902 -1037.08
-28.9757 -47.920601 -1036.12
-29.2761 -47.962898 -1035.64
-29.7195 -47.968201 -1035.13
-29.7661 -48.080601 -1034.71
-30.0842 -48.114899 -1034.23
-30.5753 -48.085201 -1033.71
-30.785 -48.154499 -1033.25
-30.970301 -48.2626 -1032.79
-31.125999 -48.302799 -1032.3199
-31.2355 -48.451099 -1031.87
-31.531601 -48.5037 -1031.36
-31.722 -48.570599 -1030.87
-32.346298 -48.813301 -1029.41
-32.494202 -48.900799 -1028.9399
-32.5355 -49.060101 -1028.47
-32.8134 -49.104801 -1027.95
-33.240101 -49.135799 -1027.4
-33.446602 -49.391102 -1026.41
-33.4235 -49.564098 -1025.95
-33.976898 -49.702499 -1024.87
-33.9021 -49.861198 -1024.42
-34.2939 -49.933102 -1023.84
-34.264702 -50.2663 -1022.87
-34.4189 -50.3769 -1022.34
-34.666302 -50.6497 -1021.3
-34.715401 -50.8125 -1020.77
-34.950401 -50.891399 -1020.22
-34.941002 -51.085701 -1019.71
-34.692799 -51.344398 -1019.23
-34.730701 -51.490501 -1018.69
-35.023499 -51.9646 -1017.04
-34.943199 -52.187401 -1016.52
-34.9594 -52.3479 -1015.96
-35.116699 -52.5172 -1015.4
-35.105099 -53.118599 -1013.71
-34.9147 -53.3643 -1013.17
-35.324299 -53.412998 -1012.51
-34.98 -53.721001 -1012.01
-34.816502 -53.969501 -1011.44
-34.895199 -54.371899 -1010.23
-34.381199 -55.400002 -1007.9
-34.183498 -55.709202 -1007.32
-33.609402 -56.591599 -1005.47
-12.7079 -48.9179 -1051.54
-13.4131 -48.7328 -1051.15
-13.9837 -48.593399 -1050.78
-14.6921 -48.433899 -1050.38
-15.3634 -48.321201 -1049.98
-15.8115 -48.238602 -1049.61
-16.4037 -48.115002 -1049.2
-17.0889 -48.002602 -1048.77
-17.7038 -47.8913 -1048.36
-18.122999 -47.815201 -1047.97
-18.766199 -47.7113 -1047.53
-19.094801 -47.668598 -1047.15
-19.829201 -47.549599 -1046.6899
-20.482 -47.453899 -1046.23
-20.8304 -47.407101 -1045.84
-21.1803 -47.3848 -1045.4399
-21.742201 -47.316101 -1044.98
-23.0919 -47.167801 -1043.6801
-23.516001 -47.1642 -1043.25
-24.250401 -47.1395 -1042.38
-24.8379 -47.065899 -1041.9
-25.2209 -47.047199 -1041.45
-25.8043 -47.078499 -1040.6
-26.1703 -47.0844 -1040.14
-26.8878 -47.094501 -1039.24
-27.292999 -47.071701 -1038.78
-27.8248 -47.176601 -1037.89
-28.0742 -47.236401 -1037.45
-28.4158 -47.209801 -1036.97
-29.0028 -47.292301 -1036.04
-29.5016 -47.297798 -1035.53
-29.724001 -47.3265 -1035.0601
-29.870001 -47.421799 -1034.63
-30.360701 -47.545898 -1033.6899
-30.8279 -47.5173 -1033.17
-31.005199 -47.602001 -1032.71
-31.175699 -47.677601 -1032.24
-31.630899 -47.8414 -1031.27
-31.8431 -47.929001 -1030.79
-32.3605 -48.019901 -1029.79
-32.608501 -48.2598 -1028.84
-32.848301 -48.330101 -1028.3199
-33.2113 -48.387798 -1027.8101
-33.391102 -48.477901 -1027.3199
-33.5168 -48.755901 -1026.35
-33.519798 -48.898399 -1025.86
-33.697601 -49.018799 -1025.35
-34.142399 -49.183998 -1024.3
-34.076801 -49.3941 -1023.84
-34.193802 -49.5009 -1023.32
-34.397999 -49.593102 -1022.78
-34.515301 -49.891701 -1021.78
-34.657299 -50.024899 -1021.25
-35.049099 -50.073799 -1020.65
-34.8769 -50.458698 -1019.65
-35.034401 -50.799801 -1018.59
-35.191799 -51.0919 -1017.49
-35.120701 -51.314999 -1016.98
-35.087799 -51.4781 -1016.44
-35.219398 -51.633701 -1015.86
-35.1115 -51.879299 -1015.33
-35.087299 -52.0634 -1014.78
-35.124298 -52.258099 -1014.22
-35.077702 -52.880299 -1012.52
-34.944901 -53.732201 -1010.19
-34.667801 -54.4823 -1008.43
-34.3689 -55.0103 -1007.24
-33.915401 -55.6119 -1006.06
-32.8564 -57.4007 -1002.21
-32.6357 -57.733002 -1001.57
-11.3379 -48.667599 -1052.26
-11.9581 -48.5112 -1051.89
-13.549 -48.1063 -1051.0699
-14.3018 -47.926399 -1050.66
-14.758 -47.8381 -1050.3101
-15.38 -47.721901 -1049.92
-15.9262 -47.608002 -1049.53
-16.6353 -47.4856 -1049.09
-17.2728 -47.368198 -1048.66
-17.8391 -47.2607 -1048.26
-18.444201 -47.165901 -1047.84
-18.9317 -47.079899 -1047.4301
-19.389799 -47.013 -1047.03
-20.337601 -46.8909 -1046.21
-20.893999 -46.851002 -1045.76
-21.8491 -46.714802 -1044.9
-22.2612 -46.674301 -1044.47
-22.6635 -46.659698 -1044.05
-23.6556 -46.530602 -1043.16
-24.0266 -46.5117 -1042.73
-24.4765 -46.487499 -1042.27
-24.8279 -46.507702 -1041.85
-25.1887 -46.493401 -1041.39
-25.594299 -46.469501 -1040.96
-25.988199 -46.468601 -1040.49
-26.327 -46.483398 -1040.05
-26.5065 -46.540298 -1039.65
-27.073999 -46.4949 -1039.13
-27.283001 -46.545799 -1038.71
-27.5366 -46.5881 -1038.27
-27.815701 -46.618198 -1037.8199
-28.145 -46.636398 -1037.36
-28.727699 -46.5784 -1036.84
-29.073799 -46.577099 -1036.36
-29.295 -46.667599 -1035.91
-29.8969 -46.723999 -1034.95
-30.044901 -46.805199 -1034.51
-30.3531 -46.838699 -1034.05
-30.4175 -46.976101 -1033.61
-30.8477 -46.977501 -1033.11
-30.9265 -47.075901 -1032.66
-31.444599 -47.0485 -1032.13
-31.7519 -47.2285 -1031.2
-32.1432 -47.409199 -1030.23
-32.310101 -47.506001 -1029.75
-32.4688 -47.604801 -1029.27
-32.725201 -47.678699 -1028.75
-32.916302 -47.779701 -1028.26
-32.960999 -47.938301 -1027.8101
-33.250099 -47.981098 -1027.29
-33.9865 -48.159599 -1025.72
-33.891701 -48.384201 -1025.25
-33.8167 -48.564499 -1024.78
-34.3447 -48.898399 -1023.24
-34.563202 -49.148701 -1022.21
-34.762299 -49.2733 -1021.67
-34.626598 -49.479301 -1021.18
-34.9524 -49.701 -1020.1
-35.161499 -49.7938 -1019.55
-35.061699 -50.200199 -1018.53
-35.1478 -50.3741 -1017.98
-35.1796 -50.571701 -1017.46
-35.331799 -50.675499 -1016.88
-35.248001 -50.863701 -1016.36
-35.430099 -51.009602 -1015.77
-35.2155 -51.4618 -1014.72
-35.200001 -51.864399 -1013.61
-35.161499 -52.0797 -1013.04
-35.3797 -52.201599 -1012.42
-35.3326 -52.4006 -1011.86
-35.197601 -52.643902 -1011.29
-34.932499 -53.394299 -1009.54
-34.6213 -53.912399 -1008.39
-34.4478 -54.413799 -1007.21
-33.026699 -57.004799 -1001.47
-10.8065 -48.176498 -1052.53
-11.668 -47.953602 -1052.13
-12.3338 -47.791801 -1051.77
-13.014 -47.655602 -1051.39
-13.7717 -47.4958 -1050.98
-14.3121 -47.372101 -1050.62
-14.9837 -47.205898 -1050.21
-15.6608 -47.0518 -1049.79
-16.307501 -46.948101 -1049.39
-16.865499 -46.856899 -1049
-17.4562 -46.7439 -1048.58
-17.996599 -46.6637 -1048.1801
-18.6765 -46.524799 -1047.73
-18.994101 -46.5229 -1047.37
-20.0233 -46.358898 -1046.53
-20.584801 -46.284401 -1046.1
-21.0746 -46.191601 -1045.66
-21.5681 -46.123299 -1045.23
-22.108801 -46.0662 -1044.78
-22.318501 -46.096901 -1044.4
-22.934799 -45.995499 -1043.9399
-23.382401 -45.9678 -1043.5
-23.5938 -45.998501 -1043.11
-24.0471 -45.956402 -1042.66
-24.6492 -45.877399 -1042.17
-25.0284 -45.8797 -1041.74
-25.2966 -45.903702 -1041.3199
-25.839701 -45.9464 -1040.47
-26.325001 -45.923401 -1039.98
-26.5532 -45.9744 -1039.5601
-27.111799 -45.91 -1039.0601
-27.6129 -45.869499 -1038.58
-27.6693 -45.995998 -1038.17
-27.8871 -46.0494 -1037.74
-28.3281 -46.0042 -1037.26
-28.561701 -46.057098 -1036.8
-28.842501 -46.090099 -1036.35
-29.206699 -46.119801 -1035.87
-29.6884 -46.0905 -1035.35
-30.070299 -46.235001 -1034.45
-30.337099 -46.273998 -1033.99
-30.5163 -46.374401 -1033.53
-31.5282 -46.615002 -1031.63
-31.7885 -46.6506 -1031.12
-32.568501 -46.846199 -1029.64
-32.7649 -46.9366 -1029.16
-32.888401 -47.2187 -1028.2
-33.142502 -47.285702 -1027.71
-33.341202 -47.3596 -1027.2
-33.370499 -47.5126 -1026.73
-33.9174 -47.639599 -1025.67
-33.941799 -47.7966 -1025.1801
-34.3274 -47.8325 -1024.63
-34.3745 -47.987099 -1024.15
-34.408199 -48.291801 -1023.16
-34.726898 -48.521801 -1022.13
-34.766701 -48.6819 -1021.62
-35.026501 -48.941101 -1020.55
-34.979198 -49.133499 -1020.05
-35.129799 -49.252701 -1019.5
-34.970299 -49.508701 -1019.03
-35.058701 -49.6544 -1018.51
-35.263901 -49.766399 -1017.93
-35.152901 -49.958302 -1017.41
-35.390499 -50.270699 -1016.3
-35.389099 -50.638901 -1015.18
-35.246498 -50.888901 -1014.67
-35.410198 -51.037498 -1014.08
-35.424702 -51.199699 -1013.52
-35.216099 -51.485199 -1012.98
-35.262501 -51.686501 -1012.4
-34.712799 -53.520302 -1007.72
-34.373798 -54.277302 -1005.92
-34.1185 -54.613499 -1005.33
-33.642601 -55.468899 -1003.4
-33.3904 -56.053001 -1002.08
-10.9745 -47.562901 -1052.45
-11.7561 -47.3825 -1052.0699
-12.3119 -47.245701 -1051.72
-13.013 -47.0592 -1051.33
-13.7503 -46.8857 -1050.9301
-14.4122 -46.754601 -1050.54
-15.1005 -46.631302 -1050.13
-15.7493 -46.486198 -1049.72
-16.493 -46.324699 -1049.28
-17.0151 -46.246799 -1048.9
-17.5707 -46.157799 -1048.49
-18.1984 -46.033199 -1048.0699
-18.6444 -45.982498 -1047.6801
-19.0767 -45.924801 -1047.29
-19.621401 -45.820301 -1046.86
-20.072001 -45.762798 -1046.45
-20.65 -45.657799 -1046.01
-21.2439 -45.6036 -1045.5601
-21.547899 -45.573601 -1045.17
-21.9722 -45.570099 -1044.75
-22.553301 -45.473701 -1044.29
-22.832199 -45.476299 -1043.9
-23.386 -45.402901 -1043.4399
-23.7549 -45.3932 -1043.01
-24.253799 -45.357601 -1042.5601
-24.739 -45.305099 -1042.1
-25.172501 -45.291199 -1041.64
-25.4373 -45.297901 -1041.22
-26.5562 -45.317402 -1039.87
-26.7672 -45.351799 -1039.4399
-27.4662 -45.384998 -1038.54
-28.024 -45.3283 -1038.04
-28.1917 -45.4198 -1037.62
-28.323099 -45.483002 -1037.1899
-28.8356 -45.4594 -1036.6801
-29.0317 -45.5228 -1036.25
-29.539 -45.6026 -1035.3199
-30.230101 -45.6661 -1034.36
-30.6129 -45.7873 -1033.46
-31.0082 -45.795601 -1032.96
-31.6581 -45.868 -1031.96
-31.868799 -46.093201 -1031.0601
-32.280399 -46.249802 -1030.1
-32.6717 -46.273399 -1029.5699
-32.8829 -46.504601 -1028.63
-33.088299 -46.576199 -1028.12
-33.181499 -46.719101 -1027.66
-33.389301 -46.8078 -1027.17
-34.017502 -47.069801 -1025.61
-34.2533 -47.307598 -1024.6
-34.5243 -47.382999 -1024.09
-34.602501 -47.663799 -1023.09
-34.652199 -47.809101 -1022.6
-34.873001 -47.912399 -1022.07
-34.900101 -48.236099 -1021.07
-35.108398 -48.512901 -1020.01
-35.096401 -48.704102 -1019.49
-35.2379 -49.014702 -1018.42
-35.3815 -49.141899 -1017.88
-35.323399 -49.338299 -1017.36
-35.365898 -49.528301 -1016.8
-35.603298 -49.8148 -1015.64
-35.305401 -50.119499 -1015.16
-35.444199 -50.646702 -1013.48
-35.206799 -51.530602 -1011.22
-35.016701 -52.441101 -1008.88
-35.144199 -52.8218 -1007.64
-34.677101 -53.627102 -1005.84
-34.078602 -54.293201 -1004.66
-32.8811 -56.169701 -1000.75
-11.1552 -46.9231 -1052.38
-12.0239 -46.708599 -1051.96
-12.7448 -46.525299 -1051.58
-13.4011 -46.379902 -1051.2
-14.0931 -46.235001 -1050.8101
-14.6128 -46.134998 -1050.45
-15.1968 -46.026199 -1050.0601
-15.9687 -45.856098 -1049.63
-16.3967 -45.805302 -1049.27
-17.068701 -45.659698 -1048.83
-17.621 -45.546299 -1048.4301
-18.1598 -45.464199 -1048.03
-18.882299 -45.291 -1047.55
-19.079201 -45.323502 -1047.22
-20.0165 -45.222698 -1046.4
-20.714701 -45.109901 -1045.95
-21.2966 -45.030201 -1045.5
-21.6334 -44.9949 -1045.09
-22.0742 -44.964401 -1044.67
-22.4625 -44.929901 -1044.25
-23.371799 -44.866798 -1043.38
-23.8578 -44.811199 -1042.92
-24.332001 -44.769901 -1042.47
-24.7677 -44.761902 -1042.03
-25.0777 -44.7682 -1041.6
-25.507601 -44.7342 -1041.15
-25.651199 -44.807598 -1040.75
-26.212299 -44.760502 -1040.25
-26.524401 -44.784199 -1039.8
-26.918699 -44.744598 -1039.34
-27.3514 -44.7328 -1038.87
-27.645 -44.772099 -1038.4301
-27.8652 -44.8298 -1038
-28.332001 -44.7906 -1037.51
-28.5023 -44.8745 -1037.1
-28.9251 -44.855202 -1036.61
-29.2806 -44.986599 -1035.72
-29.615101 -45.0079 -1035.24
-30.414 -45.017899 -1034.27
-30.4459 -45.115101 -1033.84
-31.1917 -45.186699 -1032.85
-31.354 -45.2645 -1032.4
-31.548401 -45.330799 -1031.9399
-32.0872 -45.437901 -1030.99
-32.4086 -45.492599 -1030.49
-32.441299 -45.606899 -1030.05
-32.807598 -45.631802 -1029.51
-32.842999 -45.777199 -1029.08
-33.179798 -45.830002 -1028.5601
-33.317902 -45.9319 -1028.09
-33.297401 -46.097198 -1027.64
-33.820702 -46.2309 -1026.61
-34.165798 -46.445099 -1025.6
-34.7313 -46.5387 -1024.52
-34.462601 -46.8055 -1024.11
-34.804298 -47.042801 -1023.07
-34.810299 -47.373699 -1022.09
-35.431499 -47.496498 -1020.99
-35.318802 -47.721298 -1020.49
-35.257702 -47.888699 -1020
-35.561001 -48.3279 -1018.38
-35.518398 -48.536999 -1017.87
-35.5467 -48.705101 -1017.35
-35.969501 -48.9146 -1016.16
-35.4767 -50.252998 -1012.89
-35.6241 -50.391399 -1012.29
-35.642601 -50.5858 -1011.71
-35.7756 -50.747898 -1011.09
-35.677799 -50.9771 -1010.54
-35.1507 -51.795502 -1008.83
-34.562 -53.0839 -1005.85
-34.324501 -53.397202 -1005.24
-34.156399 -53.9147 -1003.94
-32.739101 -56.1301 -999.35498
-11.3054 -46.251301 -1052.29
-12.1854 -46.026402 -1051.88
-12.7817 -45.900799 -1051.52
-13.2739 -45.8293 -1051.1801
-14.1196 -45.618401 -1050.75
-14.8221 -45.4799 -1050.34
-15.3218 -45.400101 -1049.99
-16.1329 -45.198399 -1049.53
-16.703199 -45.0993 -1049.13
-17.199499 -44.990601 -1048.74
-17.702299 -44.9188 -1048.34
-18.2763 -44.8195 -1047.92
-19.036699 -44.675999 -1047.46
-19.389799 -44.663399 -1047.1
-19.7822 -44.608299 -1046.7
-20.643299 -44.529999 -1045.89
-21.2775 -44.434399 -1045.4301
-21.707701 -44.401001 -1045.02
-22.2342 -44.335201 -1044.5699
-22.6318 -44.3018 -1044.14
-23.5665 -44.179501 -1043.25
-24.0149 -44.170799 -1042.8199
-24.463699 -44.125599 -1042.37
-24.623699 -44.199299 -1041.98
-25.1537 -44.145 -1041.52
-25.4874 -44.1423 -1041.08
-26.2542 -44.136299 -1040.17
-26.6346 -44.110199 -1039.7
-26.871599 -44.174702 -1039.29
-27.4086 -44.116402 -1038.79
-27.631001 -44.173901 -1038.37
-27.875 -44.202702 -1037.9399
-28.221701 -44.184502 -1037.47
-28.947901 -44.218399 -1036.5601
-29.2621 -44.249199 -1036.11
-29.5704 -44.296799 -1035.64
-29.799601 -44.342098 -1035.1801
-30.5509 -44.342999 -1034.23
-30.7481 -44.420898 -1033.78
-30.9042 -44.5317 -1033.34
-31.407301 -44.526001 -1032.8199
-31.659201 -44.551701 -1032.36
-32.176701 -44.677601 -1031.4
-32.3046 -44.7845 -1030.9301
-32.483501 -44.854099 -1030.46
-32.832401 -44.896099 -1029.96
-32.900799 -45.028999 -1029.48
-33.206001 -45.0732 -1029
-33.370499 -45.177399 -1028.5
-33.484402 -45.273701 -1028.04
-33.7211 -45.334702 -1027.54
-34.144798 -45.505199 -1026.53
-34.259899 -45.644299 -1026.02
-34.243801 -45.807201 -1025.5699
-34.594002 -45.863602 -1025.04
-34.896099 -45.913101 -1024.5
-34.847599 -46.092602 -1024.02
-34.819099 -46.2589 -1023.55
-35.100201 -46.3326 -1023
-35.2658 -46.4664 -1022.49
-35.437099 -46.543999 -1021.95
-35.433701 -46.733002 -1021.47
-35.6506 -47.027199 -1020.41
-35.7724 -47.1049 -1019.88
-35.754398 -47.326199 -1019.35
-35.649502 -47.5163 -1018.88
-35.997898 -47.592899 -1018.29
-36.049801 -48.1301 -1016.7
-36.042999 -48.292999 -1016.18
-36.1605 -48.435699 -1015.59
-36.033901 -48.687901 -1015.06
-36.0411 -49.065899 -1013.95
-35.858898 -49.32 -1013.45
-35.913898 -49.889301 -1011.71
-35.907299 -50.095699 -1011.13
-35.970501 -50.461201 -1009.95
-35.7822 -50.729599 -1009.34
-35.175999 -51.5793 -1007.59
-34.123001 -53.314098 -1003.94
-11.6656 -45.5961 -1052.16
-12.202 -45.483799 -1051.8199
-12.8504 -45.327099 -1051.45
-14.4311 -44.920898 -1050.62
-14.9307 -44.832199 -1050.26
-15.5619 -44.7388 -1049.87
-16.2586 -44.560501 -1049.45
-16.7911 -44.4468 -1049.05
-17.336901 -44.364899 -1048.64
-17.8512 -44.288399 -1048.25
-18.418501 -44.176701 -1047.8199
-18.926901 -44.113098 -1047.42
-19.5975 -43.980999 -1046.97
-20.0546 -43.938599 -1046.5699
-20.2922 -43.958 -1046.21
-20.895399 -43.8727 -1045.76
-21.485399 -43.783401 -1045.3101
-21.952999 -43.724499 -1044.89
-22.4221 -43.655899 -1044.45
-22.644501 -43.7192 -1044.08
-23.252701 -43.613701 -1043.6
-23.7055 -43.589298 -1043.15
-24.1336 -43.5546 -1042.73
-24.4533 -43.548599 -1042.3101
-24.743999 -43.583401 -1041.89
-25.59 -43.485901 -1040.98
-26.0313 -43.465 -1040.53
-26.370199 -43.5033 -1040.09
-27.3486 -43.3993 -1039.14
-27.566299 -43.473499 -1038.74
-28.278601 -43.469101 -1037.86
-28.583 -43.496101 -1037.42
-28.867201 -43.540298 -1036.99
-29.339001 -43.518902 -1036.5
-29.621 -43.550201 -1036.0601
-30.090099 -43.662601 -1035.12
-30.5508 -43.651901 -1034.63
-30.8606 -43.695 -1034.16
-31.244499 -43.823399 -1033.24
-31.3218 -43.933998 -1032.8101
-31.672899 -43.969501 -1032.3101
-32.004799 -44.002399 -1031.8199
-32.272301 -44.041302 -1031.3199
-32.336102 -44.1856 -1030.87
-32.533798 -44.247799 -1030.4
-33.120201 -44.375801 -1029.39
-33.4869 -44.548401 -1028.4301
-33.602699 -44.663799 -1027.95
-33.630901 -44.803001 -1027.48
-33.753201 -44.906101 -1027
-34.293499 -45.064999 -1025.95
-34.678501 -45.083698 -1025.4
-35.128899 -45.227501 -1024.37
-35.020599 -45.612499 -1023.42
-35.065102 -45.764099 -1022.93
-35.143101 -45.909801 -1022.42
-35.514 -46.277599 -1020.87
-35.875999 -46.682301 -1019.28
-35.739899 -46.947399 -1018.8
-35.932701 -47.0424 -1018.24
-35.887299 -47.222198 -1017.74
-36.0853 -47.505199 -1016.65
-36.0509 -47.692001 -1016.12
-36.218498 -47.840199 -1015.54
-36.1203 -48.069 -1015.01
-35.985699 -48.487 -1013.95
-36.0107 -48.6744 -1013.39
-35.9832 -49.0718 -1012.26
-36.000099 -49.2728 -1011.7
-36.186501 -49.589901 -1010.52
-36.0065 -49.879501 -1009.93
-35.9175 -50.512798 -1008.14
-35.692101 -50.7897 -1007.59
-11.7449 -44.930401 -1052.09
-12.4067 -44.739101 -1051.72
-13.2267 -44.552601 -1051.3101
-13.8471 -44.413502 -1050.9301
-14.32 -44.319901 -1050.58
-15.0136 -44.1786 -1050.1801
-15.5817 -44.0592 -1049.79
-16.202299 -43.948898 -1049.38
-16.938101 -43.801899 -1048.9399
-17.4821 -43.693699 -1048.53
-17.827999 -43.690201 -1048.1899
-18.371901 -43.5863 -1047.77
-19.0385 -43.441601 -1047.3199
-19.5495 -43.377701 -1046.91
-20.008499 -43.320999 -1046.5
-20.6448 -43.215698 -1046.05
-21.573799 -43.120201 -1045.22
-22.202 -43.009998 -1044.77
-22.4708 -43.039001 -1044.39
-22.7274 -43.0313 -1044
-23.355 -42.944599 -1043.53
-23.8312 -42.9086 -1043.09
-24.257799 -42.857601 -1042.66
-24.5569 -42.859299 -1042.25
-25.5452 -42.764099 -1041.34
-26.3055 -42.749298 -1040.48
-26.5203 -42.808899 -1040.0699
-27.062599 -42.7444 -1039.59
-27.5117 -42.7104 -1039.13
-28.1868 -42.7575 -1038.24
-28.259899 -42.8353 -1037.84
-28.7617 -42.807701 -1037.34
-29.045601 -42.8564 -1036.91
-29.427799 -42.891602 -1036.46
-29.601601 -42.939999 -1036.01
-30.054399 -42.913399 -1035.48
-30.3276 -42.964699 -1035
-30.823 -43.0816 -1034.0699
-30.954 -43.195599 -1033.62
-31.5035 -43.264599 -1032.67
-31.4827 -43.4086 -1032.24
-32.250702 -43.314301 -1031.6801
-32.6959 -43.601799 -1030.26
-33.396 -43.653 -1029.23
-33.0187 -43.9631 -1028.84
-33.289101 -44.005199 -1028.35
-33.852299 -43.9758 -1027.8
-34.085602 -44.182098 -1026.83
-33.8027 -44.477299 -1026.39
-34.302101 -44.452202 -1025.8199
-34.771198 -44.4459 -1025.28
-35.036301 -44.667 -1024.27
-34.471199 -45.055801 -1023.88
-35.0261 -45.007599 -1023.3
-35.245499 -45.105801 -1022.79
-35.7897 -45.252701 -1021.72
-35.469002 -45.7188 -1020.76
-35.837898 -45.763901 -1020.21
-35.8741 -46.070999 -1019.16
-35.836498 -46.473499 -1018.15
-36.198502 -46.509399 -1017.57
-36.1796 -46.9007 -1016.52
-36.240898 -47.2169 -1015.41
-36.5541 -47.2897 -1014.83
-36.171902 -47.803398 -1013.82
-36.091099 -48.028702 -1013.27
-36.2878 -48.154701 -1012.68
-36.038101 -48.623199 -1011.6
-36.101601 -48.797401 -1011.03
-36.1926 -48.945 -1010.45
-35.949501 -49.243599 -1009.89
-35.9487 -49.669601 -1008.71
-35.564499 -50.198601 -1007.6
-35.528198 -50.653702 -1006.37
-35.393101 -51.140499 -1005.14
-34.594299 -52.125702 -1003.29
-10.9781 -44.465 -1052.41
-11.8691 -44.248798 -1052
-12.4589 -44.092201 -1051.64
-13.1517 -43.9202 -1051.25
-13.8497 -43.751701 -1050.86
-14.4515 -43.6222 -1050.47
-15.0632 -43.5172 -1050.09
-15.6819 -43.398701 -1049.6899
-16.4354 -43.244801 -1049.25
-16.993299 -43.122799 -1048.85
-17.5501 -43.026402 -1048.45
-18.158899 -42.930099 -1048.03
-18.6241 -42.8358 -1047.63
-19.2057 -42.772598 -1047.22
-19.679199 -42.708698 -1046.8101
-20.057899 -42.672199 -1046.42
-20.4823 -42.625599 -1046.02
-20.9564 -42.584499 -1045.61
-21.6826 -42.431599 -1045.14
-22.500299 -42.376598 -1044.36
-23.177601 -42.246101 -1043.88
-23.525801 -42.240398 -1043.47
-24.027399 -42.2029 -1043.04
-24.6464 -42.0956 -1042.5699
-24.8221 -42.151699 -1042.1801
-25.266001 -42.104198 -1041.74
-25.733299 -42.062099 -1041.28
-26.0392 -42.093201 -1040.86
-26.467699 -42.078899 -1040.41
-26.9279 -42.0448 -1039.9399
-27.2855 -42.0383 -1039.48
-27.5478 -42.086201 -1039.0601
-27.918699 -42.115299 -1038.6
-28.3605 -42.098202 -1038.12
-28.5968 -42.127499 -1037.67
-28.5919 -42.2645 -1037.28
-29.275999 -42.266201 -1036.34
-29.5623 -42.339802 -1035.88
-29.999001 -42.307301 -1035.35
-30.6469 -42.549801 -1033.98
-31.291 -42.604 -1033
-31.702101 -42.598499 -1032.5
-32.176102 -42.736599 -1031.5601
-31.6094 -43.072399 -1031.2
-33.053299 -42.878899 -1030.0601
-32.2341 -43.323399 -1029.74
-32.728001 -43.4711 -1028.74
-33.367599 -43.384499 -1028.17
-33.795799 -43.381901 -1027.66
-33.2244 -43.761002 -1027.28
-34.061501 -43.927898 -1025.73
-34.683399 -43.858002 -1025.15
-35.1646 -44.012402 -1024.1
-34.2687 -44.504601 -1023.76
-34.930199 -44.462101 -1023.17
-35.7542 -44.323399 -1022.54
-35.882801 -44.621601 -1021.54
-35.975498 -45.1129 -1020.02
-36.055099 -45.436901 -1018.99
-35.8223 -45.880501 -1017.99
-36.559399 -45.7897 -1017.36
-36.566399 -46.1548 -1016.32
-36.5536 -46.7024 -1014.71
-36.352001 -47.1353 -1013.63
-36.271801 -47.7523 -1012
-36.188599 -48.152302 -1010.9
-36.052101 -48.409901 -1010.35
-35.765701 -48.6959 -1009.8
-35.843601 -48.892899 -1009.21
-35.783001 -49.298401 -1008.04
-35.694901 -49.736301 -1006.86
-35.423801 -50.059299 -1006.31
-35.438202 -50.267899 -1005.71
-35.192402 -50.7826 -1004.5
-11.1504 -43.7407 -1052.3101
-11.8136 -43.602402 -1051.95
-12.5173 -43.4482 -1051.5601
-13.29 -43.2416 -1051.15
-13.9423 -43.0849 -1050.76
-14.6274 -42.961601 -1050.37
-15.4089 -42.809799 -1049.95
-15.9671 -42.699501 -1049.55
-16.4736 -42.584202 -1049.17
-17.023899 -42.499401 -1048.78
-17.6838 -42.3717 -1048.34
-18.0937 -42.3246 -1047.97
-18.6479 -42.2262 -1047.5601
-19.5184 -42.043499 -1047.09
-19.7782 -42.014301 -1046.74
-20.2892 -41.942001 -1046.35
-20.7138 -41.894199 -1045.97
-21.520399 -41.747002 -1045.51
-21.989 -41.690701 -1045.11
-22.5742 -41.600601 -1044.67
-22.879801 -41.612202 -1044.28
-23.3179 -41.584499 -1043.84
-23.795601 -41.545101 -1043.41
-24.179701 -41.520802 -1042.98
-24.7642 -41.4533 -1042.51
-25.137899 -41.4506 -1042.08
-25.7225 -41.391102 -1041.5699
-25.936701 -41.4137 -1041.16
-26.0959 -41.4757 -1040.76
-26.537201 -41.477798 -1040.3
-26.776699 -41.498001 -1039.87
-27.1637 -41.479301 -1039.4
-27.7127 -41.5667 -1038.5
-28.446699 -41.595798 -1037.5601
-29.013901 -41.7043 -1036.65
-30.5758 -41.668701 -1034.6899
-30.0718 -42.0037 -1034.35
-30.8563 -41.870602 -1033.79
-30.6852 -42.078899 -1033.37
-31.1544 -42.056499 -1032.86
-32.025398 -41.904999 -1032.28
-32.229599 -42.105999 -1031.37
-31.562099 -42.519699 -1031.04
-32.246498 -42.422699 -1030.47
-32.797199 -42.359501 -1029.9399
-33.248798 -42.510399 -1028.95
-32.498402 -42.949299 -1028.63
-33.632801 -42.846699 -1027.53
-34.202801 -42.958698 -1026.5
-33.5648 -43.356499 -1026.13
-34.010601 -43.3293 -1025.59
-34.728699 -43.249599 -1024.99
-34.7995 -43.531898 -1024.03
-35.008701 -43.975101 -1022.53
-35.508202 -44.107201 -1021.47
-35.576401 -44.623798 -1019.92
-35.829201 -44.895599 -1018.88
-36.047901 -45.3475 -1017.29
-36.134899 -45.665298 -1016.22
-36.2854 -46.184502 -1014.59
-36.4062 -46.527199 -1013.47
-36.013401 -47.045601 -1012.42
-36.244099 -47.158001 -1011.84
-36.146 -47.578098 -1010.73
-35.938702 -48.0527 -1009.61
-35.938499 -48.255699 -1009.04
-35.547001 -48.991402 -1007.36
-35.356602 -49.4883 -1006.19
-35.299301 -49.908001 -1004.98
-35.082901 -50.422401 -1003.75
-34.803398 -50.963699 -1002.52
-34.598202 -51.5103 -1001.26
-10.614 -43.252499 -1052.5699
-11.4005 -43.039799 -1052.1801
-11.9966 -42.896301 -1051.84
-12.6649 -42.748901 -1051.47
-14.0339 -42.454899 -1050.6801
-14.751 -42.2766 -1050.26
-15.5173 -42.1436 -1049.85
-16.218 -41.9818 -1049.4301
-16.663 -41.901402 -1049.0601
-17.1915 -41.815899 -1048.6801
-17.8638 -41.689098 -1048.27
-18.4252 -41.576401 -1047.89
-19.0805 -41.453201 -1047.48
-20.710899 -41.195801 -1046.28
-21.0975 -41.166302 -1045.9
-21.545799 -41.123001 -1045.49
-22.311899 -40.975101 -1045
-22.514999 -41.014599 -1044.63
-22.9081 -40.988899 -1044.21
-23.417999 -40.926601 -1043.75
-23.8904 -40.9021 -1043.3
-24.279301 -40.886501 -1042.87
-24.8211 -40.829201 -1042.39
-25.086 -40.855 -1041.98
-25.485201 -40.837799 -1041.51
-25.7138 -40.9007 -1041.1
-26.072399 -40.882099 -1040.64
-26.6411 -40.851299 -1040.14
-27.0119 -41.0107 -1039.29
-29.544701 -41.0602 -1035.96
-29.5821 -41.3069 -1035.12
-30.522499 -41.1101 -1034.52
-30.971701 -41.259499 -1033.6
-30.4699 -41.599602 -1033.24
-30.870399 -41.871498 -1031.88
-31.5546 -41.9352 -1030.88
-32.082298 -41.8923 -1030.36
-32.6819 -41.837399 -1029.8199
-32.780499 -42.2449 -1028.46
-33.076302 -42.285198 -1027.96
-33.5784 -42.281898 -1027.4301
-34.190601 -42.368099 -1026.4
-33.718601 -42.6954 -1026.01
-34.043598 -42.734402 -1025.49
-34.666199 -42.681099 -1024.91
-34.761799 -42.977501 -1023.94
-34.8521 -43.275501 -1022.98
-35.087299 -43.348202 -1022.44
-35.471401 -43.902901 -1020.38
-35.452 -44.092602 -1019.88
-35.758099 -44.314701 -1018.81
-35.7355 -44.678699 -1017.77
-35.832802 -44.9799 -1016.73
-36.064098 -45.103802 -1016.14
-35.985001 -45.3251 -1015.63
-36.088299 -45.475601 -1015.06
-35.8713 -45.9296 -1014.02
-36.037201 -46.2309 -1012.88
-36.0256 -46.621498 -1011.76
-35.8228 -47.267601 -1010.1
-35.1656 -49.1646 -1005.45
-35.1049 -49.3755 -1004.86
-34.582001 -50.678001 -1001.77
-33.847401 -51.8671 -999.25098
-11.4373 -42.492199 -1052.13
-12.109 -42.325401 -1051.76
-12.8309 -42.144001 -1051.36
-13.4947 -42.0103 -1050.97
-14.1799 -41.848499 -1050.59
-14.8954 -41.671501 -1050.1801
-16.107 -41.422901 -1049.4301
-17.298201 -41.236599 -1048.6801
-18.076799 -41.0411 -1048.26
-18.641399 -40.937801 -1047.87
-19.3267 -40.823502 -1047.4301
-19.721399 -40.782398 -1047.0601
-20.125099 -40.738201 -1046.6801
-20.6954 -40.657299 -1046.25
-21.3431 -40.530701 -1045.79
-21.754101 -40.528301 -1045.38
-22.130899 -40.514301 -1044.96
-22.6691 -40.4081 -1044.49
-23.1231 -40.3703 -1044.05
-23.534201 -40.337399 -1043.6
-23.879 -40.342899 -1043.17
-24.3097 -40.319199 -1042.73
-24.6754 -40.310299 -1042.28
-25.049801 -40.3088 -1041.83
-25.535801 -40.270599 -1041.35
-28.2556 -40.820202 -1036.4399
-29.5208 -40.5187 -1035.8
-29.6035 -40.768101 -1034.95
-30.316401 -40.672901 -1034.41
-30.774799 -40.791698 -1033.48
-30.5851 -41.019001 -1033.09
-31.0117 -40.989498 -1032.58
-31.310801 -41.027 -1032.13
-32.0732 -41.0499 -1031.12
-32.065601 -41.343102 -1030.25
-32.6269 -41.307999 -1029.73
-33.200298 -41.408401 -1028.73
-33.199402 -41.723 -1027.86
-33.5909 -41.731701 -1027.3199
-33.764198 -42.157398 -1025.92
-34.5625 -42.179401 -1024.85
-34.774502 -42.4431 -1023.86
-34.877399 -42.718102 -1022.89
-35.275002 -42.742599 -1022.33
-35.465302 -43.024101 -1021.32
-35.5233 -43.344101 -1020.3
-35.775299 -43.4655 -1019.75
-35.902 -43.749001 -1018.71
-35.948898 -43.899101 -1018.18
-35.7621 -44.139099 -1017.71
-35.895699 -44.258499 -1017.15
-35.831799 -44.473099 -1016.66
-35.881199 -44.619801 -1016.12
-36.073399 -44.933601 -1015
-36.164398 -45.0742 -1014.44
-36.009201 -45.3251 -1013.92
-36.026402 -45.495701 -1013.37
-35.952801 -45.723999 -1012.84
-35.973 -45.926201 -1012.28
-36.037701 -46.058701 -1011.7
-36.044399 -46.254799 -1011.14
-35.849098 -46.539299 -1010.59
-35.875702 -46.699902 -1010.02
-35.858898 -47.118801 -1008.85
-35.608101 -47.412399 -1008.32
-35.553001 -48.0564 -1006.5
-35.4599 -48.280998 -1005.9
-35.0965 -48.6222 -1005.34
-35.044498 -49.067501 -1004.11
-34.813801 -49.381199 -1003.51
-34.601299 -49.7117 -1002.9
-34.550098 -50.175598 -1001.62
-34.189602 -50.528702 -1001.05
-34.1353 -50.761501 -1000.42
-33.4645 -51.7159 -998.49799
-33.237499 -52.011501 -997.83698
-15.0668 -41.0527 -1050.15
-15.8409 -40.8727 -1049.77
-16.714701 -40.6838 -1049.35
-17.1173 -40.6381 -1049.01
-17.7502 -40.520699 -1048.6
-18.3552 -40.416199 -1048.1899
-18.8608 -40.309399 -1047.78
-19.334499 -40.222698 -1047.38
-19.9839 -40.135502 -1046.9301
-20.225401 -40.164799 -1046.5699
-20.692101 -40.103699 -1046.14
-21.223801 -40.019501 -1045.6801
-21.660299 -39.9869 -1045.26
-22.26 -39.892101 -1044.79
-23.0492 -39.883999 -1043.91
-23.4147 -39.866299 -1043.46
-24.255699 -39.821499 -1042.5699
-24.4065 -39.899502 -1042.16
-25.432699 -39.7952 -1041.2
-25.1313 -40.055099 -1040.86
-26.758801 -40.142899 -1038.59
-27.716 -39.9426 -1038.02
-28.5804 -40.042599 -1036.66
-29.340599 -40.033401 -1035.6899
-29.2087 -40.240398 -1035.3101
-29.596701 -40.230701 -1034.83
-29.9755 -40.249901 -1034.35
-30.662001 -40.2943 -1033.39
-31.036501 -40.446098 -1032.49
-31.5266 -40.441898 -1031.98
-31.7111 -40.653198 -1031.1
-32.2187 -40.782101 -1030.14
-32.620201 -40.7967 -1029.64
-33.083099 -40.922401 -1028.66
-33.2444 -41.132099 -1027.75
-33.976501 -41.078201 -1027.17
-33.802399 -41.597698 -1025.83
-34.154202 -41.6329 -1025.3101
-34.648602 -41.624599 -1024.75
-34.932098 -41.841801 -1023.75
-34.956501 -42.1507 -1022.8
-35.4482 -42.130199 -1022.23
-35.4958 -42.809101 -1020.23
-35.8298 -42.8647 -1019.66
-35.874001 -43.194801 -1018.64
-35.8438 -43.381802 -1018.13
-36.065498 -43.469299 -1017.57
-35.971802 -43.6875 -1017.07
-35.980499 -43.887402 -1016.55
-36.084 -44.028999 -1016.01
-36.015701 -44.403599 -1014.94
-36.033699 -44.590599 -1014.39
-36.2477 -44.676899 -1013.79
-36.2141 -44.913799 -1013.26
-36.198898 -45.0989 -1012.72
-36.189301 -45.275002 -1012.16
-36.094101 -45.503799 -1011.64
-35.925701 -46.1334 -1009.95
-36.073601 -46.512699 -1008.75
-35.66 -47.236401 -1007.05
-35.7183 -47.414398 -1006.43
-35.503799 -47.726799 -1005.88
-35.234001 -48.021801 -1005.3
-34.990898 -48.517101 -1004.09
-34.8741 -48.8167 -1003.45
-34.198601 -49.934799 -1000.92
-32.8088 -51.866901 -997.06598
-32.506302 -52.228901 -996.41101
-16.7222 -40.134499 -1049.3199
-17.240999 -40.034401 -1048.9301
-17.611099 -39.998699 -1048.5601
-18.174 -39.908798 -1048.14
-18.747801 -39.821999 -1047.71
-19.2033 -39.738499 -1047.29
-19.900299 -39.622898 -1046.8101
-20.3235 -39.6166 -1046.4
-20.808701 -39.534 -1045.97
-21.1602 -39.530602 -1045.55
-21.598801 -39.507301 -1045.11
-22.2645 -39.3951 -1044.61
-22.9785 -39.404202 -1043.74
-23.467501 -39.357899 -1043.27
-24.1507 -39.377201 -1042.4
-24.566099 -39.4837 -1041.5699
-25.2061 -39.388699 -1041.0699
-25.9564 -39.395802 -1040.16
-26.346001 -39.52 -1039.3101
-26.815001 -39.485401 -1038.84
-27.602501 -39.433601 -1037.91
-28.0474 -39.593601 -1037.04
-28.427601 -39.587601 -1036.58
-29.2222 -39.580502 -1035.62
-29.4231 -39.780201 -1034.79
-29.999599 -39.714001 -1034.26
-30.5907 -39.784599 -1033.3199
-31.0795 -39.907299 -1032.4
-31.283199 -40.009899 -1031.95
-31.8556 -40.090099 -1031
-32.184299 -40.2495 -1030.0699
-32.773701 -40.202999 -1029.53
-32.958199 -40.5737 -1028.17
-33.3391 -40.6008 -1027.67
-33.7617 -40.605 -1027.14
-34.2062 -40.7616 -1026.15
-35.0191 -41.2817 -1023.65
-35.0145 -41.591702 -1022.71
-35.534901 -41.576199 -1022.13
-35.5872 -41.916698 -1021.14
-35.434799 -42.287201 -1020.17
-35.718899 -42.370098 -1019.62
-35.952202 -42.618198 -1018.56
-35.8936 -42.807201 -1018.05
-35.974998 -42.977501 -1017.51
-35.834999 -43.2104 -1017.02
-35.874802 -43.3759 -1016.5
-36.013401 -43.4981 -1015.95
-36.000301 -43.865398 -1014.87
-36.181198 -43.996601 -1014.3
-36.294102 -44.348999 -1013.18
-36.453701 -44.4921 -1012.62
-36.186798 -44.927601 -1011.55
-36.085098 -45.1702 -1011
-36.1707 -45.324799 -1010.4
-35.972801 -45.583302 -1009.88
-36.064098 -45.7547 -1009.28
-35.877399 -46.4403 -1007.54
-35.884899 -46.613998 -1006.96
-35.4744 -47.419399 -1005.21
-35.203701 -47.718399 -1004.62
-34.3885 -49.329102 -1000.86
-32.4496 -51.767601 -996.24597
-14.7356 -39.9464 -1050.48
-15.417 -39.799301 -1050.08
-16.040199 -39.687302 -1049.67
-16.552401 -39.586201 -1049.27
-17.165001 -39.488499 -1048.85
-17.784401 -39.381001 -1048.42
-18.4333 -39.271301 -1047.95
-18.8456 -39.243599 -1047.53
-19.3025 -39.189602 -1047.1
-19.820801 -39.1222 -1046.66
-20.2582 -39.0756 -1046.23
-20.569099 -39.108299 -1045.8199
-20.931 -39.0951 -1045.39
-22.1038 -39.075001 -1044.09
-22.598101 -39.0242 -1043.62
-23.125401 -38.946899 -1043.14
-23.9193 -38.917301 -1042.26
-24.467699 -38.936501 -1041.42
-24.932699 -38.936901 -1040.97
-25.814899 -38.8927 -1040.0601
-26.4223 -38.9674 -1039.1899
-27.539301 -38.939701 -1037.83
-28.1353 -38.9963 -1036.95
-28.4799 -39.023998 -1036.49
-29.1675 -39.063301 -1035.5601
-29.7302 -39.150799 -1034.64
-30.186701 -39.141399 -1034.14
-30.5114 -39.4431 -1032.84
-31.0546 -39.376499 -1032.3199
-31.4279 -39.374599 -1031.84
-31.944 -39.504601 -1030.91
-32.278702 -39.6656 -1029.96
-32.698502 -39.682999 -1029.47
-33.1255 -39.9632 -1028.05
-33.341301 -40.054901 -1027.58
-33.6371 -40.1026 -1027.09
-33.930901 -40.477001 -1025.65
-34.297699 -40.508301 -1025.12
-34.725201 -40.523602 -1024.58
-34.547901 -40.757301 -1024.13
-34.979198 -40.746601 -1023.6
-34.998501 -41.0466 -1022.62
-35.500301 -41.047298 -1022.06
-35.7924 -41.794701 -1019.53
-36.0098 -42.0532 -1018.47
-35.757801 -42.3158 -1018.01
-35.905899 -42.446301 -1017.46
-36.018799 -42.756302 -1016.42
-36.360901 -43.020199 -1015.28
-36.1973 -43.247398 -1014.78
-36.141499 -43.465599 -1014.23
-36.2155 -43.819698 -1013.13
-36.454399 -43.922298 -1012.55
-36.149101 -44.213699 -1012.05
-36.201401 -44.3867 -1011.49
-36.290501 -44.534 -1010.9
-36.2271 -44.762901 -1010.34
-36.061699 -45.3964 -1008.64
-35.8759 -45.873001 -1007.48
-35.599499 -46.804401 -1005.15
-35.172501 -47.377499 -1003.95
-34.992199 -47.889599 -1002.69
-34.641499 -48.457199 -1001.46
-33.6703 -49.695599 -998.896
-33.091801 -50.409599 -997.53497
-15.029 -39.261799 -1050.29
-15.4553 -39.191898 -1049.9399
-16.086 -39.0695 -1049.52
-16.7276 -38.9566 -1049.09
-17.2889 -38.881401 -1048.66
-17.755501 -38.846901 -1048.24
-18.178301 -38.796799 -1047.8
-18.663099 -38.7379 -1047.35
-18.9335 -38.766602 -1046.97
-19.3757 -38.733101 -1046.53
-19.938299 -38.652302 -1046.0601
-20.3197 -38.642399 -1045.63
-20.757401 -38.6264 -1045.21
-21.7272 -38.500801 -1044.3101
-21.980499 -38.523701 -1043.92
-22.5109 -38.447102 -1043.46
-22.9634 -38.416698 -1043.03
-23.321199 -38.431198 -1042.61
-23.815701 -38.3918 -1042.16
-24.134199 -38.396301 -1041.75
-24.644899 -38.3312 -1041.28
-24.9505 -38.358898 -1040.87
-25.713499 -38.329899 -1039.99
-26.030001 -38.3708 -1039.5601
-26.438 -38.3615 -1039.09
-26.7206 -38.383499 -1038.67
-27.0814 -38.3722 -1038.21
-27.5068 -38.367401 -1037.76
-27.8624 -38.394699 -1037.3
-28.281099 -38.3717 -1036.8199
-28.5783 -38.418201 -1036.38
-28.725599 -38.492298 -1035.96
-29.2183 -38.450699 -1035.46
-29.5613 -38.620998 -1034.59
-30.1548 -38.530399 -1034.05
-30.714399 -38.624298 -1033.13
-31.2148 -38.747601 -1032.21
-31.3636 -38.7995 -1031.77
-32.022099 -38.872299 -1030.79
-32.1115 -39.150398 -1029.91
-32.742401 -39.093399 -1029.37
-33.239201 -39.196701 -1028.39
-33.396999 -39.4575 -1027.47
-33.866199 -39.424099 -1026.9399
-34.241001 -39.614601 -1025.98
-34.447102 -40.040199 -1024.55
-34.964802 -40.155499 -1023.52
-35.030499 -40.477798 -1022.54
-35.431198 -40.491299 -1021.99
-35.517799 -40.807301 -1020.99
-35.686298 -41.1003 -1019.96
-35.665199 -41.2402 -1019.48
-35.837101 -41.5345 -1018.44
-36.083698 -41.797901 -1017.35
-36.2743 -41.891499 -1016.8
-36.402 -42.222599 -1015.74
-36.172798 -42.661301 -1014.7
-36.384499 -42.786598 -1014.12
-36.075001 -43.077301 -1013.64
-36.234699 -43.395901 -1012.52
-36.4137 -43.5429 -1011.95
-36.525002 -43.684898 -1011.36
-36.335701 -43.949001 -1010.84
-36.208401 -44.162201 -1010.28
-36.255001 -44.535801 -1009.13
-36.199501 -44.7757 -1008.55
-36.019798 -45.409801 -1006.83
-35.842701 -45.6987 -1006.25
-35.773399 -45.9198 -1005.66
-35.468399 -46.667999 -1003.85
-34.5588 -48.0994 -1000.75
-34.358601 -48.628399 -999.42603
-33.555 -49.4188 -998.19501
-13.7769 -38.939701 -1050.96
-14.4543 -38.7873 -1050.54
-14.9335 -38.729198 -1050.16
-15.5478 -38.608002 -1049.72
-16.208099 -38.4814 -1049.29
-17.003 -38.420399 -1048.49
-17.490999 -38.398102 -1048.05
-18.2484 -38.354801 -1047.22
-18.871 -38.247601 -1046.75
-19.2444 -38.218399 -1046.34
-19.681601 -38.196701 -1045.92
-20.0917 -38.150101 -1045.51
-20.6071 -38.0853 -1045.08
-21.1119 -38.023701 -1044.64
-21.6814 -37.9659 -1044.2
-22.121 -37.897598 -1043.78
-22.492201 -37.916599 -1043.37
-22.9597 -37.881001 -1042.9301
-23.2708 -37.883301 -1042.53
-23.898399 -37.786701 -1042.05
-24.2999 -37.779202 -1041.63
-24.554199 -37.795101 -1041.21
-25.028601 -37.747799 -1040.76
-25.487499 -37.737801 -1040.3101
-25.812799 -37.7332 -1039.88
-26.2883 -37.7033 -1039.41
-26.284401 -37.816799 -1039.05
-26.8099 -37.786301 -1038.5699
-27.108801 -37.806301 -1038.13
-27.678801 -37.763401 -1037.63
-28.1108 -37.878399 -1036.77
-28.740601 -37.782799 -1036.25
-28.717501 -37.912998 -1035.87
-29.3834 -37.815601 -1035.34
-29.6483 -38.008499 -1034.48
-30.036301 -38.0033 -1034
-30.208799 -38.111801 -1033.5601
-30.873501 -38.003201 -1033.03
-31.1387 -38.177399 -1032.15
-31.535101 -38.198299 -1031.66
-31.615299 -38.326 -1031.21
-31.951799 -38.5117 -1030.28
-32.432098 -38.4585 -1029.76
-32.990799 -38.446301 -1029.22
-32.619099 -38.7061 -1028.85
-33.426701 -38.564602 -1028.27
-33.402199 -38.885899 -1027.39
-34.012901 -39.122898 -1025.95
-34.450199 -39.268101 -1024.95
-34.758499 -39.348999 -1024.41
-35.0103 -39.562302 -1023.43
-35.112999 -39.8866 -1022.43
-35.263 -39.9762 -1021.93
-35.8279 -40.119598 -1020.85
-35.959499 -40.568699 -1019.38
-35.986599 -40.710999 -1018.9
-35.995499 -40.893299 -1018.37
-36.274601 -41.182301 -1017.25
-36.174301 -41.555401 -1016.23
-36.382401 -41.643002 -1015.66
-36.406502 -42.0061 -1014.59
-36.545502 -42.173698 -1014.02
-36.308899 -42.590599 -1012.98
-36.2244 -42.815399 -1012.46
-36.246498 -42.9897 -1011.91
-36.5341 -43.687099 -1009.59
-36.110802 -44.198601 -1008.51
-36.219501 -44.3731 -1007.91
-36.115501 -44.602699 -1007.33
-35.932499 -45.086399 -1006.17
-35.736 -45.356602 -1005.59
-34.9151 -46.932301 -1001.96
-11.6976 -38.785702 -1052.03
-12.3736 -38.643299 -1051.63
-13.0167 -38.507801 -1051.21
-13.5448 -38.426102 -1050.8101
-14.1766 -38.313999 -1050.39
-14.6688 -38.246899 -1049.98
-15.2889 -38.121899 -1049.54
-15.6476 -38.123501 -1049.16
-16.060499 -38.106998 -1048.78
-16.7239 -37.978401 -1048.3101
-17.1696 -37.931801 -1047.89
-17.6712 -37.834702 -1047.45
-18.243799 -37.7607 -1047.02
-18.6541 -37.7062 -1046.62
-19.2055 -37.633202 -1046.2
-19.8531 -37.5229 -1045.74
-20.090401 -37.5513 -1045.39
-20.4977 -37.525902 -1044.99
-21.1859 -37.418499 -1044.53
-21.6066 -37.382401 -1044.11
-22.055201 -37.336102 -1043.6899
-22.4307 -37.320301 -1043.29
-23.0215 -37.241798 -1042.8199
-23.505301 -37.2216 -1042.38
-23.8939 -37.182301 -1041.96
-24.2831 -37.1786 -1041.53
-24.684799 -37.1577 -1041.09
-25.07 -37.1483 -1040.66
-25.360399 -37.162498 -1040.24
-25.903 -37.100899 -1039.76
-26.4137 -37.193802 -1038.9301
-26.9914 -37.1217 -1038.4301
-27.2488 -37.165298 -1038.01
-27.6658 -37.144699 -1037.54
-28.287201 -37.186401 -1036.64
