# .PCD v0.7 - Point Cloud Data file format
VERSION 0.7
FIELDS x y z
SIZE 4 4 4
TYPE F F F
COUNT 1 1 1
WIDTH 1594
HEIGHT 1
VIEWPOINT 0 0 0 1 0 0 0
POINTS 1594
DATA ascii
41.4221 -46.5737 -983.81403
42.6506 -45.868198 -984.86603
42.833 -45.817799 -985.427
43.280701 -45.746601 -985.75702
43.546799 -45.697701 -986.25702
43.819599 -45.143799 -986.59003
45.015598 -44.3792 -987.77698
45.4454 -44.303001 -988.27802
45.565201 -44.255901 -989.00098
45.9949 -43.631199 -989.21899
46.209202 -43.574902 -989.82001
46.411098 -43.5313 -990.40997
46.859299 -43.4473 -990.80902
47.189201 -42.828999 -991.12299
47.578602 -42.761799 -991.62201
47.788898 -42.695999 -992.31403
48.459 -42.6003 -992.638
48.5793 -41.9687 -993.21002
49.187302 -41.8204 -993.69598
49.326099 -41.213402 -995.24597
49.277901 -41.189301 -996.04602
49.466999 -40.5853 -996.52502
49.799999 -40.527699 -997.15698
50.358299 -40.4053 -997.55603
50.384998 -39.8848 -998.31299
50.815899 -39.803799 -998.96802
50.842098 -39.2453 -999.71301
51.184601 -39.1889 -1000.4
51.549599 -39.114101 -1001.03
51.755001 -38.5532 -1001.52
51.9692 -38.513901 -1002.22
52.3909 -38.4109 -1002.87
52.1586 -37.9114 -1004.06
52.865501 -37.753101 -1004.5
52.123402 -37.315201 -1006.13
52.3969 -36.723301 -1006.77
52.414001 -36.6464 -1007.97
53.088902 -35.9123 -1009.62
52.929199 -35.939701 -1010.97
53.135601 -35.293999 -1011.67
53.176102 -35.252399 -1012.94
52.8255 -34.657902 -1014.21
52.244301 -34.059799 -1017.76
52.7822 -33.953201 -1019.18
51.8885 -33.569199 -1019.46
10.4587 -58.5257 -972.69702
13.144 -57.053699 -972.224
15.1971 -56.691399 -972.57898
17.498899 -55.770699 -972.50098
21.4359 -54.605 -972.78998
23.9359 -54.140999 -973.62799
25.689699 -53.871899 -973.95203
26.3755 -53.178101 -974.28101
27.224199 -53.0196 -974.77002
28.291599 -52.311501 -974.94897
29.438999 -52.09 -975.28802
29.695801 -52.016602 -975.68701
30.537201 -51.3158 -976.01001
32.2896 -50.9981 -976.45599
32.5574 -50.940899 -976.83899
33.2271 -50.268101 -977.41602
33.982399 -50.120899 -977.50201
34.392601 -50.0382 -977.82001
35.139801 -49.916599 -978.48102
35.5369 -49.241798 -978.54602
36.413101 -49.067402 -979.14502
36.597801 -49.023602 -979.64697
37.3605 -48.335098 -980.26001
38.001598 -48.223202 -980.45697
38.817299 -47.577099 -981.04797
39.6633 -47.411201 -981.67102
39.897999 -47.374901 -982.15198
40.241299 -46.819698 -982.47998
40.614101 -46.734001 -982.922
41.128201 -46.644402 -983.26599
41.459599 -46.092899 -983.57898
41.887199 -46.023102 -984.03198
42.4146 -45.403099 -984.85999
42.912498 -45.326199 -985.18103
43.236599 -45.241402 -985.58398
43.6506 -45.172298 -985.94897
43.9025 -44.548302 -986.32703
44.165901 -44.516602 -986.87299
45.317402 -43.778301 -988.18799
46.022598 -43.0872 -988.95697
46.454498 -43.009602 -989.38202
46.536098 -42.980301 -990.04498
47.009602 -42.8797 -990.43298
47.371498 -42.249401 -990.77698
47.585098 -42.207699 -991.388
47.832001 -42.1152 -992.03497
48.119301 -41.459 -992.41498
48.48 -41.3908 -993.01801
48.828499 -40.787498 -994.40698
48.965401 -40.7267 -995.276
49.205799 -40.637299 -995.88599
49.735699 -40.0443 -996.08899
50.079102 -39.967899 -996.70001
50.343899 -39.9095 -997.34399
50.873199 -39.264 -998.68201
51.002201 -38.7402 -999.36102
51.1726 -38.6992 -1000.18
51.453999 -38.6325 -1000.88
52.031101 -37.991901 -1001.05
52.105999 -37.971199 -1001.85
52.501999 -37.8792 -1002.56
52.201199 -37.370499 -1003.79
52.8102 -37.235001 -1004.3
52.320099 -36.776001 -1005.65
52.6124 -36.077202 -1007.59
52.969799 -34.657799 -1012.76
52.580299 -33.533501 -1017.03
52.1506 -32.957001 -1018.87
52.4114 -32.383801 -1020.67
50.663898 -32.015598 -1024.01
12.7834 -57.601898 -972.70898
14.7028 -56.772499 -972.45203
18.251801 -55.6577 -972.40503
19.2432 -55.526798 -973.36102
22.0488 -54.484299 -972.82898
23.582899 -53.6828 -973.06897
24.629801 -53.512501 -973.44
26.6362 -52.582199 -974.44
27.7106 -52.378502 -974.79797
29.375401 -51.520699 -975.09698
30.3381 -51.358299 -975.573
31.187099 -50.635899 -975.85901
31.960899 -50.514198 -976.46899
32.453098 -50.3895 -976.698
33.3825 -49.6455 -977.09497
33.940701 -49.5299 -977.30402
34.6917 -49.4189 -978
34.944698 -48.818001 -978.271
35.941101 -48.612701 -978.69299
36.262299 -48.583199 -979.10699
36.655899 -47.988899 -979.31598
37.367901 -47.829498 -980.099
37.9333 -47.7314 -980.36798
38.4706 -47.624699 -980.638
39.458401 -46.973999 -981.039
39.451698 -46.939499 -981.73199
40.2393 -46.319199 -982.349
40.863701 -46.2085 -982.578
40.9473 -45.654499 -983.05603
41.374901 -45.618401 -983.46399
41.656399 -45.5289 -983.99103
42.5079 -44.827 -984.539
42.845001 -44.7798 -985.03497
43.1842 -44.702599 -985.45099
43.351299 -44.666698 -986.03998
44.077499 -44.0014 -985.93597
44.5126 -43.944401 -986.35699
44.586498 -43.897701 -987.10999
45.131302 -43.787601 -987.495
45.362301 -43.203899 -987.88501
45.623501 -43.115002 -988.50897
46.206799 -42.470001 -989.34497
46.655899 -42.377102 -989.74103
46.941799 -42.309101 -990.28497
47.813 -41.5368 -990.96997
47.689701 -41.5336 -991.92102
48.459202 -40.836102 -992.79602
48.994598 -40.7738 -993.31
48.782101 -40.236198 -994.27301
49.406101 -40.136002 -994.68201
49.5453 -40.079201 -995.39099
49.884602 -39.510899 -995.76801
50.1105 -39.456902 -996.45599
50.148102 -38.971401 -997.05298
50.870499 -39.3036 -997.633
50.478199 -38.854801 -998.77399
51.306301 -38.171299 -999.85199
51.4436 -38.102798 -1000.64
51.977402 -37.477501 -1001.87
52.1213 -36.884102 -1002.57
52.124298 -36.8559 -1003.6
52.797501 -36.749298 -1004.07
52.243801 -36.222198 -1004.23
52.630199 -36.1357 -1006.32
52.903702 -35.437099 -1008.21
52.911098 -34.181301 -1011.19
53.367199 -34.050098 -1012.12
53.4468 -34.000401 -1013.41
52.581699 -33.585201 -1013.86
51.225101 -31.4389 -1023.11
19.5469 -54.955399 -972.13
21.4275 -54.0728 -972.51202
22.0418 -53.973701 -972.56299
23.6271 -53.151901 -972.83698
25.093399 -52.865501 -973.42999
25.5326 -52.7981 -973.68201
26.574301 -52.047501 -973.75403
27.297701 -51.9016 -974.302
28.515499 -51.686798 -974.55603
29.3209 -50.976398 -974.93402
30.379801 -50.787498 -975.315
31.989 -49.918201 -976.23102
32.4291 -49.823399 -976.52002
33.387299 -49.104599 -976.91803
33.802101 -49.030899 -977.258
34.297699 -48.9137 -977.49902
35.170898 -48.273102 -977.95898
35.780701 -48.136002 -978.685
36.509602 -48.016602 -978.77002
37.188 -47.367401 -980.104
37.846802 -47.242001 -980.302
38.367001 -46.6651 -980.45502
38.755798 -46.6147 -980.82703
39.538601 -46.433998 -981.51703
39.738701 -45.918201 -981.85699
39.905399 -45.843201 -982.41998
40.596699 -45.726501 -982.57898
40.908798 -45.169102 -982.85199
41.583302 -45.042301 -983.05701
42.218601 -44.902599 -984.07001
43.094799 -44.236698 -984.54797
43.4286 -44.1465 -984.96802
43.707298 -44.074799 -985.48297
44.012501 -43.492901 -985.74902
44.3284 -43.4557 -986.22803
44.701099 -43.346401 -986.73798
45.056 -43.267601 -987.24402
45.624298 -42.604401 -987.42499
45.623798 -42.5933 -988.23401
45.895901 -42.544701 -988.81097
46.653599 -41.7892 -989.492
46.947102 -41.7304 -990.00201
47.239601 -41.644901 -990.58698
47.685299 -41.023399 -990.836
47.809601 -40.983299 -991.55603
48.419601 -40.891399 -991.92401
48.539101 -40.3447 -992.55298
48.948299 -40.227798 -993.15198
48.716099 -39.768299 -994.17603
49.016602 -39.671501 -994.78802
49.560001 -39.615002 -995.159
49.741501 -39.057899 -995.633
49.834702 -39.020599 -996.45898
50.772598 -38.302799 -997.25702
50.7887 -38.282799 -998.28699
50.892601 -37.7234 -998.96698
51.338299 -37.622299 -999.56403
51.526199 -37.564899 -1000.36
52.052799 -36.954102 -1000.66
51.812698 -36.9758 -1001.8
52.476398 -36.2332 -1003.05
52.8773 -36.090401 -1004.84
52.870602 -35.504601 -1005.82
53.289101 -35.423302 -1006.7
52.568501 -34.899601 -1006.99
53.143398 -34.769699 -1007.73
52.978901 -34.764801 -1009.01
53.079899 -34.163799 -1009.86
53.5672 -33.5196 -1011.5
53.472198 -32.922001 -1014.08
52.727901 -31.9021 -1017.68
51.6133 -30.879801 -1022.37
14.1682 -55.3559 -971.83899
17.0966 -55.3764 -972.05499
19.5567 -53.876301 -971.70599
21.477301 -53.4939 -972.28601
23.561001 -52.5658 -972.659
24.5291 -52.422001 -973.10699
26.2411 -51.5042 -973.73999
27.5564 -51.2878 -973.90698
30.260599 -50.215698 -975.19397
31.125601 -50.0714 -975.69397
31.684299 -49.402401 -975.698
32.169899 -49.335602 -976.56201
33.344898 -48.606899 -976.85498
33.894699 -48.513302 -977.07703
34.125301 -48.410999 -977.52899
35.370602 -47.7034 -978.26501
36.377499 -47.536999 -978.76398
36.420799 -47.047199 -979.22601
37.0965 -46.923801 -979.36102
37.935799 -46.754902 -980.10699
39.099899 -46.025101 -981.02802
39.749199 -45.376801 -981.62701
40.317001 -45.3027 -981.88501
40.527302 -45.240299 -982.41302
42.2271 -44.394402 -983.802
42.6143 -44.3027 -984.19897
42.777401 -43.723701 -984.57599
43.375198 -43.6436 -984.79901
43.750099 -43.533798 -985.18903
44.256901 -42.8601 -986.07001
44.8251 -42.772701 -986.42499
44.925499 -42.7043 -987.12903
44.978401 -42.1022 -987.69098
45.732101 -41.951099 -987.91803
46.0797 -41.8899 -988.42401
46.124901 -41.877701 -989.15802
46.807201 -41.182701 -989.086
46.841999 -41.160702 -989.85101
47.2887 -41.105598 -990.33099
48.003101 -40.4561 -991.19299
48.285 -40.367401 -991.79901
48.734001 -39.7938 -993.26099
48.7234 -39.256599 -993.98102
49.138199 -39.175499 -994.48199
49.2728 -39.143101 -995.16901
49.638 -38.553398 -995.52802
49.7076 -38.512402 -996.32397
50.195301 -38.410099 -996.78601
50.830502 -37.7939 -996.96002
50.783501 -37.7836 -998.03302
51.2971 -37.100498 -999.37799
51.6068 -37.017502 -1000.06
51.620701 -36.456402 -1000.72
51.727699 -36.368401 -1001.6
51.9543 -36.308701 -1002.41
52.351601 -35.686001 -1002.86
52.488201 -35.638199 -1003.76
52.929901 -35.521999 -1004.52
52.554401 -34.935501 -1005.74
52.901699 -34.2971 -1007.62
53.398602 -34.179501 -1008.31
53.125 -33.610802 -1010.69
53.483601 -33.056702 -1011.3
52.9063 -32.615501 -1012.9
52.775799 -32.539101 -1014.46
52.2285 -30.850401 -1019.52
18.2787 -54.0961 -971.58002
19.961901 -53.217602 -971.71002
21.5737 -52.937599 -972.01898
23.126801 -52.649799 -972.40997
23.891399 -51.970299 -972.75598
25.111601 -51.728199 -973.00299
25.867701 -51.6017 -973.52301
26.926001 -50.812599 -973.55103
27.889999 -50.639599 -974.005
28.4639 -50.5438 -974.16302
29.4 -49.827301 -974.51898
30.333599 -49.661098 -974.987
30.7215 -49.5839 -975.28998
31.875799 -48.867298 -975.987
32.361099 -48.783401 -976.224
33.011398 -48.660198 -976.388
33.7631 -48.008499 -977.01898
34.191299 -47.944302 -977.336
35.1726 -47.287102 -977.67297
35.366798 -47.221802 -978.09802
35.7827 -47.138901 -978.41901
36.624298 -46.484798 -978.86401
37.1325 -46.3941 -979.16302
38.334 -45.614899 -980.08301
38.882801 -45.531601 -980.37097
39.4706 -45.455002 -981.20001
39.873402 -44.811401 -981.31799
40.2491 -44.7379 -981.72198
40.667 -44.677399 -982.08899
41.203701 -44.594601 -982.38898
41.8629 -43.8843 -983.14398
42.4203 -43.8046 -983.44202
43.141998 -43.1087 -984.77399
43.729301 -42.990002 -984.98602
43.997601 -42.936298 -985.52301
44.3745 -42.255798 -985.75897
44.803501 -42.166698 -986.229
45.174301 -42.071701 -986.68799
45.428299 -41.483601 -987.09601
46.035801 -41.386299 -988.20001
46.446499 -41.271099 -988.63397
47.223801 -40.631199 -989.32898
47.1334 -40.632999 -990.21503
47.601299 -40.014301 -990.43799
47.897999 -39.953499 -991.065
48.092201 -39.925499 -991.758
48.379299 -39.335499 -993.38397
48.973801 -38.709702 -993.54797
49.560799 -38.5783 -993.93701
49.3978 -38.588799 -994.86298
50.2113 -37.924702 -995.69702
50.391201 -37.888401 -996.42798
51.118698 -37.1591 -998.51898
51.370701 -36.5284 -999.06702
51.2159 -36.521801 -1000.11
52.086498 -35.755901 -1001.03
52.256802 -35.701698 -1001.88
52.423801 -35.053101 -1003.52
52.959099 -34.330898 -1005.17
52.9953 -34.314602 -1006.38
53.443199 -33.645401 -1008.07
53.530399 -33.575001 -1009.18
52.783798 -33.190201 -1009.57
53.108299 -33.110802 -1010.46
53.374298 -32.519199 -1011.2
54.141102 -31.2904 -1014.12
53.417999 -31.307699 -1016.69
52.519798 -30.8592 -1017.08
13.7139 -54.880199 -971.41602
18.3729 -53.506401 -971.26703
21.7719 -52.312099 -971.65997
22.670601 -52.174599 -971.992
24.066299 -51.341301 -972.37299
25.159201 -51.135799 -972.71399
26.0872 -50.965698 -973.08899
27.2216 -50.227699 -973.125
27.979099 -50.079601 -973.72803
29.256399 -49.3493 -974.5
29.999399 -49.236099 -974.52802
30.550699 -49.084702 -975.271
32.008202 -48.375999 -975.75897
32.185902 -48.276798 -976.16998
33.211899 -47.6064 -976.61499
33.730301 -47.5177 -976.86902
34.424702 -47.422798 -976.99597
35.249699 -46.7784 -977.42102
36.190498 -46.5578 -978.539
36.694599 -45.986801 -978.58301
37.658199 -45.783901 -979.19098
39.337898 -44.945099 -980.40601
39.971298 -44.2523 -980.98499
40.7589 -44.111401 -981.758
41.9394 -43.3428 -982.841
42.304001 -43.228298 -983.31403
42.492901 -43.183899 -983.89502
42.869598 -42.521 -984.04102
43.840401 -42.361698 -984.703
44.013802 -42.3064 -985.30798
44.655701 -41.608002 -986.12799
45.891201 -40.870098 -987.34998
45.907299 -40.8578 -988.09497
46.533798 -40.2267 -988.86102
47.244099 -40.1138 -989.10602
47.231998 -40.101002 -989.92798
47.582298 -39.526402 -990.24402
48.084202 -39.4384 -990.70398
48.108501 -39.419601 -991.56201
48.674599 -38.785702 -992.95001
48.9627 -38.1838 -993.349
49.104198 -38.160801 -994.08301
49.599701 -38.075401 -994.47803
50.007401 -37.9897 -994.987
50.168999 -37.421101 -995.50098
51.011501 -36.6287 -997.34198
51.1404 -36.5508 -998.26398
51.750099 -35.847 -999.42401
52.041401 -35.789398 -1000.16
52.3377 -34.492401 -1003.34
52.667198 -33.850899 -1005.1
53.279202 -33.222 -1006.81
53.5546 -33.143398 -1007.75
53.688202 -32.59 -1008.55
53.4995 -32.576099 -1009.86
53.441002 -32.002499 -1012.29
52.929401 -30.2215 -1018.45
18.396099 -52.916801 -971.01898
20.0483 -52.641102 -971.44397
22.1714 -51.690601 -971.64801
24.286699 -50.7407 -972.01599
25.221701 -50.566502 -972.44299
27.095501 -49.754902 -973.086
27.8923 -49.591999 -973.664
28.5301 -49.486301 -973.77698
29.224199 -48.872299 -974.39099
29.8848 -48.731998 -974.505
31.1462 -48.002701 -975.09198
31.650801 -47.917198 -975.29602
32.697201 -47.647598 -976.315
33.945202 -46.981201 -976.49799
34.9547 -46.264801 -977.40503
35.465099 -46.195999 -977.63599
35.882401 -46.1147 -977.94
36.8522 -45.418098 -978.27502
37.5299 -45.2994 -979.09198
38.086102 -45.202599 -979.37097
38.7883 -44.497601 -979.948
39.159199 -44.440498 -980.31201
39.581299 -44.3251 -980.61401
40.4189 -43.600899 -981.07898
41.2313 -43.477699 -981.91302
41.732101 -43.371101 -982.23499
42.005001 -42.722198 -982.55103
42.2784 -42.679501 -983.08398
42.562099 -42.6157 -983.55798
43.368 -41.898998 -984.11902
44.3531 -41.752602 -984.815
44.7141 -41.626499 -985.26599
44.946499 -41.080799 -985.64001
45.171501 -41.028599 -986.28198
46.128502 -40.332401 -987.69202
46.962299 -39.6819 -989.104
47.252701 -39.622101 -989.66998
47.7187 -39.014099 -989.93701
48.166302 -38.916401 -990.42102
48.1194 -38.908798 -992.39203
48.518398 -38.3102 -991.927
48.900799 -37.6679 -993.17902
49.178001 -37.625198 -993.78998
49.430199 -37.540699 -994.38898
49.667099 -37.520401 -995.06
50.076 -36.8358 -995.34198
50.902302 -36.672699 -996.41498
50.9702 -36.066898 -997.10699
51.1642 -36.021801 -997.99298
51.520401 -35.933899 -998.67999
51.560799 -35.291901 -999.32397
51.842701 -35.235401 -1000.02
51.990799 -35.182301 -1000.82
52.224499 -34.5644 -1001.37
52.313 -34.5228 -1002.33
52.279202 -33.988602 -1003.14
52.568199 -33.3554 -1004.97
52.944901 -33.259899 -1005.9
53.318199 -32.711399 -1006.55
53.424 -32.664299 -1007.59
53.536999 -32.0854 -1008.44
53.607601 -32.0158 -1009.53
53.091 -30.9547 -1013.4
53.8214 -30.7623 -1014.07
53.1105 -29.5821 -1017.96
51.287498 -28.4582 -1023.04
15.3126 -53.489601 -970.40601
17.583 -53.075401 -970.51001
18.5093 -52.316601 -970.729
21.5331 -51.228802 -971.37201
23.083599 -50.939701 -971.81897
24.325701 -50.241501 -971.81
25.158899 -50.088799 -972.33301
26.331699 -49.865101 -972.54797
26.7505 -49.293301 -973.224
27.5098 -49.184101 -973.23102
28.418301 -48.5261 -973.59003
29.364 -48.363899 -974.14099
30.063801 -48.191399 -974.75897
31.125401 -47.497898 -974.90698
31.6042 -47.431 -975.12097
32.283401 -47.2836 -975.84198
33.279701 -46.5821 -976.13599
33.693802 -46.518799 -976.49402
34.714401 -46.330502 -976.96198
34.994701 -45.736599 -977.13501
35.962299 -45.568802 -977.65002
37.688 -44.680099 -978.76099
38.2784 -44.604698 -979.00897
38.724701 -43.929001 -979.79199
38.999599 -43.894901 -980.22699
39.597198 -43.780399 -980.37402
39.9771 -43.712299 -980.729
40.6436 -42.978001 -981.40399
41.2402 -42.871101 -981.65802
41.4828 -42.836201 -982.22803
42.6329 -42.058201 -983.30103
43.712502 -41.300701 -984.35101
44.040298 -40.694199 -985.38202
44.916 -40.598099 -985.47803
45.225201 -40.544701 -986.03101
45.3741 -40.485802 -986.67102
46.155899 -39.8755 -987.505
46.5121 -39.8027 -988
46.726501 -39.270802 -988.44098
46.7934 -39.196899 -989.08801
47.622299 -39.0616 -989.22803
47.680302 -38.5107 -989.85699
48.467602 -38.345001 -990.979
48.356499 -37.805401 -991.90198
48.903099 -37.683601 -992.35699
49.4678 -37.001099 -993.33099
49.612999 -36.956699 -993.98999
50.270901 -36.235699 -994.93903
50.253799 -36.230499 -995.83301
50.883701 -36.105 -996.22101
51.301899 -35.379398 -997.60303
51.503799 -34.7579 -999.12598
51.644402 -34.697102 -999.93402
51.792198 -34.128101 -1000.49
52.427399 -34.027901 -1000.97
52.3312 -33.4757 -1002.88
53.316502 -33.321201 -1003.15
52.768299 -32.861401 -1004.54
53.0755 -32.764702 -1005.54
52.8386 -32.267799 -1006.62
53.316502 -32.1404 -1007.45
53.161098 -31.5408 -1009.57
53.540001 -30.9489 -1010.29
53.570301 -30.928699 -1011.61
53.5826 -30.2855 -1012.64
53.235699 -30.2717 -1014.32
52.920898 -29.0354 -1017.59
15.2305 -52.912102 -970.23401
17.586901 -52.4827 -970.31201
19.065201 -51.671799 -970.64801
21.5371 -50.727501 -971.159
23.1378 -50.419399 -971.56201
25.202299 -49.611301 -972.15997
26.2145 -48.939602 -972.37
26.941401 -48.796101 -972.94598
27.4002 -48.714901 -973.17401
29.4189 -47.807201 -973.88898
30.208099 -47.698299 -974.48999
31.856001 -46.861698 -975.32703
32.341202 -46.772701 -975.59601
33.402802 -46.063999 -975.82501
34.036598 -45.939201 -976.013
34.760601 -45.795399 -976.71802
35.1763 -45.192001 -976.81403
35.927502 -45.019299 -977.42798
36.418999 -44.916698 -977.70001
37.2514 -44.2122 -978.159
37.693298 -44.134201 -978.52197
38.149502 -44.016201 -978.87701
39.069 -43.261101 -979.948
39.98 -43.130299 -980.565
41.235199 -42.319199 -981.461
41.384399 -42.258301 -982.04999
41.894501 -41.698898 -982.20599
42.358002 -41.593498 -982.58801
43.127102 -40.934502 -983.90302
43.756302 -40.845402 -984.15002
44.296101 -40.712601 -984.45203
44.429001 -40.2029 -984.888
44.675598 -40.130699 -985.45898
45.156799 -40.043201 -985.862
45.557999 -39.9842 -986.35303
46.054199 -39.367802 -986.66199
46.548599 -38.723301 -988.46899
46.925701 -38.6619 -988.91101
47.356998 -38.5937 -989.33801
47.506302 -37.992599 -989.953
47.788101 -37.930099 -990.57501
47.957901 -37.287102 -991.10199
48.4767 -37.201801 -991.58197
48.6674 -37.153599 -992.31598
48.961498 -37.1078 -992.90399
49.259701 -36.4701 -993.23499
49.413799 -36.4156 -993.89801
50.708302 -35.553902 -995.21301
50.7897 -35.524502 -996.03601
51.259102 -34.853001 -997.41302
51.404999 -34.8004 -998.27399
51.6619 -34.238499 -998.77399
51.581501 -34.198299 -999.763
51.998299 -33.621601 -1000.11
52.352699 -33.5401 -1000.82
52.388 -33.526402 -1001.84
52.748001 -32.9426 -1002.32
53.017601 -32.872501 -1003.15
52.932098 -32.2971 -1004.16
53.2803 -32.252102 -1005.09
53.273602 -31.7005 -1006.08
53.132301 -31.627501 -1007.36
53.544899 -31.5404 -1008.15
53.5938 -30.9557 -1008.96
53.249401 -30.342501 -1011.53
53.1805 -29.702299 -1014.1
52.639301 -28.394501 -1019.64
15.1692 -52.376598 -970.10498
17.6346 -51.419399 -969.97101
18.932899 -51.165199 -970.54102
20.8067 -50.874001 -970.716
22.2178 -50.124001 -970.98602
23.250601 -49.935001 -971.29401
24.07 -49.298801 -971.66998
25.190201 -49.110901 -972.01599
26.9251 -48.2766 -972.81702
27.444099 -48.200802 -972.98602
28.8592 -47.401299 -973.48297
29.507299 -47.305801 -973.60602
31.193701 -46.438801 -974.40997
31.992901 -46.297501 -975.00403
33.041401 -45.555901 -975.28302
33.526402 -45.464001 -975.5
33.9161 -45.4049 -975.85602
35.133999 -44.615799 -976.638
36.143101 -44.463299 -977.06097
37.344501 -43.628201 -977.87097
37.617901 -43.561401 -978.315
38.249802 -43.452202 -978.55798
38.935699 -43.280102 -979.38397
39.2365 -42.716499 -979.58398
39.7444 -42.6026 -979.815
39.913799 -42.551102 -980.38702
40.774601 -41.906898 -980.90198
41.188999 -41.8139 -981.28699
42.3773 -41.103199 -982.34497
42.890202 -40.989399 -983.409
43.314602 -40.4361 -983.56
43.7607 -40.3339 -983.91602
44.083401 -40.2859 -984.41901
44.5443 -39.652199 -985.33502
45.235901 -39.5354 -985.59003
45.7654 -38.8885 -987.60498
46.379799 -38.235901 -987.71698
46.562698 -38.166 -988.31
46.889301 -38.109901 -988.81598
47.585499 -37.383801 -989.66199
47.7533 -37.363499 -990.40601
48.305099 -36.676399 -991.48401
48.897301 -36.563301 -991.89697
48.896999 -36.551102 -992.72198
49.975899 -35.736099 -994.05298
50.185699 -35.669601 -994.76501
50.5714 -35.026901 -995.10199
50.9123 -34.969002 -995.73901
50.969398 -34.929001 -996.63098
51.4678 -34.333 -997.06299
51.250999 -34.3162 -998.16901
51.632099 -33.733501 -998.573
51.8153 -33.673 -999.32599
52.0994 -33.125301 -999.83099
52.137299 -33.072498 -1000.78
52.286301 -33.036999 -1001.66
52.9907 -32.373299 -1001.85
52.880299 -32.3727 -1003.01
53.190899 -31.725401 -1004.97
53.089401 -31.108 -1007.07
53.640099 -31.024099 -1007.81
53.162399 -30.444599 -1009.02
53.556301 -30.366899 -1009.95
54.226398 -29.714001 -1010.46
53.7617 -29.7078 -1012.19
52.965 -28.4615 -1017.23
15.3272 -51.8097 -969.79498
18.711399 -50.742199 -970.039
20.562401 -50.415699 -970.70099
22.992399 -49.5023 -971.32599
24.597799 -48.702 -971.74799
26.9354 -47.766701 -972.61902
27.483 -47.654202 -972.784
29.0343 -46.8591 -973.12701
30.1189 -46.663799 -973.573
30.439899 -46.5909 -973.90002
31.121 -45.912601 -974.25201
32.0569 -45.731899 -974.72699
33.455299 -44.930401 -975.354
34.411598 -44.726299 -975.922
34.805401 -44.650002 -976.25897
36.2216 -43.833199 -976.77502
36.27 -43.808399 -977.37299
37.464802 -43.036598 -978.23999
38.3839 -42.861401 -978.90198
39.228901 -42.212299 -979.38202
40.107899 -42.025799 -980.00098
40.793201 -41.4118 -980.69598
41.154598 -41.330502 -981.12598
41.502899 -40.808701 -981.40198
42.0765 -40.676601 -981.73102
42.4865 -40.578602 -982.09399
43.178501 -40.4842 -982.974
43.321999 -39.933701 -983.34497
43.547901 -39.875599 -983.86798
44.338799 -39.721802 -984.00403
44.442902 -39.184101 -984.43201
44.837002 -39.095299 -984.92401
45.395802 -38.996601 -985.28699
45.2658 -38.474499 -986.198
45.773701 -38.3652 -986.68903
45.9688 -38.316601 -987.271
46.154202 -37.708099 -987.677
46.734001 -37.579498 -987.96399
46.5662 -37.577702 -988.84601
47.157001 -37.472698 -989.19702
47.587502 -36.8414 -989.45898
47.840801 -36.787701 -990.11298
47.9869 -36.7355 -990.84399
48.457298 -36.0625 -991.13397
48.790501 -36.001999 -991.73102
49.148701 -35.9095 -992.25299
49.2206 -35.873001 -993.03802
49.717899 -35.226101 -993.20697
49.625099 -35.205502 -994.09998
50.098598 -35.141701 -994.60999
50.261002 -34.582901 -995.117
50.645401 -34.483898 -995.72101
51.007801 -34.394699 -996.32001
51.134899 -33.861099 -997.11401
51.274799 -33.808899 -997.94
51.529099 -33.260502 -998.45898
51.715 -33.2094 -999.20203
52.298 -32.558601 -1000.39
52.4977 -32.473999 -1001.25
52.9426 -31.808001 -1002.74
53.1049 -31.1868 -1004.75
53.551102 -31.097799 -1005.54
53.581699 -30.4918 -1006.45
53.3139 -29.8743 -1008.64
53.458199 -29.801201 -1009.77
53.240501 -29.1936 -1010.91
53.625999 -29.106199 -1011.95
53.1684 -27.961599 -1014.68
53.287201 -27.312799 -1018.29
51.8932 -26.9102 -1021.15
14.1225 -51.542702 -969.56
15.8101 -51.2215 -969.724
19.194599 -50.197701 -970.021
20.6556 -49.925098 -970.48297
22.224501 -49.130501 -970.66302
22.9538 -48.463699 -971.11798
23.694599 -48.328602 -971.10699
25.3146 -48.047199 -971.62799
26.0093 -47.379002 -972.039
26.9279 -47.2062 -972.43903
28.878 -46.338001 -973.03699
29.529499 -46.203499 -973.20502
31.181499 -45.335201 -973.97998
32.045898 -45.190899 -974.54498
33.105701 -44.980701 -975.021
33.9804 -44.2234 -975.35101
34.805801 -44.060299 -976.008
35.892502 -43.3382 -976.85901
36.516399 -43.244801 -976.99597
37.525101 -43.0369 -977.547
37.484901 -42.504299 -978.09302
38.597198 -42.316299 -978.56598
38.983799 -41.761299 -978.755
40.078499 -41.5527 -979.82397
40.395901 -41.4832 -980.297
41.3405 -40.8246 -980.77899
41.803001 -40.2827 -981.05103
42.315899 -40.127899 -981.375
42.444401 -40.111599 -981.961
42.9814 -39.981499 -982.93201
43.4963 -39.381699 -982.987
43.926498 -39.300201 -983.37402
44.130199 -39.235699 -983.94702
44.7957 -38.564499 -984.771
45.036301 -38.541801 -985.45099
45.784302 -37.804501 -986.45398
45.998299 -37.7542 -987.03497
46.602798 -37.046101 -987.80701
46.753201 -36.9893 -988.49402
47.7953 -36.193501 -989.927
48.0023 -36.127998 -990.58197
49.0116 -35.405998 -991.31897
49.391201 -35.313 -991.85101
49.4333 -35.295399 -992.65002
49.589802 -34.753799 -993.09003
49.753201 -34.674702 -993.78802
50.1287 -34.624401 -994.37201
50.634701 -34.037498 -994.61499
50.664902 -33.969799 -995.50897
51.287998 -33.869701 -995.88898
51.4188 -33.333302 -996.68201
51.943501 -32.6763 -997.901
51.8242 -32.655701 -998.90997
52.3531 -32.600101 -999.38397
52.482101 -32.022202 -1000
52.137501 -32.003899 -1001.34
53.047401 -31.8717 -1001.62
52.529202 -31.400299 -1001.82
52.753101 -31.3255 -1002.67
53.277199 -31.218 -1003.35
52.970798 -30.6495 -1004.61
53.607399 -29.923401 -1006.17
53.638599 -29.879999 -1007.26
53.854198 -29.1805 -1009.13
53.454201 -28.5942 -1010.45
53.3237 -28.581699 -1011.86
53.844501 -27.947599 -1012.71
52.900299 -27.4077 -1016.59
52.299301 -26.9123 -1018.77
51.871399 -25.760201 -1022.73
52.171398 -25.1434 -1023.82
13.5449 -51.1521 -969.30902
15.4637 -50.836102 -969.35602
19.149401 -49.656101 -969.86401
20.8908 -48.858101 -969.99402
22.0756 -48.650101 -970.64301
23.0415 -47.908199 -970.896
24.1966 -47.714298 -971.16302
24.618 -47.603199 -971.40503
26.138901 -46.805599 -971.74701
26.938 -46.669201 -972.19202
27.986601 -46.481701 -972.49799
28.827499 -45.754501 -972.90302
29.9799 -45.549 -973.203
30.8839 -45.421799 -973.659
32.159199 -44.565102 -974.26001
33.154202 -44.411098 -974.77002
33.4837 -44.324799 -975.10101
34.409 -43.6315 -975.48901
34.831902 -43.5495 -975.76703
35.404202 -42.935101 -976.35699
36.078701 -42.779202 -976.49402
36.837399 -42.651901 -977.22101
37.263901 -42.086201 -977.38202
37.640202 -42.027699 -977.74402
38.794201 -41.294399 -978.72601
39.373501 -41.2062 -978.909
40.074799 -41.072102 -979.625
40.722099 -40.979698 -979.83801
40.8442 -40.421299 -980.28497
41.354 -40.325298 -980.633
41.1898 -39.802502 -981.44299
43.146099 -39.461601 -981.93103
44.022701 -38.740299 -983.828
44.6171 -38.626499 -984.13
44.450401 -38.083 -984.99103
44.917999 -37.980202 -985.44897
45.340302 -37.3088 -985.75897
45.824299 -37.2491 -986.19202
46.0238 -37.161499 -986.79199
46.9352 -36.369499 -988.10699
47.294102 -36.300999 -988.60699
47.5313 -35.68 -989.88702
48.623699 -35.4935 -990.75299
48.7621 -34.934399 -991.30798
49.311798 -34.8284 -991.711
49.495499 -34.7855 -992.349
49.989601 -34.1758 -992.57098
50.0266 -34.157501 -993.35498
50.1091 -34.111801 -994.15198
50.362999 -33.562302 -994.63
50.6609 -33.493301 -995.31799
51.509701 -33.358601 -995.52502
51.2397 -32.844299 -996.56299
51.565498 -32.776798 -997.30798
51.833099 -32.183498 -997.758
51.817299 -32.133099 -998.64398
52.099201 -32.0965 -999.36102
52.1255 -31.4928 -1000.06
52.772999 -30.8102 -1001.35
52.726101 -30.7505 -1002.46
53.771801 -30.6003 -1002.71
53.267899 -30.0186 -1004.09
53.334801 -29.9827 -1005.23
53.297501 -29.347401 -1006.13
53.782902 -29.233601 -1006.86
53.8918 -29.191999 -1007.9
53.135899 -28.7381 -1008.23
53.5364 -28.627701 -1009.12
53.604401 -28.0114 -1011.44
52.733002 -26.332199 -1018.06
52.1245 -25.257601 -1022.15
15.9348 -50.2346 -969.26202
17.544201 -49.954102 -969.48999
18.6803 -49.2612 -969.50201
20.386 -48.401901 -970.25897
22.121201 -48.074501 -970.48401
24.0541 -47.1609 -971.06
25.233999 -46.983101 -971.33398
26.112499 -46.241798 -971.52502
27.122601 -46.076401 -971.82001
29.4282 -45.057999 -972.82001
30.4697 -44.889801 -973.18701
31.305099 -44.724899 -973.66998
33.077702 -43.873699 -974.61798
33.492199 -43.293301 -974.74103
34.298801 -43.1376 -975.38599
34.760601 -43.0574 -975.66699
35.5728 -42.399799 -976.04498
35.933399 -42.332001 -976.41199
36.327599 -42.258801 -976.77301
37.2374 -41.597401 -977.22101
38.217999 -41.424198 -977.82703
38.492699 -40.889999 -978.09302
38.948898 -40.794201 -978.40198
39.804401 -40.6381 -979.00299
40.0732 -40.557701 -979.44
40.5602 -39.9366 -980.41998
41.335098 -39.82 -980.51703
41.858002 -39.1399 -981.44897
42.780499 -38.986 -981.38599
43.925999 -38.220501 -983.10199
43.985001 -38.1693 -983.77502
44.343601 -38.128502 -984.23199
44.617901 -37.458801 -984.71503
45.0215 -37.380798 -985.20099
45.690399 -36.634602 -986.04999
45.918301 -36.5877 -986.63501
46.388401 -36.5238 -987.04199
46.958401 -35.836601 -987.86902
47.573002 -35.7356 -988.18298
47.6408 -35.702202 -988.93903
47.668999 -35.1721 -989.573
48.626598 -34.978298 -990.54401
49.011299 -34.404202 -990.896
49.114399 -34.346298 -991.66803
49.533699 -34.282902 -992.16302
49.704498 -33.758999 -992.61102
50.072701 -33.662701 -993.18597
50.292999 -33.596001 -993.82898
50.508099 -33.053398 -994.30798
50.9198 -32.9361 -994.88202
51.4282 -32.8582 -995.36499
51.1287 -32.358799 -996.42603
51.652302 -32.213799 -996.974
51.765099 -31.657499 -997.55902
51.8974 -31.6639 -998.30798
52.831501 -30.8099 -1000.26
52.673801 -30.2255 -1002.25
53.770901 -30.0257 -1002.47
52.992401 -29.477699 -1004.05
53.573101 -29.343 -1004.77
53.429501 -28.791201 -1005.75
53.804699 -28.678101 -1006.59
53.425499 -28.2045 -1007.71
53.591999 -28.082001 -1008.79
53.5994 -27.59 -1009.82
53.9557 -27.437099 -1010.87
53.479698 -26.9205 -1013.94
53.838001 -26.301201 -1015.13
51.7038 -24.5987 -1023.84
16.453501 -49.619301 -969.15002
17.4333 -48.926701 -969.25098
19.6359 -48.550201 -969.73999
20.493 -47.8144 -969.50598
21.5916 -47.614399 -970.198
22.660999 -47.4146 -970.45203
24.0371 -46.613602 -970.87598
25.247101 -46.423302 -971.11499
27.3978 -45.4203 -971.98401
27.8939 -45.328899 -972.172
30.8815 -44.271099 -973.23499
31.749701 -43.617298 -973.58698
32.275902 -43.5098 -973.75299
33.074001 -43.350201 -974.41699
34.010399 -42.692799 -974.81702
34.590302 -42.587101 -974.98199
35.023399 -42.551601 -975.27698
35.626499 -41.893902 -975.81702
36.175098 -41.830101 -976.04999
36.959702 -41.689499 -976.73102
37.8311 -41.011902 -977.26703
38.845798 -40.270901 -978.36603
39.4067 -40.238899 -978.521
40.320099 -39.4669 -979.742
41.204399 -39.286999 -980.47101
41.9188 -38.563599 -981.21899
43.2057 -38.352798 -982.26398
43.546799 -37.701698 -983.28003
43.946301 -37.608898 -983.69598
44.582199 -36.8974 -984.547
45.088299 -36.780102 -984.91498
46.2621 -36.000599 -986.90802
46.820999 -35.887798 -987.21997
47.0172 -35.2948 -988.40802
47.629299 -35.187302 -988.74902
47.906898 -34.6409 -989.18799
48.307098 -34.552799 -989.72101
48.4827 -34.497398 -990.48401
48.916401 -33.940899 -990.79797
49.264198 -33.854 -991.34399
49.245499 -33.317902 -991.97498
49.821602 -33.219601 -992.315
49.9249 -33.185001 -993.06299
50.348701 -33.091301 -993.57703
50.6115 -32.520199 -994.04498
50.693802 -32.455002 -994.89801
51.427502 -32.3377 -995.15503
51.153599 -31.8417 -996.177
51.243198 -31.759399 -997.10999
51.683601 -31.0809 -997.36298
52.098 -30.9949 -997.88
52.5737 -30.9615 -998.23999
52.723301 -30.2295 -1001.15
52.5574 -29.615801 -1002.08
53.7551 -29.3895 -1002.21
53.128502 -28.927601 -1003.7
53.7141 -28.7728 -1004.38
53.492401 -28.298201 -1005.44
53.6269 -28.2192 -1006.49
53.815601 -27.617001 -1008.29
54.130402 -26.964899 -1010.5
53.243301 -26.442699 -1013.97
53.591301 -25.841999 -1015.07
53.627899 -25.1707 -1016.57
18.7656 -48.129101 -969.16901
21.5427 -47.064098 -970.04199
22.907499 -46.7896 -970.60498
24.665501 -45.9132 -970.737
25.149799 -45.862301 -970.94897
26.4669 -45.603001 -971.53101
27.4699 -44.861599 -971.70502
28.148001 -44.794498 -971.78101
29.057699 -44.5849 -972.27502
30.0114 -43.921902 -972.58002
30.799 -43.766499 -973.09497
32.301899 -43.0051 -973.54901
33.116199 -42.844101 -974.18597
34.016499 -42.212399 -974.64301
34.395699 -42.161598 -974.995
34.910099 -42.067402 -975.18201
35.604 -41.413898 -975.66101
35.8661 -41.3699 -976.08502
37.541 -40.477901 -976.68799
37.676601 -40.5116 -977.25702
38.748001 -40.312401 -977.66901
39.1199 -39.711102 -978.58502
40.1287 -39.521801 -979.14502
40.222698 -38.901001 -979.64899
40.4221 -38.849701 -980.21399
41.4855 -38.662498 -980.828
41.841099 -38.031898 -981.09601
42.659698 -37.8839 -981.13702
42.939201 -37.787201 -982.271
43.735298 -37.0606 -982.91302
43.902802 -37.008499 -983.56799
45.092201 -36.2598 -983.94397
45.445499 -36.170502 -985.237
45.820702 -35.580101 -985.55103
46.182301 -35.491901 -986.78601
46.855301 -35.369499 -986.98901
46.787998 -34.862598 -987.61102
47.1194 -34.804501 -988.16302
47.5089 -34.7061 -988.65302
48.178699 -34.084599 -989.65997
48.7971 -33.991299 -990.04602
48.9529 -33.405499 -990.56897
49.211601 -33.361198 -991.16803
49.626801 -32.727402 -992.24597
50.0303 -32.6404 -992.75702
50.1749 -32.587799 -993.49298
50.526299 -31.987301 -993.883
50.715099 -31.931801 -994.65503
51.293301 -31.217699 -995.81897
51.489201 -31.1637 -996.67102
52.1968 -30.4079 -997.61902
52.363499 -30.405399 -998.198
53.224098 -29.6618 -998.95898
53.769402 -28.258301 -1004.1
53.665298 -27.6714 -1006.24
53.800598 -27.066299 -1009.44
53.764999 -26.474199 -1010.5
53.417198 -26.4774 -1012.28
53.9417 -25.7999 -1013.11
52.862701 -24.726601 -1016.92
52.6287 -23.2743 -1022.33
14.7495 -48.8424 -968.90503
16.85 -47.898701 -969
18.464701 -47.5844 -969.22198
20.097 -47.312302 -969.633
22.2444 -46.336899 -969.81097
23.222799 -46.194 -970.12701
24.227301 -45.481098 -970.28699
25.716101 -45.197601 -970.83698
26.6742 -45.047901 -971.203
27.5672 -44.366299 -971.44397
28.564501 -44.197201 -971.86798
28.9174 -44.108299 -972.20099
29.949301 -43.460201 -972.45898
30.6693 -43.2939 -973.03198
31.6446 -42.647301 -973.31299
32.622799 -42.472198 -973.73499
32.924099 -41.891499 -973.96698
33.302299 -41.840698 -974.33197
34.551601 -41.616402 -974.68597
35.0928 -40.997799 -975.29498
35.9189 -40.885399 -975.922
37.276199 -40.010201 -976.685
37.634602 -39.9445 -977.073
38.619301 -39.750599 -977.69098
39.203899 -39.109901 -977.66699
39.4142 -39.040699 -978.16199
39.585899 -39.024899 -978.73102
40.287201 -38.3367 -979.41998
40.623299 -38.273201 -979.85199
42.523201 -37.307598 -981.02502
43.089802 -37.209999 -981.93402
43.222 -37.158501 -982.56702
44.082901 -36.446701 -983.17999
44.587399 -36.369999 -983.54303
44.542999 -35.838699 -984.17297
45.149799 -35.746799 -984.47198
45.5606 -35.663101 -984.98602
46.342999 -34.975899 -986.47198
46.820702 -34.396 -987.41699
47.258099 -34.303101 -987.87097
47.7262 -34.171101 -988.28601
47.822601 -33.636799 -988.87799
48.418301 -33.5364 -989.25201
48.589298 -33.497601 -990.00403
49.241798 -32.824501 -990.95502
49.880798 -32.167099 -991.86798
49.9674 -32.119202 -992.60797
50.309399 -32.064301 -993.19897
50.542599 -31.4356 -993.66901
50.802502 -31.369801 -994.34698
51.343899 -31.262899 -994.79199
51.386398 -30.649099 -995.55103
51.673599 -30.560801 -996.27802
51.871498 -30.4984 -997.052
52.4035 -29.7862 -998.02301
52.962601 -29.6915 -998.29102
53.227402 -28.895201 -1001.06
52.957901 -27.8822 -1003.32
53.381901 -27.83 -1004.21
53.455601 -27.7556 -1005.28
53.880699 -27.165001 -1006.91
53.924301 -26.548 -1007.75
53.942101 -25.2745 -1012.87
53.576 -24.7026 -1014.28
14.735 -48.237701 -968.74902
20.634899 -46.1078 -969.30103
21.805201 -45.903 -969.39398
23.0431 -45.673401 -970.05902
24.102301 -44.976799 -970.21399
25.6528 -44.693199 -970.685
26.739901 -44.031799 -970.77399
27.537001 -43.874901 -971.302
28.6348 -43.6847 -971.625
29.5443 -43.039299 -971.99298
31.7171 -42.121498 -973.06403
32.574299 -41.972401 -973.58197
33.1698 -41.363602 -973.59399
34.0467 -41.183998 -974.21698
34.741798 -41.055 -974.37402
34.9095 -41.0425 -974.82898
35.3069 -40.449799 -974.97302
35.822399 -40.300098 -975.85101
36.403099 -40.176998 -976.02301
37.356602 -39.4827 -976.401
37.661098 -39.4076 -976.81598
38.3946 -39.2659 -977.63599
39.540001 -38.4757 -978.52002
40.645302 -37.681499 -979.64398
41.161499 -37.561699 -979.96002
41.716702 -37.4856 -980.24597
41.800499 -37.435398 -980.89398
42.801102 -36.723801 -981.25598
43.223801 -36.6591 -981.60199
43.7314 -36.033298 -982.53003
44.091499 -35.934502 -982.995
44.332901 -35.903 -983.56403
44.5961 -35.320202 -983.93298
45.616699 -35.1618 -984.72803
45.858299 -35.087299 -985.32703
46.153198 -34.540401 -985.66302
46.3391 -34.5009 -986.289
46.813999 -33.8867 -987.20801
47.273701 -33.809898 -987.67499
47.625599 -33.710499 -988.16602
48.155201 -33.078701 -988.41302
48.4076 -33.011902 -989.05603
48.418499 -32.980701 -989.935
49.133499 -32.325699 -990.85797
49.6078 -31.639299 -991.83801
50.042801 -31.535299 -992.32703
50.1376 -31.492901 -993.09497
50.726002 -30.7829 -994.19202
51.3218 -30.6887 -994.59998
51.711201 -29.9737 -996.02899
51.753502 -29.937201 -996.90002
52.7076 -29.1633 -998.409
52.9422 -29.122601 -999.03003
53.444901 -28.510799 -999.37903
53.3591 -28.4821 -1000.46
53.5214 -27.2831 -1003.85
53.5522 -26.7257 -1005.87
53.616501 -26.636299 -1006.87
54.047501 -26.0152 -1007.45
53.899399 -25.9849 -1008.86
54.262901 -25.326799 -1011.03
53.848801 -24.6945 -1012.59
52.806198 -23.384001 -1018.01
51.628201 -22.2939 -1022.72
52.1814 -22.203199 -1023.71
8.05408 -49.412601 -968.69098
13.9791 -47.776501 -968.56598
16.917801 -46.696701 -968.435
19.8041 -46.234501 -968.90997
21.999901 -45.378399 -969.58899
23.119301 -45.156799 -969.81702
24.1357 -44.504799 -970.02002
25.7061 -44.205002 -970.48199
27.5424 -43.4063 -971.12299
28.091999 -43.318901 -971.26898
29.6364 -42.539001 -971.74298
30.133699 -42.422298 -971.94098
30.9153 -42.254002 -972.48499
31.7635 -41.612202 -972.83301
32.376598 -41.511398 -972.93701
34.509899 -40.581902 -974.34302
35.546101 -39.792099 -975.26202
36.778702 -39.610001 -976.15503
37.212002 -38.972698 -976.30402
38.065701 -38.781399 -976.98199
38.449001 -38.7206 -977.35699
39.0322 -38.6245 -977.573
40.109299 -37.770401 -978.54303
41.0289 -37.066299 -979.86401
41.3965 -36.974201 -980.30499
41.8452 -36.8867 -980.67102
42.574699 -36.239899 -981.24799
42.735001 -36.220501 -981.81299
43.218102 -36.1138 -982.15399
43.757099 -35.533001 -982.33301
44.127399 -35.446201 -982.79401
44.297401 -35.368698 -983.37799
45.687302 -34.116299 -985.04401
46.125599 -34.0228 -985.49298
46.4324 -33.985298 -986.034
46.6595 -33.931702 -986.591
46.980701 -33.330399 -986.89398
47.207199 -33.266701 -987.50299
47.922199 -33.144199 -987.75598
47.952 -32.599701 -988.37799
48.146999 -32.5275 -989.06097
48.547401 -32.436901 -989.62097
49.275501 -31.743299 -990.53601
49.300201 -31.7127 -991.29199
49.9412 -30.984501 -992.17102
50.211498 -30.9086 -992.82501
50.763199 -30.208799 -993.922
51.014 -30.128799 -994.60101
51.182899 -30.094299 -995.45099
51.563801 -29.446501 -995.92603
52.041599 -29.346901 -996.45398
52.263901 -28.735001 -997.85303
52.686901 -28.6563 -998.33698
53.0737 -28.5874 -998.84198
53.028599 -28.054399 -999.60199
53.423199 -28.008801 -1000.15
54.192299 -27.2892 -1001.56
53.655602 -26.7299 -1004.66
53.669201 -26.166201 -1005.53
53.627602 -26.1408 -1006.65
53.815399 -25.5131 -1007.4
54.176899 -25.4205 -1008.4
54.355 -25.3568 -1009.53
53.982201 -24.762899 -1011.02
53.4902 -24.117901 -1014.11
52.329201 -21.650801 -1023.34
18.986799 -45.8871 -968.82001
22.118601 -44.808201 -969.31702
22.878799 -44.705601 -969.86499
24.093599 -44.0056 -969.89398
25.658001 -43.758301 -970.396
26.336201 -43.0895 -970.24597
27.7484 -42.862499 -970.81598
28.916901 -42.135601 -971.47601
29.979099 -41.924198 -971.87097
31.813499 -41.080002 -972.59497
32.5359 -40.9338 -973.23798
33.026402 -40.845402 -973.50897
33.752998 -40.164398 -974.03699
34.451099 -40.0653 -974.19702
34.656601 -39.9944 -974.70502
35.612701 -39.256401 -975.00098
36.159199 -39.174999 -975.185
36.944901 -38.981602 -975.854
37.2855 -38.3438 -976.00897
38.326401 -38.159801 -976.58197
38.464802 -38.126499 -977.12097
39.125702 -38.005299 -977.25897
39.6866 -37.341702 -977.88898
39.956902 -37.298901 -978.41803
40.2188 -37.221802 -979.05902
40.6404 -37.125099 -979.44202
40.952099 -36.5868 -979.729
42.254299 -35.816502 -980.68402
43.1124 -35.647301 -981.29901
43.554901 -35.0714 -982.29102
43.998798 -35.0144 -982.70801
44.377701 -34.915001 -983.16498
44.653702 -34.359402 -983.52698
45.127602 -34.261799 -983.91699
45.261398 -34.222301 -984.62799
45.969898 -33.5476 -985.42102
46.381302 -33.480202 -985.85602
46.746601 -33.371601 -986.28998
47.2024 -32.770802 -987.31097
47.641102 -32.6539 -987.77002
48.1591 -31.9891 -988.85699
48.459 -31.927 -989.48401
48.9673 -31.811501 -989.94397
48.984901 -31.210699 -990.52802
49.381401 -31.141701 -991.05499
49.975498 -30.4081 -991.95502
50.1703 -30.3456 -992.64099
50.627701 -29.6821 -993.81598
51.072498 -29.593599 -994.35602
51.316399 -29.5142 -995.12097
51.347698 -28.9662 -995.91498
51.8377 -28.8524 -996.42401
52.414398 -28.742599 -996.84601
52.177898 -28.2481 -997.729
52.317699 -28.2101 -998.53998
52.9384 -28.0956 -998.87201
52.9478 -27.558701 -999.59497
54.0056 -26.824301 -1001.37
53.876499 -26.711201 -1003.03
53.406601 -26.1758 -1004.44
53.804699 -25.5581 -1006.27
53.854301 -24.9557 -1007.17
54.104401 -24.8524 -1008.18
54.3494 -24.7792 -1009.25
53.985901 -24.1952 -1010.74
54.602501 -24.040199 -1011.71
53.400501 -23.599899 -1012.4
53.3978 -23.518299 -1013.92
53.644798 -22.7276 -1017.13
52.116299 -21.865601 -1019.76
52.138401 -21.7055 -1022.01
52.183201 -21.175501 -1023.27
14.379 -46.666698 -967.75
17.0863 -46.239399 -968.03101
18.075701 -45.5308 -968.11401
19.689899 -45.2033 -968.54797
20.873899 -45.026501 -968.72302
22.776199 -44.189602 -969.09198
24.882601 -43.3447 -969.56799
26.009001 -42.699299 -969.61798
26.4793 -43.025902 -970.67102
27.5037 -42.384399 -970.77002
28.766701 -41.661098 -970.84601
29.1392 -41.586601 -971.14697
30.0264 -41.4086 -971.67297
30.882401 -41.247799 -972.15698
31.7794 -40.534401 -972.44299
32.384899 -40.418201 -973.17297
33.230999 -40.284199 -973.16699
33.514599 -39.5061 -974.04602
34.478901 -39.251801 -973.896
34.965401 -39.304001 -974.22198
35.8535 -38.594101 -975.237
36.988998 -38.4105 -975.61499
38.0956 -37.6646 -976.59302
38.620701 -37.5429 -976.80798
39.479698 -37.378601 -977.42798
39.7836 -36.827301 -977.66101
40.5853 -36.676399 -978.578
40.629398 -36.156799 -979.07501
41.150501 -36.0499 -979.41101
41.512402 -35.995098 -979.83398
41.862499 -35.916801 -980.28497
42.7062 -35.296902 -980.85901
43.403702 -35.132099 -981.64301
43.618999 -34.570599 -982.06799
44.231899 -34.470299 -982.33301
44.585602 -34.377602 -982.797
44.812901 -33.815498 -983.20697
45.0168 -33.739601 -983.80402
45.692101 -33.6283 -984.10901
45.8391 -33.087299 -984.59802
46.308201 -32.9841 -984.98499
46.572399 -32.9011 -985.49902
47.1866 -32.795399 -986.534
47.552399 -32.129601 -986.81598
47.741901 -32.106602 -987.466
47.862099 -31.476801 -988.02899
48.328201 -31.392599 -988.48602
48.702202 -31.2836 -989.07898
48.643902 -30.700399 -989.78497
49.076801 -30.6378 -990.23102
49.508701 -30.5249 -990.71002
49.8134 -30.4592 -991.229
49.942101 -29.884001 -991.75702
50.332199 -29.758499 -992.30902
50.770802 -29.687401 -992.81299
51.134602 -29.052401 -994.10498
51.650902 -28.9573 -994.638
51.4673 -28.449301 -995.62701
51.861801 -28.3533 -996.19501
52.149101 -27.7812 -997.55402
52.186001 -27.7437 -998.47998
52.673901 -27.0951 -998.867
53.4221 -26.9471 -999.98297
53.661201 -26.362 -1000.59
53.7924 -26.3125 -1001.4
54.1553 -26.259501 -1002.15
53.882801 -25.766001 -1003.36
53.8242 -25.599001 -1005.15
53.826099 -25.0077 -1006.01
53.8241 -24.3102 -1008.16
54.015999 -24.2395 -1009.31
53.7262 -23.5725 -1010.62
52.142899 -20.653799 -1023.15
16.4802 -45.330101 -967.60901
20.1096 -44.731701 -967.88599
21.9126 -43.893002 -968.34802
24.4524 -42.953899 -969.00403
25.678499 -42.7407 -969.27698
26.3176 -42.609001 -969.95801
26.8314 -42.4977 -970.08398
27.621901 -41.8269 -970.44202
29.442301 -40.9604 -971.38
30.994101 -40.696899 -971.89801
31.620001 -39.9837 -972.43103
32.512001 -39.858299 -972.31799
34.188 -38.905998 -973.237
35.425301 -38.145199 -974.70599
36.152699 -38.005901 -974.771
36.9296 -37.8554 -975.45099
37.158901 -37.796799 -975.93402
38.143799 -37.1231 -976.34198
38.4562 -37.044701 -976.77197
38.970798 -36.956501 -977.02502
39.7314 -36.3484 -977.55499
40.187901 -36.2551 -977.94598
40.190201 -36.230801 -978.698
40.758598 -35.6576 -978.81799
41.118801 -35.580799 -979.26398
41.4813 -35.518902 -979.69598
42.348999 -34.8363 -980.28699
43.260101 -34.678799 -980.84399
43.462502 -34.629299 -981.36798
43.465099 -34.043701 -981.97198
44.197498 -33.946701 -982.16803
44.5928 -33.893902 -982.617
44.803299 -33.270599 -983.77802
45.382801 -33.171799 -984.15802
46.098202 -32.435398 -984.91803
46.431801 -32.3708 -985.40997
46.673302 -32.297001 -985.93701
47.181599 -31.651199 -986.89697
47.725399 -31.5186 -987.29303
48.304199 -30.781 -988.29401
48.459999 -30.7409 -989.06201
49.237701 -29.998699 -990.71399
49.6404 -29.938 -991.15997
50.371899 -29.264 -992.07397
50.589802 -29.195299 -992.73199
51.1245 -28.5765 -993.91901
51.5056 -28.4757 -994.58801
51.286598 -27.9942 -995.56299
51.515202 -27.966499 -996.31097
52.245499 -27.813999 -996.633
52.093102 -27.236099 -997.40997
52.504299 -27.148899 -997.99402
52.879501 -26.5149 -999.45898
53.1689 -26.4499 -1000.12
53.084801 -25.914499 -1001
53.860802 -25.779301 -1001.26
54.247101 -25.692101 -1001.9
54.126099 -25.1012 -1002.93
53.354099 -24.471399 -1006.12
54.0602 -24.3538 -1006.76
53.820702 -23.740299 -1007.94
53.8302 -23.672001 -1009.18
54.190201 -23.010201 -1010.04
53.594398 -23.0086 -1011.98
53.845501 -22.389999 -1013.06
53.409199 -21.789801 -1016.66
51.9702 -20.1577 -1023.15
15.5432 -45.522099 -967.39502
19.3813 -44.3465 -967.65802
20.674 -44.1213 -967.74902
21.8125 -43.408699 -968.27197
23.1583 -43.1991 -968.315
24.187799 -42.455898 -969.086
25.032 -42.304699 -969.01398
27.309401 -41.3316 -969.85999
28.1677 -41.152599 -970.35999
28.642599 -41.022701 -970.67102
30.031401 -40.189301 -971.28497
31.2318 -40.073399 -971.56598
31.8563 -39.307499 -971.87903
33.809898 -38.950802 -972.90601
34.428001 -38.3909 -973.52197
35.189899 -38.189499 -974.31702
36.407001 -37.457699 -975.01599
37.485699 -36.8325 -975.32001
38.131699 -36.660599 -976.17297
38.665199 -36.5443 -976.42902
39.4049 -35.9389 -976.98199
39.589699 -35.891102 -977.50299
39.822102 -35.8251 -978.09497
40.325001 -35.715099 -978.42798
40.602699 -35.151402 -978.75
41.1147 -35.075901 -979.08398
42.012901 -34.414299 -979.65802
43.215099 -34.155201 -980.69098
43.476501 -34.094601 -981.16699
43.622501 -33.5359 -981.64801
44.101601 -33.439602 -982.05402
44.485901 -33.3503 -982.505
45.185398 -32.650101 -983.297
45.546398 -32.5583 -983.81201
45.649502 -32.5317 -984.52802
46.048401 -31.8829 -984.75702
46.617199 -31.768101 -985.04999
46.4687 -31.767099 -985.88898
47.070702 -31.6709 -986.18799
47.227001 -31.0263 -986.651
47.570599 -30.9492 -987.18701
48.051498 -30.864901 -987.64301
48.845402 -30.163601 -988.56299
49.016499 -30.068501 -989.25201
49.185398 -29.5256 -989.75201
49.517799 -29.472099 -990.29602
49.5187 -29.469299 -991.07703
50.105301 -28.8307 -991.22601
49.977299 -28.8288 -992.19702
50.583 -28.7227 -992.56097
50.812901 -28.6399 -993.28802
51.120499 -28.0774 -993.68799
51.679699 -27.438499 -995.03699
52.063 -27.3067 -996.56097
52.396301 -26.7272 -996.961
52.421101 -26.646099 -997.86102
52.962101 -25.9781 -999.19598
53.698101 -25.217199 -1001.36
53.995998 -25.170099 -1002.1
54.078098 -24.4977 -1002.84
53.546398 -23.835699 -1005.67
54.1586 -23.088301 -1008.67
53.822701 -22.525101 -1010.05
54.581699 -22.3473 -1010.94
53.355099 -20.8039 -1016.25
51.8027 -19.6052 -1023.13
15.0859 -45.0853 -967.04602
