# .PCD v0.7 - Point Cloud Data file format
VERSION 0.7
FIELDS x y z
SIZE 4 4 4
TYPE F F F
COUNT 1 1 1
WIDTH 1649
HEIGHT 1
VIEWPOINT 0 0 0 1 0 0 0
POINTS 1649
DATA ascii
42.2267 -65.309998 -1031.15
42.330299 -64.864899 -1031.79
42.285099 -64.515503 -1032.38
42.0382 -64.183899 -1032.9399
41.876999 -63.8521 -1033.48
41.408001 -63.6539 -1033.99
41.280102 -63.314499 -1034.52
41.122601 -62.994202 -1035.03
40.990898 -62.681999 -1035.5601
40.8624 -61.9692 -1036.64
40.077 -61.544998 -1037.5699
39.849701 -60.917198 -1038.58
39.179901 -60.838402 -1038.97
39.225399 -60.472 -1039.48
38.489899 -60.076199 -1040.33
38.070599 -59.5312 -1041.23
37.766399 -59.3116 -1041.65
37.426998 -59.108601 -1042.08
36.496201 -58.4786 -1043.3101
35.760899 -58.129299 -1044.09
35.4548 -57.919399 -1044.47
34.942402 -57.4762 -1045.27
34.148701 -57.181 -1046.01
33.978298 -56.901299 -1046.4
32.905399 -56.705299 -1047.0601
32.667999 -56.491798 -1047.42
29.3284 -55.427898 -1050
28.3262 -55.264999 -1050.5699
43.050499 -71.374802 -1020.63
43.366901 -70.658699 -1021.53
43.547798 -69.5382 -1023.16
43.258701 -69.206398 -1023.85
43.304199 -68.665901 -1024.63
43.3591 -68.204002 -1025.39
43.4865 -67.653503 -1026.14
43.2384 -67.270798 -1026.8
43.022499 -66.940598 -1027.4301
43.337799 -66.376801 -1028.2
43.115799 -66.020897 -1028.77
43.1325 -65.625702 -1029.42
42.708199 -65.366096 -1029.97
42.791199 -64.927399 -1030.59
42.542599 -64.611198 -1031.17
42.4608 -64.2491 -1031.76
42.587502 -63.7757 -1032.4
42.047001 -63.2211 -1033.47
41.837799 -62.894402 -1034.02
41.620899 -62.632301 -1034.53
41.411098 -62.3339 -1035.05
41.152901 -62.048 -1035.54
40.921799 -61.766201 -1036.03
40.6441 -61.4795 -1036.53
40.281898 -60.934502 -1037.5601
39.987598 -60.666 -1038.03
39.530499 -59.793301 -1039.48
39.1661 -59.5938 -1039.9
38.850899 -59.353001 -1040.3199
38.557499 -59.140202 -1040.74
37.416599 -58.201302 -1042.49
36.499802 -57.901299 -1043.26
35.6745 -57.2794 -1044.4399
33.454201 -56.248699 -1046.66
32.597198 -55.995701 -1047.33
32.022202 -55.629398 -1048.05
42.937199 -71.898499 -1018.92
43.281399 -71.132004 -1019.85
42.8713 -70.717201 -1020.64
43.444698 -69.988503 -1021.59
43.846699 -69.3013 -1022.44
43.331402 -69.013901 -1023.11
43.636101 -68.457497 -1023.94
44.0905 -67.705299 -1024.8
43.6334 -67.476196 -1025.41
43.422298 -66.626503 -1026.8101
43.883499 -65.982201 -1027.59
43.508701 -65.718399 -1028.2
43.0541 -65.496002 -1028.72
43.260601 -64.987503 -1029.42
43.018101 -64.637299 -1029.95
43.2966 -64.154602 -1030.63
42.821499 -63.911098 -1031.17
42.580502 -63.6227 -1031.74
42.670502 -63.159302 -1032.36
42.407501 -62.859001 -1032.9
42.209801 -62.556999 -1033.4399
41.868999 -62.318501 -1033.95
41.379902 -61.390701 -1035.51
40.903301 -60.828602 -1036.53
40.271301 -59.972198 -1038.01
40.213902 -59.632 -1038.52
39.393902 -58.9203 -1039.87
38.6465 -58.534901 -1040.71
38.463299 -58.245098 -1041.16
38.0741 -58.090698 -1041.5699
37.517101 -57.603199 -1042.4301
37.3004 -57.380001 -1042.85
36.5797 -56.981701 -1043.65
36.310501 -56.795399 -1044.03
35.573399 -56.446301 -1044.79
34.942799 -56.370201 -1045.12
34.2598 -56.0224 -1045.86
34.254501 -55.6796 -1046.3
33.231998 -55.473 -1046.95
31.833099 -54.8321 -1048.33
27.4175 -53.675701 -1051.34
44.096298 -70.071297 -1020.09
43.6665 -69.733101 -1020.84
43.746601 -69.186897 -1021.66
43.825699 -68.631302 -1022.45
43.731201 -68.1688 -1023.17
43.5583 -67.825104 -1023.88
43.985401 -67.173599 -1024.74
44.049999 -66.213203 -1026.1801
44.052898 -65.292999 -1027.55
43.5341 -65.096001 -1028.13
43.5453 -64.623802 -1028.76
43.713299 -64.1726 -1029.42
43.3801 -63.9217 -1029.97
43.385101 -63.472301 -1030.6
43.119801 -63.162701 -1031.1899
42.910599 -62.855701 -1031.73
42.689602 -62.5284 -1032.3101
42.5952 -62.207298 -1032.88
42.445499 -61.867802 -1033.42
42.059101 -61.618698 -1033.9301
42.2645 -61.163399 -1034.53
42.0882 -60.843498 -1035.04
41.638199 -60.6786 -1035.51
41.387501 -60.405399 -1035.99
40.6786 -59.9604 -1036.96
40.656601 -59.566601 -1037.49
40.104401 -59.103699 -1038.4301
40.133701 -58.711399 -1038.9301
39.857498 -58.4688 -1039.39
39.312599 -58.382 -1039.77
39.206799 -58.043598 -1040.23
38.284801 -57.752701 -1041.05
38.597099 -57.251801 -1041.58
38.158001 -57.084801 -1041.99
37.647301 -56.633499 -1042.84
37.190201 -56.508099 -1043.22
34.3102 -55.080002 -1046.23
32.8311 -54.423599 -1047.62
30.4946 -53.5672 -1049.6
29.0861 -53.257401 -1050.48
43.447399 -71.356796 -1017.25
42.8162 -71.073898 -1018.05
43.558998 -70.211197 -1019.13
44.294899 -69.351196 -1020.18
43.976501 -68.947403 -1020.93
44.1217 -67.457497 -1023.25
43.891899 -67.076103 -1023.92
44.161098 -66.4832 -1024.73
43.8456 -66.140999 -1025.41
44.537998 -65.392197 -1026.27
43.833599 -65.257202 -1026.8101
43.889999 -64.3564 -1028.15
43.6334 -64.038803 -1028.74
43.590698 -62.827202 -1030.58
43.303501 -62.1343 -1031.75
43.273998 -61.722698 -1032.36
42.597198 -61.217499 -1033.4
42.498798 -60.862999 -1033.95
42.053799 -60.3064 -1034.96
41.909599 -59.976398 -1035.47
41.390999 -59.461201 -1036.47
41.255001 -59.138901 -1036.98
40.761101 -58.614498 -1037.95
40.392502 -58.4062 -1038.4
40.050999 -57.835499 -1039.34
39.754002 -57.5998 -1039.78
39.434898 -57.394001 -1040.2
39.204399 -57.1497 -1040.64
38.631599 -56.6646 -1041.5
38.0424 -56.588699 -1041.89
37.0439 -55.974201 -1043.11
36.9547 -55.681499 -1043.53
36.332199 -55.284901 -1044.3101
35.9879 -55.132401 -1044.6899
35.345699 -54.738602 -1045.45
35.047798 -54.5541 -1045.85
34.504799 -54.429401 -1046.17
33.4814 -53.9039 -1047.25
32.639702 -53.661499 -1047.91
31.795 -53.377701 -1048.55
28.4147 -52.3876 -1051
26.5431 -51.998699 -1052.12
42.840302 -72.178101 -1015.15
43.7202 -70.620003 -1017.33
43.971298 -69.880997 -1018.38
44.234299 -69.235703 -1019.31
44.459702 -68.600502 -1020.2
44.137901 -68.2463 -1020.94
44.4216 -67.646202 -1021.76
44.558201 -67.094803 -1022.59
44.227798 -66.773102 -1023.26
44.317299 -66.247002 -1023.99
44.486099 -65.734299 -1024.76
44.682301 -65.167503 -1025.53
44.576599 -64.738297 -1026.24
44.282299 -64.463402 -1026.86
44.257301 -63.576698 -1028.1899
43.8834 -63.319698 -1028.73
43.882801 -62.881199 -1029.35
43.9091 -62.4785 -1029.98
43.624298 -62.1992 -1030.53
43.379601 -61.8731 -1031.09
43.139099 -61.181198 -1032.25
42.932899 -60.849701 -1032.8
42.785198 -60.518101 -1033.36
42.8489 -60.124901 -1033.96
42.533798 -59.8601 -1034.4399
42.315701 -59.6077 -1034.9301
42.218601 -59.266602 -1035.46
41.8405 -59.063499 -1035.91
41.644699 -58.763199 -1036.4399
41.084202 -58.257301 -1037.39
40.878201 -57.959499 -1037.9
40.526299 -57.765301 -1038.33
40.414902 -57.444698 -1038.8199
40.334702 -57.154301 -1039.3
39.338501 -56.496799 -1040.5699
39.078899 -56.233002 -1041.01
38.7598 -56.0457 -1041.4399
37.885601 -55.709 -1042.22
37.973 -55.361401 -1042.71
35.886002 -54.591 -1044.58
35.682701 -54.3428 -1044.98
34.7994 -53.7248 -1046.13
32.235199 -52.6007 -1048.53
31.4813 -52.618198 -1048.8101
42.800201 -72.095596 -1014.22
43.580601 -71.153 -1015.43
43.9645 -70.412498 -1016.51
43.733299 -69.919296 -1017.4
44.206001 -69.131699 -1018.45
43.865398 -68.733597 -1019.24
44.277599 -67.522903 -1020.99
44.8428 -66.835098 -1021.86
45.041 -66.276398 -1022.66
44.43 -66.065804 -1023.27
44.6768 -65.524002 -1024.04
44.383598 -65.169998 -1024.73
44.342499 -64.732803 -1025.4301
44.668301 -64.1278 -1026.1899
44.674301 -63.646599 -1026.89
44.611801 -63.275002 -1027.55
44.534302 -62.8624 -1028.1899
44.0961 -62.629398 -1028.72
44.032398 -62.2332 -1029.33
44.011799 -61.459099 -1030.53
43.579399 -61.198898 -1031.08
43.844799 -60.6889 -1031.73
43.145 -60.587601 -1032.21
43.220901 -60.149899 -1032.8101
42.902599 -59.8909 -1033.3101
42.8209 -59.550301 -1033.86
42.180698 -58.701199 -1035.37
41.7589 -58.1376 -1036.37
41.4828 -57.892399 -1036.85
41.431099 -57.531898 -1037.38
40.587299 -56.7887 -1038.79
40.277199 -56.580502 -1039.21
40.243801 -56.2342 -1039.7
39.816101 -56.0625 -1040.11
38.918999 -55.3881 -1041.38
38.463699 -55.275002 -1041.78
38.0355 -54.764599 -1042.63
37.6008 -54.625099 -1043.03
37.0107 -54.183399 -1043.8199
36.598801 -54.038502 -1044.17
35.5532 -53.521999 -1045.3
34.1689 -52.7794 -1046.78
33.3027 -52.544601 -1047.42
32.489899 -52.2285 -1048.1
30.931 -51.657001 -1049.4399
27.837 -50.907101 -1051.46
26.534901 -50.574699 -1052.3199
42.451401 -72.972702 -1011.91
42.711601 -72.146599 -1013.15
43.5424 -70.528099 -1015.46
44.084202 -69.692902 -1016.59
44.068501 -69.148598 -1017.51
44.3298 -68.459396 -1018.48
44.287998 -67.459198 -1020.15
45.2523 -66.0662 -1021.95
44.699001 -65.791496 -1022.56
45.169102 -65.158501 -1023.38
44.694698 -64.901001 -1024.01
44.707802 -64.430603 -1024.73
44.8909 -63.9025 -1025.49
44.9006 -63.410702 -1026.1899
44.599098 -63.129501 -1026.8199
44.9543 -62.498402 -1027.55
44.577499 -61.860001 -1028.74
44.434601 -61.4935 -1029.34
44.2789 -60.764599 -1030.52
43.870998 -60.4921 -1031.0699
43.8377 -59.703701 -1032.26
43.577099 -59.4244 -1032.8
42.994099 -58.908699 -1033.83
42.578098 -58.3255 -1034.8199
42.305801 -57.724098 -1035.86
41.9548 -57.494202 -1036.33
41.803501 -57.188202 -1036.83
41.180302 -56.694401 -1037.77
41.182999 -56.320599 -1038.28
40.515499 -55.920601 -1039.16
40.154099 -55.371399 -1040.08
39.594799 -55.240002 -1040.4301
38.6572 -54.624401 -1041.73
37.850498 -53.903 -1042.98
37.035599 -53.302399 -1044.17
36.3578 -53.257099 -1044.47
35.436401 -52.6497 -1045.63
34.588699 -52.360001 -1046.33
33.979801 -52.000801 -1047.05
32.480499 -51.345001 -1048.42
31.730499 -51.067101 -1049.12
27.661301 -50.101898 -1051.7
26.3696 -49.7686 -1052.55
41.303902 -73.5233 -1010.47
43.035 -71.962997 -1012.2
43.553001 -71.112602 -1013.47
43.434601 -70.537102 -1014.5
43.5695 -69.861397 -1015.53
44.0331 -69.080803 -1016.59
44.6129 -68.235497 -1017.65
44.6236 -67.1492 -1019.41
45.1269 -66.456802 -1020.32
45.0891 -65.969299 -1021.13
45.085499 -65.540398 -1021.87
45.338699 -64.9366 -1022.68
44.989601 -64.587601 -1023.31
45.4361 -63.9547 -1024.15
45.067501 -63.649399 -1024.77
45.2267 -63.136002 -1025.52
45.085701 -62.286098 -1026.86
44.491402 -62.1418 -1027.39
44.676102 -61.646702 -1028.09
44.461201 -61.320999 -1028.67
44.667198 -60.8172 -1029.33
44.2747 -60.5835 -1029.85
44.539299 -60.084202 -1030.51
44.001701 -59.4907 -1031.6
43.630299 -59.232101 -1032.13
43.598099 -58.8461 -1032.71
43.571098 -58.474201 -1033.28
43.356602 -58.207298 -1033.8199
43.0854 -57.897499 -1034.3
42.9202 -57.617199 -1034.8101
42.7827 -57.310699 -1035.3
42.4916 -57.076599 -1035.8101
42.194401 -56.800999 -1036.29
41.319599 -56.062698 -1037.72
41.638 -55.5424 -1038.28
40.3256 -55.072399 -1039.54
39.8069 -54.586498 -1040.4
39.766102 -54.259899 -1040.88
39.2244 -54.160198 -1041.26
38.613602 -53.738998 -1042.1
38.0728 -53.617401 -1042.45
37.712101 -53.119598 -1043.29
37.132198 -53.031101 -1043.64
36.298801 -52.372101 -1044.8101
35.7341 -51.9585 -1045.59
34.361801 -51.5765 -1046.6
33.855 -51.179001 -1047.33
32.359001 -50.538799 -1048.76
31.735399 -50.165401 -1049.47
30.6136 -50.0448 -1050.05
29.7493 -49.828999 -1050.6
42.833302 -72.088402 -1011.09
43.947701 -70.272301 -1013.64
44.18 -69.600899 -1014.71
44.030399 -69.037903 -1015.64
44.753101 -68.165802 -1016.78
44.673 -67.616798 -1017.68
45.000999 -66.450699 -1019.46
45.3633 -65.278702 -1021.13
45.154499 -64.882599 -1021.85
45.4268 -64.286102 -1022.65
45.1031 -63.997799 -1023.31
45.203098 -63.504902 -1024.01
45.172699 -62.614899 -1025.45
45.227798 -62.155102 -1026.1801
45.058701 -61.333698 -1027.46
44.882198 -60.987301 -1028.0699
45.0877 -60.5089 -1028.71
44.3685 -59.589699 -1030.41
44.194199 -59.254299 -1030.99
44.0522 -58.513199 -1032.14
43.6684 -58.2705 -1032.64
43.621399 -57.930099 -1033.21
43.413502 -57.604401 -1033.73
43.253101 -57.298401 -1034.27
43.039501 -57.037102 -1034.76
42.840302 -56.747898 -1035.25
42.7202 -56.426899 -1035.77
41.968102 -56.0145 -1036.6899
41.363602 -55.522598 -1037.64
40.761501 -54.679001 -1039.05
40.251202 -54.241798 -1039.91
39.998699 -53.999699 -1040.35
39.479099 -53.501499 -1041.21
39.047298 -53.3661 -1041.62
38.125702 -52.740501 -1042.83
36.396301 -51.510399 -1045.1801
35.355999 -51.298599 -1045.85
34.672501 -50.913799 -1046.5699
33.559601 -50.459099 -1047.6
32.993301 -50.375401 -1047.9301
32.3993 -49.990101 -1048.6899
27.0383 -48.720001 -1052.14
42.249802 -72.4608 -1009.74
43.603802 -71.061096 -1011.4
43.123699 -70.607399 -1012.41
43.567402 -69.825401 -1013.58
44.363499 -68.848099 -1014.8
44.8013 -68.106697 -1015.84
45.043598 -67.412598 -1016.84
44.971901 -66.901802 -1017.77
45.3069 -66.197098 -1018.67
45.123402 -65.7939 -1019.46
45.141201 -65.276001 -1020.29
45.399899 -64.628799 -1021.13
45.984901 -63.935501 -1021.99
45.5797 -63.6688 -1022.62
45.3573 -63.297501 -1023.31
45.674099 -62.732399 -1024.08
45.514999 -62.311798 -1024.75
45.711899 -61.800701 -1025.52
45.4179 -61.4813 -1026.14
45.245701 -61.0896 -1026.77
45.2048 -60.710201 -1027.41
45.1619 -60.322102 -1028.0601
45.026199 -59.950401 -1028.63
44.816299 -59.6497 -1029.22
44.722401 -59.277199 -1029.78
44.932899 -58.758099 -1030.4399
44.7164 -58.478199 -1031.02
44.398899 -58.194 -1031.54
44.028599 -57.9403 -1032.0699
43.670101 -57.339901 -1033.15
43.3605 -56.700298 -1034.1899
43.2057 -56.367599 -1034.7
42.759201 -55.8629 -1035.6899
42.704498 -55.509899 -1036.22
42.4175 -55.245602 -1036.71
42.090302 -55.013 -1037.1801
41.915001 -54.742001 -1037.66
41.668999 -54.4655 -1038.11
41.329498 -54.254902 -1038.5601
40.945801 -53.732899 -1039.46
40.332401 -53.2799 -1040.3
39.4142 -52.631199 -1041.58
38.882702 -52.529701 -1041.97
38.358501 -52.089001 -1042.79
37.890598 -51.954899 -1043.14
36.8988 -51.395599 -1044.29
36.229099 -51.023102 -1045.05
36.011101 -50.806702 -1045.45
35.382301 -50.413502 -1046.1801
34.299198 -50.220699 -1046.8101
33.219101 -49.421299 -1048.3
31.460199 -48.924801 -1049.6
30.497601 -48.723701 -1050.17
42.893799 -71.480003 -1010.1
42.625198 -70.816101 -1011.28
43.7374 -69.679298 -1012.69
44.373501 -68.797501 -1013.83
44.733799 -67.493103 -1015.87
45.259102 -66.701401 -1016.91
45.5284 -66.048897 -1017.87
45.383099 -65.606003 -1018.67
45.379601 -65.072701 -1019.48
45.679501 -64.4552 -1020.37
45.504002 -64.020401 -1021.1
46.229099 -63.2985 -1022
45.842201 -62.978901 -1022.65
45.949001 -62.480499 -1023.37
45.848 -62.070301 -1024.0601
45.916698 -61.607101 -1024.8
45.9799 -61.119099 -1025.5
45.582802 -60.858101 -1026.12
45.4772 -60.008099 -1027.41
45.188801 -59.708099 -1027.99
45.054501 -58.578899 -1029.79
44.5784 -58.3508 -1030.3
44.871399 -57.860699 -1030.95
44.7328 -57.520901 -1031.53
44.5942 -57.159302 -1032.1
44.0313 -57.005402 -1032.5699
44.1138 -56.609501 -1033.15
43.9147 -56.279701 -1033.6899
43.675499 -56.0172 -1034.17
43.1689 -55.510799 -1035.14
42.8815 -55.236099 -1035.63
42.682598 -54.994801 -1036.13
42.124199 -54.0798 -1037.62
41.900501 -53.846199 -1038.08
41.474201 -53.635799 -1038.5
41.346802 -53.360901 -1038.95
40.242802 -52.823502 -1040.2
40.162601 -52.498402 -1040.67
39.274399 -51.831799 -1041.9399
38.036598 -51.34 -1043.0699
37.800201 -51.126598 -1043.47
36.785 -50.589401 -1044.61
35.092499 -49.993698 -1046.04
33.972099 -49.224499 -1047.49
32.757 -48.804798 -1048.54
31.276899 -48.189899 -1049.8199
29.976299 -47.876801 -1050.6801
28.415701 -47.6572 -1051.47
41.447201 -73.063797 -1006.81
43.436798 -70.567299 -1010.36
43.8741 -69.637901 -1011.66
43.685799 -69.0364 -1012.69
44.673302 -68.055298 -1013.95
44.675701 -67.486504 -1014.9
45.196201 -66.679398 -1015.95
45.6707 -65.354897 -1017.89
46.063499 -64.688698 -1018.78
45.4617 -64.407402 -1019.48
45.6497 -63.8843 -1020.33
46.106098 -62.734402 -1021.93
45.568401 -62.515701 -1022.54
45.9095 -61.457901 -1024.02
46.306301 -60.852798 -1024.83
46.145599 -60.0294 -1026.16
45.7202 -59.771198 -1026.74
45.5345 -59.440899 -1027.34
45.542198 -58.9967 -1028
45.355202 -58.712601 -1028.5699
45.393002 -58.234798 -1029.1801
45.449902 -57.8339 -1029.79
45.013401 -57.600399 -1030.3
45.272598 -57.137798 -1030.98
44.789001 -56.912998 -1031.46
44.399101 -56.689098 -1031.96
44.233501 -55.966202 -1033.08
44.0215 -55.681198 -1033.61
43.771702 -55.403301 -1034.09
43.4431 -55.173 -1034.58
43.308998 -54.532101 -1035.6
42.761799 -54.375401 -1036.04
42.5895 -54.066101 -1036.55
42.612099 -53.708599 -1037.08
42.322102 -53.461601 -1037.54
41.392502 -52.779999 -1038.88
41.011002 -52.601002 -1039.28
40.980301 -52.265301 -1039.77
40.188 -51.939701 -1040.5699
39.963001 -51.677799 -1041.02
39.141499 -51.346802 -1041.8101
38.917702 -51.108398 -1042.23
38.655499 -50.872002 -1042.64
37.931801 -50.549301 -1043.39
37.4655 -50.405998 -1043.74
37.032902 -49.941898 -1044.55
36.588902 -49.7869 -1044.91
35.974201 -49.397999 -1045.66
35.280201 -49.071999 -1046.38
33.5868 -48.503899 -1047.74
32.731201 -48.250198 -1048.42
32.2995 -47.827301 -1049.11
31.3328 -47.5886 -1049.71
44.4841 -69.328796 -1010.71
44.631302 -68.601501 -1011.9
44.777599 -66.768097 -1014.95
45.479401 -65.876503 -1016.03
45.9221 -65.188698 -1017.02
45.944901 -64.075203 -1018.75
46.210499 -63.503899 -1019.62
46.077599 -62.564098 -1021.15
46.607601 -61.9016 -1021.97
46.3596 -61.557201 -1022.65
46.345901 -61.126499 -1023.35
46.0854 -60.766998 -1024
45.9571 -59.939999 -1025.37
46.164001 -59.431198 -1026.09
46.2131 -58.970501 -1026.75
45.916698 -58.650398 -1027.36
45.770401 -58.308498 -1027.95
45.5341 -58.035198 -1028.5
45.233601 -57.353001 -1029.67
45.312302 -56.908798 -1030.28
45.288502 -56.527401 -1030.87
45.140598 -56.213001 -1031.45
44.9011 -55.904999 -1031.99
44.516998 -55.6754 -1032.49
44.427399 -55.309101 -1033.03
43.939301 -54.764801 -1034.04
43.77 -54.508999 -1034.54
42.9202 -53.7248 -1035.97
42.671001 -53.474899 -1036.45
42.3904 -52.836498 -1037.4399
41.8685 -52.7188 -1037.86
41.766701 -52.4016 -1038.35
41.2621 -51.931198 -1039.24
41.215302 -51.6022 -1039.72
40.564999 -51.5317 -1040.0601
40.0844 -51.063599 -1040.9301
40.047798 -50.736 -1041.4
39.1674 -50.751499 -1041.7
37.813702 -49.6707 -1043.71
36.756302 -49.1516 -1044.84
35.5947 -48.6721 -1045.92
35.084999 -48.2677 -1046.64
34.287998 -47.9949 -1047.3199
33.455502 -47.709801 -1048.01
32.6301 -47.4203 -1048.67
30.563499 -46.785099 -1050.2
28.880501 -46.331299 -1051.36
26.712999 -46.071602 -1052.38
44.1147 -69.542999 -1009.54
44.478298 -67.987198 -1011.98
44.863201 -67.258698 -1013.07
45.803299 -66.310402 -1014.22
45.5602 -65.798897 -1015.13
45.822601 -65.1399 -1016.12
45.793999 -64.599197 -1016.99
45.955399 -64.012199 -1017.88
46.097801 -63.461201 -1018.73
46.493698 -60.912399 -1022.61
46.5485 -60.455601 -1023.32
46.289398 -60.125702 -1023.99
46.1329 -59.739101 -1024.64
46.255798 -59.215599 -1025.37
46.0998 -58.893101 -1025.99
46.142502 -58.444199 -1026.66
45.7719 -57.368198 -1028.48
45.788601 -56.9491 -1029.08
45.722599 -56.5574 -1029.67
45.5275 -56.258499 -1030.22
45.127201 -55.615002 -1031.34
44.986198 -55.316502 -1031.9
44.866699 -54.953499 -1032.46
44.5919 -54.702 -1032.96
44.3256 -54.4132 -1033.48
43.930698 -53.8778 -1034.47
43.679001 -53.591202 -1034.96
43.292 -53.375 -1035.4
43.1348 -52.713402 -1036.4399
42.672199 -52.575401 -1036.88
42.464901 -52.2733 -1037.36
42.080898 -52.075699 -1037.8
41.880901 -51.805599 -1038.27
41.8092 -51.479599 -1038.74
40.712601 -50.9356 -1039.98
40.575802 -50.659401 -1040.4399
40.089699 -50.519299 -1040.83
39.163898 -49.559502 -1042.52
38.856602 -49.357601 -1042.9
38.274601 -49.2887 -1043.24
37.341999 -49.0182 -1043.96
37.0317 -48.503601 -1044.77
36.654598 -48.334499 -1045.14
36.351299 -48.130199 -1045.51
35.046398 -47.716599 -1046.53
34.416 -47.370098 -1047.23
33.081799 -46.669899 -1048.62
31.8326 -46.599899 -1049.17
30.850401 -46.4119 -1049.76
42.195499 -71.332901 -1006.24
43.508801 -69.812698 -1008.2
44.754799 -67.842697 -1010.96
45.142502 -66.499603 -1013.15
46.112598 -65.453102 -1014.36
45.767899 -65.100899 -1015.18
46.055401 -63.890999 -1017.02
46.257801 -63.275101 -1017.91
46.604198 -62.6003 -1018.82
46.493801 -62.146301 -1019.58
46.4505 -61.7201 -1020.36
46.658901 -61.1124 -1021.15
46.341202 -60.831501 -1021.81
46.873001 -60.1483 -1022.64
46.814098 -59.7076 -1023.31
46.696301 -59.327301 -1023.99
46.473301 -59.004398 -1024.66
46.554798 -58.5159 -1025.34
46.5 -58.098 -1026
46.3092 -57.759499 -1026.63
46.487202 -57.268398 -1027.3
46.3297 -56.930801 -1027.89
46.035702 -56.6525 -1028.46
46.076 -55.860001 -1029.67
45.195999 -55.417702 -1030.67
45.120399 -55.058998 -1031.25
45.067001 -54.6591 -1031.8199
44.889198 -54.374599 -1032.36
44.8549 -53.991001 -1032.91
44.5639 -53.714901 -1033.41
44.2742 -53.495499 -1033.89
43.987701 -53.2761 -1034.37
43.707199 -53.005901 -1034.84
43.516399 -52.342701 -1035.88
43.115501 -52.153801 -1036.3199
42.817001 -51.926899 -1036.8
42.614101 -51.644402 -1037.3
41.776798 -50.941002 -1038.64
41.538502 -50.697701 -1039.0601
40.705898 -50.019699 -1040.35
40.444 -49.7864 -1040.78
39.8657 -49.364399 -1041.62
39.435398 -49.185299 -1042.01
38.597099 -48.565701 -1043.1899
37.733601 -48.261398 -1043.91
37.751499 -47.943802 -1044.37
37.199501 -47.846901 -1044.6899
35.7449 -47.188 -1046.12
34.001598 -46.674 -1047.4399
32.772099 -46.264198 -1048.4399
31.8792 -45.759701 -1049.4399
30.939899 -45.549702 -1050.03
28.5655 -45.0294 -1051.47
43.995998 -68.963997 -1008.43
44.112202 -68.129898 -1009.73
45.0625 -67.124901 -1011.05
46.323502 -65.3302 -1013.42
46.528 -63.625198 -1016.22
46.345001 -63.120998 -1017.06
46.745701 -61.979198 -1018.8
47.018902 -61.347 -1019.65
47.073601 -60.854599 -1020.42
47.056599 -60.412899 -1021.19
46.7057 -60.091499 -1021.82
46.500099 -57.964901 -1025.25
46.256599 -57.597198 -1025.88
46.375401 -57.168201 -1026.55
46.052399 -56.455399 -1027.75
46.126598 -56.035099 -1028.37
46.0797 -55.6754 -1028.97
45.891499 -55.341999 -1029.53
45.849499 -54.994301 -1030.1
45.9072 -54.562599 -1030.72
45.361301 -54.398701 -1031.1801
44.978001 -53.3969 -1032.83
44.681599 -53.138699 -1033.35
43.8918 -52.386799 -1034.78
43.850399 -52.037899 -1035.3
43.3162 -51.876701 -1035.73
43.277699 -51.5443 -1036.26
43.002998 -51.275398 -1036.74
42.9044 -50.983601 -1037.23
42.525299 -50.7668 -1037.65
42.251598 -50.541599 -1038.12
41.440601 -49.8741 -1039.41
41.037998 -49.679501 -1039.8101
40.336399 -49.269299 -1040.64
39.525299 -48.599701 -1041.91
37.1674 -47.308998 -1044.58
36.5667 -46.929401 -1045.33
35.848099 -46.610001 -1046.03
34.979801 -46.341999 -1046.6801
33.907001 -46.164501 -1047.3101
32.955898 -45.616299 -1048.36
31.1359 -44.916401 -1049.96
30.126801 -44.753399 -1050.51
44.069401 -68.191704 -1008.57
45.099098 -65.814903 -1012.18
46.064899 -64.222702 -1014.27
46.3937 -63.593201 -1015.28
46.691502 -62.9398 -1016.23
47.024101 -62.230202 -1017.18
46.768101 -61.8382 -1017.94
46.671001 -61.418301 -1018.73
47.1376 -60.703999 -1019.63
46.771198 -60.383202 -1020.31
46.950901 -59.3839 -1021.81
46.776402 -59.023701 -1022.49
47.196201 -58.405499 -1023.27
46.932598 -58.073399 -1023.86
46.847198 -57.687901 -1024.5699
46.9771 -56.782001 -1025.95
46.793598 -56.405899 -1026.55
46.184101 -55.831799 -1027.6899
46.144901 -55.449001 -1028.27
46.111 -55.087898 -1028.86
46.254902 -54.622601 -1029.49
45.6539 -54.495499 -1029.95
45.559601 -53.753799 -1031.12
45.388199 -53.4189 -1031.67
45.132702 -53.1563 -1032.21
45.0098 -52.8298 -1032.74
45.014301 -52.414001 -1033.3101
44.3503 -51.984901 -1034.24
43.707699 -51.526798 -1035.17
43.733601 -51.146301 -1035.73
42.941299 -50.399799 -1037.12
42.831402 -50.081501 -1037.6
42.134201 -50.008701 -1037.97
41.894299 -49.752899 -1038.42
41.824902 -49.486599 -1038.91
41.532299 -48.929901 -1039.8
40.932899 -48.8153 -1040.16
40.460098 -48.334301 -1041.04
39.7784 -47.621899 -1042.3
39.092201 -47.576099 -1042.61
38.662998 -47.097801 -1043.41
38.058399 -47.033901 -1043.74
37.409199 -46.651199 -1044.5
35.560902 -45.8605 -1046.28
35.001301 -45.479599 -1046.98
32.412601 -44.703098 -1048.9301
30.105801 -43.889301 -1050.77
28.520599 -43.663502 -1051.58
26 -43.324699 -1052.83
43.095299 -69.569702 -1005.51
42.657799 -68.938499 -1006.92
44.289902 -67.425102 -1008.71
45.397701 -66.2883 -1010.12
45.552799 -65.557198 -1011.3
45.6245 -64.960297 -1012.31
46.674099 -62.841599 -1015.33
47.1852 -61.609299 -1017.17
46.758701 -61.2752 -1017.88
47.194199 -60.549198 -1018.8
47.557201 -59.913101 -1019.67
47.190498 -59.610001 -1020.35
47.328899 -59.071899 -1021.11
47.2047 -58.6842 -1021.79
47.2449 -58.248402 -1022.5
47.383202 -57.742001 -1023.22
47.127701 -57.425701 -1023.85
47.359699 -56.893902 -1024.6
47.0009 -56.632198 -1025.1801
46.942299 -55.768398 -1026.49
46.555401 -55.529499 -1027.04
46.598499 -54.7001 -1028.28
46.313599 -54.048302 -1029.4
46.242401 -53.7034 -1029.98
46.043201 -53.366199 -1030.55
45.631699 -52.752701 -1031.63
45.4328 -52.470699 -1032.17
45.053501 -52.2188 -1032.63
45.065899 -51.871498 -1033.21
44.757301 -51.626999 -1033.6899
44.496799 -51.372299 -1034.15
44.1292 -51.1539 -1034.61
44.0354 -50.832401 -1035.11
43.927101 -50.524399 -1035.65
43.2985 -50.063099 -1036.5699
42.336102 -49.379902 -1037.91
42.262501 -49.078201 -1038.37
41.501999 -48.391998 -1039.6801
40.744801 -47.992298 -1040.5
40.282501 -47.5284 -1041.36
39.5555 -47.180302 -1042.15
38.065102 -46.494099 -1043.63
38.028099 -46.1926 -1044.0699
37.209301 -45.865601 -1044.79
36.244701 -45.611401 -1045.48
36.298199 -45.283901 -1045.91
34.595299 -44.771301 -1047.23
41.32 -70.587601 -1003.52
44.341801 -67.556503 -1007.47
45.732201 -65.545502 -1010.23
46.106098 -63.623199 -1013.34
47.132401 -62.610802 -1014.53
46.8088 -62.239201 -1015.29
47.259399 -61.502899 -1016.26
47.819901 -60.771301 -1017.27
47.423 -60.413399 -1017.97
47.550201 -59.368801 -1019.59
47.778702 -58.375999 -1021.15
47.548199 -57.582401 -1022.51
47.385101 -57.1791 -1023.15
47.177101 -56.4692 -1024.48
47.326801 -55.922901 -1025.1801
47.253399 -55.531101 -1025.83
46.991901 -55.215401 -1026.4
46.773602 -54.4716 -1027.62
46.497398 -54.2201 -1028.1801
46.411999 -53.868599 -1028.73
46.240398 -53.157001 -1029.89
46.069801 -52.8503 -1030.46
45.880199 -52.533901 -1031.01
45.6558 -52.253201 -1031.54
45.530899 -51.899799 -1032.08
45.122799 -51.347099 -1033.1
44.4258 -50.866199 -1034.03
44.644299 -50.425701 -1034.6
44.150799 -50.255901 -1035.01
44.000401 -49.980598 -1035.54
43.776402 -49.7047 -1036.03
43.5355 -49.438801 -1036.51
43.236198 -49.208302 -1036.97
42.450699 -48.497799 -1038.3101
42.098499 -48.306198 -1038.71
41.716702 -48.083599 -1039.13
41.2155 -47.637501 -1040
41.078899 -47.3615 -1040.46
40.7523 -47.148701 -1040.87
39.883202 -46.823502 -1041.65
39.2798 -46.4384 -1042.4399
38.751499 -46.027699 -1043.22
37.058102 -45.078999 -1045.13
35.7938 -44.343498 -1046.58
35.2799 -44.2631 -1046.9
34.535999 -43.939098 -1047.59
33.644402 -43.709801 -1048.24
44.583199 -67.543098 -1006.19
44.819199 -65.901901 -1008.91
45.4193 -65.090302 -1010.17
45.536201 -64.338898 -1011.26
46.1077 -63.5242 -1012.42
46.6129 -62.7672 -1013.44
46.874001 -62.128399 -1014.43
46.949902 -61.573898 -1015.3
47.067799 -60.997898 -1016.19
47.7071 -60.209702 -1017.19
47.7178 -59.7244 -1018.01
47.4091 -59.369701 -1018.71
47.6436 -58.803501 -1019.55
47.500401 -58.3563 -1020.26
47.549702 -57.459499 -1021.71
47.5056 -56.584202 -1023.08
47.629002 -56.117298 -1023.77
47.347198 -55.779099 -1024.4
47.3596 -55.355999 -1025.0699
47.223301 -54.566299 -1026.36
47.074699 -54.203098 -1026.96
46.6605 -53.611099 -1028.1
46.545502 -53.242298 -1028.66
46.475201 -52.8946 -1029.25
45.986 -52.309601 -1030.33
45.937302 -51.955002 -1030.89
45.835999 -51.611198 -1031.46
45.8064 -51.2397 -1032.03
45.568699 -50.958 -1032.53
44.953201 -50.132401 -1034.03
44.256699 -49.675201 -1034.9301
44.0662 -49.4109 -1035.4399
43.794998 -49.147598 -1035.92
43.273102 -48.993698 -1036.33
43.417999 -48.604698 -1036.89
42.958099 -48.419201 -1037.3
42.702801 -48.182701 -1037.76
41.7589 -47.190701 -1039.52
40.794701 -46.562698 -1040.79
40.1805 -46.158199 -1041.62
39.911098 -45.946301 -1042.05
38.612099 -45.181198 -1043.62
38.2477 -45.000198 -1044
36.0107 -44.020599 -1046.1801
33.731098 -43.1339 -1048.1899
32.306599 -42.5196 -1049.47
31.356701 -42.3354 -1050.05
30.052999 -42.009102 -1050.91
25.632401 -41.2789 -1053.24
42.116001 -68.727798 -1004.21
43.525299 -67.280899 -1006.09
45.0774 -65.175797 -1008.99
46.6031 -63.8909 -1010.47
46.413399 -63.3969 -1011.47
46.634899 -62.731201 -1012.52
47.050499 -61.995201 -1013.57
46.9944 -61.477699 -1014.4
47.576 -60.743999 -1015.4
47.742401 -60.126099 -1016.3
47.712299 -59.161098 -1017.92
47.592701 -58.707802 -1018.69
48.049801 -58.036999 -1019.58
47.7519 -57.723202 -1020.24
47.979198 -57.1632 -1021.05
47.9464 -56.7216 -1021.72
47.943901 -56.302101 -1022.41
47.671001 -55.983501 -1023.01
47.631802 -55.592098 -1023.68
47.766201 -55.056099 -1024.4
47.674801 -54.674599 -1025.0601
47.4258 -54.3465 -1025.66
47.5709 -53.8564 -1026.35
47.307201 -53.575298 -1026.9301
46.854599 -53.364399 -1027.4399
47.248501 -52.796799 -1028.13
46.559101 -52.358101 -1029.17
46.484402 -51.963001 -1029.72
46.2883 -51.686001 -1030.29
46.117001 -51.339401 -1030.84
46.080502 -50.960098 -1031.41
45.8745 -50.669899 -1031.9301
45.875999 -50.304401 -1032.49
45.397499 -50.102001 -1032.95
45.291599 -49.812 -1033.46
44.918598 -49.6138 -1033.91
44.574501 -49.374001 -1034.36
44.4366 -49.116402 -1034.86
43.791801 -48.621498 -1035.8101
43.601002 -48.352901 -1036.29
43.1731 -47.797501 -1037.25
42.790401 -47.607399 -1037.6801
42.926201 -47.196899 -1038.2
42.622601 -46.9911 -1038.64
42.023701 -46.564899 -1039.51
41.639099 -46.382599 -1039.9399
40.997601 -45.6133 -1041.29
40.626801 -45.420399 -1041.6899
40.0886 -45.307201 -1042.0601
39.573399 -44.867802 -1042.85
38.119598 -44.195599 -1044.37
37.750401 -43.7164 -1045.16
36.682201 -43.532001 -1045.8101
36.1395 -43.1758 -1046.51
34.534401 -42.577499 -1047.8199
33.688801 -42.347099 -1048.4399
30.656099 -41.5317 -1050.51
29.577499 -41.125999 -1051.39
25.3248 -40.641102 -1053.37
43.237099 -67.616096 -1004.57
45.125999 -65.989197 -1006.56
45.561901 -65.062798 -1007.91
45.965401 -64.228104 -1009.23
46.473801 -62.760899 -1011.48
46.754299 -62.070801 -1012.51
47.4916 -61.214802 -1013.59
47.6758 -60.630199 -1014.52
47.8997 -59.497601 -1016.27
48.069302 -58.915501 -1017.16
47.669102 -58.601002 -1017.87
47.9659 -57.999699 -1018.71
48.386002 -57.338799 -1019.56
48.0298 -57.033001 -1020.23
48.3167 -56.4585 -1021.01
47.942101 -56.169899 -1021.63
48.116901 -55.6082 -1022.37
47.7509 -55.373199 -1022.95
47.725899 -54.985901 -1023.63
47.6577 -54.158001 -1024.96
47.287399 -53.036999 -1026.8199
47.272499 -52.2547 -1028.03
46.947102 -51.628101 -1029.14
46.630699 -51.340302 -1029.65
46.4645 -51.0313 -1030.22
46.3242 -50.7211 -1030.77
45.9622 -50.0877 -1031.85
45.901299 -49.7407 -1032.38
45.235802 -49.280399 -1033.3199
44.7864 -49.114601 -1033.76
44.151199 -47.891201 -1035.77
44.117699 -47.5625 -1036.33
43.692101 -47.373001 -1036.78
43.2929 -46.843201 -1037.76
42.646198 -46.3895 -1038.64
42.058899 -45.991199 -1039.49
41.815102 -45.402599 -1040.4301
40.934799 -45.0658 -1041.21
40.520901 -44.601398 -1042.0601
39.838001 -44.560001 -1042.37
39.249699 -44.147701 -1043.14
38.868301 -43.675701 -1043.91
38.132401 -43.333698 -1044.66
37.446602 -42.723 -1045.79
35.016399 -42.4716 -1046.9399
34.290199 -42.171501 -1047.62
33.827099 -41.751099 -1048.3
33.010101 -41.508499 -1048.9
32.078701 -41.305099 -1049.5
30.7826 -41.234001 -1049.99
29.509899 -40.664902 -1051.21
27.8234 -40.475899 -1051.96
26.164 -40.0522 -1052.98
40.6847 -69.954697 -1000.51
44.220798 -66.501297 -1005
45.175499 -64.596001 -1007.86
46.431198 -63.3521 -1009.33
46.6702 -62.661098 -1010.5
46.778702 -62.026299 -1011.52
46.836498 -61.3979 -1012.51
47.653599 -59.491501 -1015.31
48.167198 -58.270699 -1017.12
48.0793 -57.854698 -1017.85
47.8494 -57.429901 -1018.59
48.104401 -56.855301 -1019.4
48.589699 -55.757 -1020.99
48.179699 -55.457901 -1021.59
47.876202 -54.776402 -1022.87
48.169998 -54.201801 -1023.61
47.902599 -53.868999 -1024.22
48.009201 -53.4058 -1024.9301
47.476101 -53.217098 -1025.47
47.7369 -52.7103 -1026.17
47.515301 -52.376999 -1026.75
47.360802 -52.030602 -1027.3101
47.6488 -51.543499 -1028
47.142502 -51.366001 -1028.47
47.021599 -51.0098 -1029.03
46.677502 -50.751499 -1029.55
46.537701 -50.073101 -1030.6899
46.117599 -49.453499 -1031.77
45.588699 -48.9426 -1032.79
45.370499 -47.9161 -1034.35
44.663898 -47.467499 -1035.34
43.670799 -46.443501 -1037.27
43.278999 -46.251999 -1037.6899
43.230701 -45.9342 -1038.1899
42.669601 -45.5131 -1039.03
42.3853 -45.283501 -1039.45
41.5975 -44.9072 -1040.26
41.4049 -44.671501 -1040.6899
41.504002 -44.294201 -1041.15
40.841301 -43.9352 -1041.9301
39.804001 -44.001701 -1042.2
39.7346 -43.469398 -1043.04
37.993599 -43.18 -1044.03
38.182098 -42.508999 -1044.88
36.743801 -42.736301 -1045.0601
36.043098 -42.125599 -1046.1
35.342602 -41.546501 -1047.17
34.092201 -41.396702 -1047.75
30.6066 -40.795399 -1049.75
27.339701 -39.9034 -1051.95
26.098101 -39.604698 -1052.73
23.421801 -39.309898 -1053.88
44.721901 -64.7994 -1006.55
46.4212 -63.4156 -1008.22
46.693401 -62.629902 -1009.44
47.1511 -61.249001 -1011.58
47.679699 -60.467899 -1012.68
48.266102 -59.6441 -1013.71
47.713402 -59.375599 -1014.43
47.8167 -58.834801 -1015.31
48.323002 -58.162601 -1016.21
48.299999 -57.159199 -1017.85
48.061298 -56.754299 -1018.56
48.389702 -56.1912 -1019.39
48.521702 -55.688499 -1020.15
48.470402 -55.221298 -1020.87
48.4193 -54.797901 -1021.54
48.328701 -54.4245 -1022.21
47.940498 -54.149101 -1022.79
48.2136 -53.639099 -1023.52
48.114101 -53.205502 -1024.1899
47.8829 -52.9231 -1024.79
47.881001 -52.490101 -1025.46
48.118999 -51.9776 -1026.15
47.850601 -51.674999 -1026.72
47.526699 -51.4179 -1027.25
47.660599 -50.998798 -1027.89
47.2145 -50.745499 -1028.38
47.021702 -50.4678 -1028.92
46.913101 -50.112801 -1029.5
46.8517 -49.7439 -1030.08
46.740101 -49.380901 -1030.64
46.3923 -49.1418 -1031.17
46.7117 -48.618099 -1031.83
46.283199 -48.431198 -1032.33
45.932499 -48.1856 -1032.84
46.0326 -47.797798 -1033.41
45.577499 -47.6283 -1033.85
44.996399 -46.787201 -1035.35
44.5457 -46.614201 -1035.79
44.249001 -46.357601 -1036.23
44.086498 -46.085499 -1036.74
43.730999 -45.553001 -1037.66
43.634899 -45.273701 -1038.12
43.0494 -45.140598 -1038.47
42.163601 -44.8409 -1039.26
42.259201 -44.490101 -1039.73
41.534901 -44.099701 -1040.52
41.0145 -43.354 -1041.74
39.873798 -43.496899 -1041.98
39.792599 -42.914398 -1042.79
38.501598 -43.0821 -1043.04
38.020802 -42.3801 -1044.1801
36.2094 -41.8624 -1045.51
34.721901 -41.548302 -1046.46
32.108002 -40.539902 -1048.7
31.919399 -40.0634 -1049.36
30.618999 -40.2831 -1049.52
29.7869 -40.043701 -1050.11
29.7834 -39.537601 -1050.79
28.5625 -39.7118 -1050.95
27.1758 -39.2076 -1051.98
24.921 -39.017899 -1052.9399
40.158501 -69.748901 -998.68903
43.261501 -66.318497 -1003.46
46.7411 -61.976501 -1009.41
47.138 -61.185699 -1010.56
48.102402 -60.231201 -1011.77
48.029999 -59.179001 -1013.59
47.7906 -58.738602 -1014.37
48.3605 -58.022301 -1015.33
48.043499 -57.6754 -1016.08
48.709499 -56.395 -1017.84
48.547901 -55.958801 -1018.58
48.7798 -55.422901 -1019.4
48.660301 -55.016102 -1020.1
48.612801 -54.6087 -1020.82
48.626499 -54.116199 -1021.49
48.2981 -53.8381 -1022.11
48.361599 -52.965698 -1023.44
48.1269 -52.644699 -1024.08
47.968899 -52.264198 -1024.7
48.2216 -51.764999 -1025.41
48.163799 -51.366501 -1026.05
47.895401 -51.071201 -1026.63
47.704201 -50.7355 -1027.1899
47.3484 -50.108601 -1028.3101
47.4464 -49.665798 -1028.9399
47.058201 -49.469101 -1029.46
46.868801 -48.728001 -1030.66
46.757801 -48.009201 -1031.84
46.209599 -47.881802 -1032.28
45.6422 -47.039299 -1033.79
45.5784 -46.701199 -1034.3
45.153 -46.515701 -1034.71
44.805801 -46.287102 -1035.1801
44.890301 -45.913399 -1035.7
44.1987 -45.519199 -1036.59
43.845798 -45.020699 -1037.5
43.4492 -44.867401 -1037.89
41.251701 -43.712898 -1040.23
40.8965 -43.538799 -1040.61
41.065201 -42.865799 -1041.49
39.710499 -43.066799 -1041.6899
38.526699 -42.589901 -1042.74
37.9935 -41.877399 -1043.92
36.560699 -41.780998 -1044.51
36.041801 -41.401001 -1045.24
35.984901 -41.144798 -1045.62
34.138401 -40.104099 -1047.74
32.875099 -40.260899 -1047.91
30.9764 -39.365299 -1049.73
29.759899 -38.9916 -1050.6
26.918501 -38.772301 -1051.76
46.1292 -62.916 -1006.96
46.831699 -61.2957 -1009.44
47.923801 -59.1311 -1012.63
47.785599 -58.678299 -1013.46
47.695702 -58.2267 -1014.27
48.193802 -57.496899 -1015.22
48.545502 -56.380199 -1016.92
48.6577 -55.8158 -1017.76
48.714001 -54.919601 -1019.3
48.8456 -54.3834 -1020.05
49.077599 -53.823799 -1020.82
48.5205 -53.615299 -1021.37
48.479698 -53.201801 -1022.04
48.8246 -52.6763 -1022.78
48.701698 -52.262501 -1023.43
48.369099 -51.998798 -1024.04
48.4296 -51.5355 -1024.71
48.3367 -51.1259 -1025.33
48.277199 -50.335098 -1026.63
47.9827 -50.0425 -1027.21
47.583302 -49.8102 -1027.74
47.620098 -49.038799 -1029
47.778198 -48.555801 -1029.63
47.1269 -48.066101 -1030.6801
46.5681 -47.8997 -1031.14
46.464699 -47.196499 -1032.21
46.2584 -46.9231 -1032.73
45.605499 -46.171299 -1034.12
45.003101 -45.726299 -1035.03
44.430199 -45.594002 -1035.41
44.131401 -45.381901 -1035.8101
41.591702 -43.3964 -1039.55
41.686199 -42.736801 -1040.45
40.800098 -42.446098 -1041.2
39.6007 -42.266701 -1041.84
38.989899 -41.884102 -1042.62
38.028599 -41.331902 -1043.75
37.932598 -41.060299 -1044.16
37.148602 -40.761398 -1044.85
36.2136 -40.523602 -1045.52
34.408001 -40.013599 -1046.86
34.082802 -39.570999 -1047.5601
33.2896 -39.3134 -1048.1801
32.196499 -39.169399 -1048.73
28.0044 -38.3484 -1051.17
22.9156 -37.6824 -1053.47
45.389 -64.115402 -1004.17
46.003399 -62.9907 -1005.7
46.171299 -62.289299 -1007.02
46.105202 -61.631302 -1008.13
47.5714 -60.365398 -1009.59
47.806198 -59.709801 -1010.64
48.222301 -58.9659 -1011.7
48.055401 -57.9828 -1013.43
47.8326 -57.5774 -1014.25
48.815601 -56.683399 -1015.3
48.593201 -56.289501 -1016.04
48.736599 -55.6828 -1016.89
48.604698 -55.260399 -1017.64
48.769001 -54.764599 -1018.47
49.0513 -54.1749 -1019.24
48.781101 -53.819599 -1019.94
48.874401 -52.894402 -1021.35
48.8881 -52.500099 -1022.01
48.707901 -52.1395 -1022.67
48.897499 -51.616402 -1023.37
48.622398 -51.228401 -1024.02
48.3661 -50.525398 -1025.3101
48.586498 -50.004501 -1026.05
48.3871 -49.3008 -1027.3
48.2122 -48.594799 -1028.4399
47.754002 -48.3895 -1028.95
47.804298 -48.008999 -1029.52
47.256302 -47.872299 -1030
47.169899 -47.513699 -1030.55
46.970901 -47.205898 -1031.0601
46.851002 -46.880501 -1031.5699
46.486198 -46.6772 -1032.05
46.181198 -46.438 -1032.5
46.0219 -46.153301 -1032.99
45.572701 -46.037498 -1033.4
45.02 -45.544601 -1034.29
45.336498 -45.126099 -1034.77
44.5518 -44.999802 -1035.17
43.174301 -44.255402 -1036.75
42.316601 -43.5429 -1038.05
42.438202 -42.868698 -1039.03
41.786999 -42.805698 -1039.37
41.592499 -42.5396 -1039.8101
40.9897 -42.470901 -1040.16
40.599098 -41.9702 -1041.01
40.087601 -41.857899 -1041.36
39.314999 -41.5438 -1042.09
39.1161 -41.2999 -1042.51
37.151199 -40.4827 -1044.3101
36.2724 -39.977699 -1045.37
36.060699 -39.763401 -1045.74
35.3307 -39.728901 -1046.03
35.6371 -39.3423 -1046.48
34.322399 -39.236198 -1047.09
33.357201 -38.744301 -1048.0699
31.2778 -38.436001 -1049.16
30.041901 -38.0755 -1050.02
28.142599 -37.740398 -1051.0699
45.281601 -63.517101 -1004.17
45.7883 -61.803398 -1006.9
47.736801 -59.712002 -1009.58
48.126598 -58.955502 -1010.68
47.824699 -58.573002 -1011.53
48.224201 -57.852798 -1012.56
48.4776 -57.215599 -1013.49
48.584801 -56.6479 -1014.34
48.6096 -56.1451 -1015.18
49.0881 -55.507801 -1016.05
49.0895 -54.5187 -1017.67
48.929199 -54.121899 -1018.37
49.009102 -53.622398 -1019.17
49.252899 -53.067501 -1019.94
49.343102 -52.579201 -1020.7
49.042599 -52.2831 -1021.3
49.055302 -51.820702 -1021.97
48.660999 -51.560699 -1022.6
48.889099 -50.155499 -1024.77
49.009998 -49.680099 -1025.47
48.8531 -49.337002 -1026.08
48.521099 -48.684101 -1027.22
48.218498 -48.420601 -1027.75
47.752998 -47.862099 -1028.78
47.841599 -47.466202 -1029.36
47.3526 -47.273201 -1029.8101
47.395401 -46.9095 -1030.39
47.2728 -46.586498 -1030.9
46.258701 -46.259102 -1031.77
46.403301 -45.8708 -1032.27
45.9856 -45.361401 -1033.2
45.164398 -44.9758 -1034.05
44.404099 -43.850101 -1035.89
43.6926 -43.809399 -1036.24
43.126598 -43.086399 -1037.58
42.791901 -42.871601 -1037.99
42.448101 -42.692101 -1038.4
41.6749 -42.007401 -1039.6801
41.2435 -41.816601 -1040.0601
40.220402 -41.307899 -1041.26
39.083302 -40.779301 -1042.35
38.5868 -40.382401 -1043.17
38.144001 -39.9189 -1043.9399
37.484699 -39.554798 -1044.66
35.336102 -38.9188 -1046.28
33.148102 -38.557201 -1047.53
32.672199 -38.189201 -1048.1899
30.437401 -37.665401 -1049.61
45.1022 -62.903599 -1004.18
46.721901 -60.8279 -1007.15
47.290001 -59.98 -1008.31
48.2323 -58.970299 -1009.61
48.8055 -57.547401 -1011.71
48.456902 -57.1646 -1012.55
48.5872 -56.594799 -1013.45
48.937401 -55.968102 -1014.37
49.319 -55.317501 -1015.27
49.34 -54.823601 -1016.05
48.959499 -54.483002 -1016.8
49.1259 -53.507999 -1018.34
49.625999 -52.842999 -1019.23
49.346401 -52.4599 -1019.87
49.585999 -51.894299 -1020.68
49.156898 -51.2174 -1022.02
49.5616 -50.6003 -1022.84
49.014801 -50.417301 -1023.38
49.197102 -49.917099 -1024.1
48.729 -49.6731 -1024.67
48.820099 -48.8484 -1025.96
48.510502 -48.5695 -1026.47
48.5592 -48.152699 -1027.08
48.087299 -47.979198 -1027.55
48.262699 -47.549599 -1028.14
47.915798 -47.333099 -1028.62
47.4594 -47.119999 -1029.08
47.7467 -46.642899 -1029.66
47.104599 -46.559299 -1030.08
47.07 -46.2033 -1030.6
46.3041 -45.7789 -1031.52
45.773399 -45.284698 -1032.41
45.7211 -44.9519 -1032.9
45.7439 -44.601898 -1033.4301
45.220501 -44.4757 -1033.83
45.0028 -44.187401 -1034.33
44.891499 -43.886501 -1034.8199
43.982201 -43.196701 -1036.16
43.767101 -42.966599 -1036.64
43.3633 -42.794399 -1037.02
42.6152 -42.117901 -1038.3101
42.189301 -41.946499 -1038.73
41.269299 -41.328899 -1039.97
40.947102 -41.131199 -1040.36
40.439999 -40.7211 -1041.17
40.096001 -40.531601 -1041.55
38.785198 -39.7799 -1043.0699
38.2948 -39.660599 -1043.41
37.5639 -39.351398 -1044.14
37.063202 -38.889301 -1044.88
36.040298 -38.7453 -1045.48
35.373299 -38.387001 -1046.1801
33.446499 -37.947498 -1047.46
33.659199 -37.6152 -1047.84
32.188702 -37.3326 -1048.7
26.809 -36.432701 -1051.5699
24.7733 -36.174999 -1052.51
41.248402 -66.696899 -997.95398
44.1008 -63.48 -1002.6
46.874901 -60.842999 -1005.88
47.398998 -59.9641 -1007.22
47.798302 -57.986599 -1010.49
48.726501 -57.043999 -1011.62
48.806499 -56.496601 -1012.57
49.051102 -55.843899 -1013.45
49.019798 -55.374599 -1014.3
49.516399 -54.195702 -1016
49.268002 -53.791401 -1016.75
49.385899 -53.2784 -1017.56
49.5494 -52.720699 -1018.39
49.574501 -52.219398 -1019.16
49.744801 -51.706299 -1020.02
49.589699 -51.324501 -1020.72
49.5359 -50.926102 -1021.41
49.514599 -50.510399 -1022.09
49.635899 -50.063099 -1022.78
49.384499 -49.735001 -1023.36
49.4263 -49.267799 -1024.03
49.350498 -48.896 -1024.63
48.952999 -48.2672 -1025.8
48.648998 -48.0243 -1026.3101
48.433498 -47.378399 -1027.39
48.225899 -47.090099 -1027.89
47.433998 -46.705799 -1028.8199
46.843899 -46.152401 -1029.76
46.921001 -45.7855 -1030.33
46.0788 -45.006199 -1031.8
45.9324 -44.348801 -1032.8101
45.437 -44.2439 -1033.24
45.055 -44.028198 -1033.67
45.104599 -43.6609 -1034.21
44.524601 -43.190899 -1035.14
44.338699 -42.921398 -1035.62
43.622601 -42.176201 -1036.97
43.282501 -41.956902 -1037.4
42.490501 -41.317402 -1038.64
42.235401 -41.083 -1039.08
41.492401 -40.720001 -1039.89
41.1567 -40.530201 -1040.28
40.5751 -40.420101 -1040.64
40.216702 -39.935799 -1041.4399
39.483299 -39.612202 -1042.1899
38.766201 -39.272099 -1042.9399
38.451199 -39.0839 -1043.33
37.825699 -38.698799 -1044.1
37.370701 -38.5588 -1044.46
35.864799 -37.973801 -1045.72
35.048199 -37.6922 -1046.39
33.687099 -37.077099 -1047.72
31.367701 -36.843399 -1048.8101
29.276199 -36.248901 -1050.22
27.4529 -35.934898 -1051.23
45.804199 -62.133202 -1003.14
46.196701 -61.199501 -1004.56
46.895302 -60.232399 -1005.9
47.479198 -59.306499 -1007.21
48.270302 -57.800598 -1009.56
48.219002 -57.219101 -1010.51
49.0788 -56.303299 -1011.65
49.283901 -55.7066 -1012.62
49.2309 -55.220001 -1013.43
48.917702 -54.853298 -1014.16
49.289398 -54.218201 -1015.08
49.432098 -53.689499 -1015.92
49.776199 -53.000401 -1016.8
49.457298 -52.1796 -1018.4
49.809299 -51.5481 -1019.28
49.9622 -50.630299 -1020.75
49.903099 -50.217499 -1021.39
49.6945 -49.9048 -1022
49.538502 -49.516399 -1022.63
49.3424 -48.821899 -1023.83
49.210602 -48.462601 -1024.4
49.093601 -48.133499 -1025
48.839001 -47.850399 -1025.53
48.7407 -47.5229 -1026.08
48.517399 -47.2314 -1026.59
47.890301 -46.7341 -1027.52
47.647301 -46.492901 -1028.02
47.660301 -46.101002 -1028.6
47.384201 -45.4398 -1029.6899
46.863701 -45.285702 -1030.16
46.891499 -44.910599 -1030.73
46.629501 -44.651699 -1031.23
46.3381 -44.402901 -1031.71
45.894299 -43.8941 -1032.6801
45.513901 -43.706699 -1033.13
45.168499 -43.133301 -1034.11
43.822102 -41.578999 -1036.95
43.371399 -41.405201 -1037.35
42.900902 -41.2864 -1037.7
42.2845 -40.864799 -1038.49
42.362999 -40.511299 -1038.98
41.237801 -39.999599 -1040.16
40.569599 -39.615299 -1040.95
40.0396 -39.187099 -1041.71
39.189602 -38.920898 -1042.45
38.684799 -38.480701 -1043.24
38.293201 -38.336201 -1043.63
37.721901 -37.885201 -1044.4301
37.179699 -37.811298 -1044.73
34.496201 -36.841702 -1046.96
32.713902 -36.368599 -1048.17
30.894699 -35.953701 -1049.3101
26.3006 -35.077801 -1051.89
45.566601 -61.6259 -1003.09
46.830002 -60.3423 -1004.71
47.970001 -59.189201 -1006.2
47.844601 -58.567402 -1007.29
47.336601 -58.210201 -1008.25
48.3321 -57.175499 -1009.52
49.193699 -56.266102 -1010.67
49.099201 -55.215 -1012.48
48.931599 -54.290001 -1014.09
49.8339 -52.377998 -1016.88
49.6026 -51.9725 -1017.66
49.881599 -51.431999 -1018.48
50.1898 -50.813801 -1019.28
50.125702 -50.005001 -1020.64
49.842999 -49.688999 -1021.22
49.6418 -48.991001 -1022.42
49.184399 -48.782101 -1022.92
49.239799 -47.9762 -1024.15
49.016998 -47.6656 -1024.7
48.6791 -47.021198 -1025.79
48.3405 -46.4389 -1026.87
47.818699 -45.8755 -1027.92
47.938801 -45.459499 -1028.53
47.378799 -45.312199 -1028.99
47.4053 -44.925098 -1029.5601
47.240501 -44.606998 -1030.1
46.611801 -44.113899 -1031.1
46.308601 -43.884399 -1031.58
46.3755 -43.519402 -1032.12
46.055302 -43.321499 -1032.5699
44.770302 -42.0359 -1034.9301
44.566299 -41.790199 -1035.41
44.519402 -41.449699 -1035.9
43.4198 -40.866501 -1037.25
43.276798 -40.574799 -1037.6899
42.352699 -40.0056 -1038.85
41.8829 -39.8647 -1039.24
40.926498 -39.274502 -1040.4301
40.970798 -38.9505 -1040.89
39.501301 -38.2565 -1042.38
37.360699 -37.2043 -1044.67
36.997601 -37.062401 -1044.99
35.6964 -36.721802 -1045.84
33.882599 -36.215302 -1047.11
32.830002 -35.779598 -1048.05
30.6614 -35.256901 -1049.49
29.3025 -34.929798 -1050.3
45.2435 -61.897301 -1001.53
46.1791 -60.730499 -1003.21
45.962601 -60.091202 -1004.43
46.809799 -59.016701 -1005.84
47.708698 -58.025398 -1007.23
48.330399 -57.120098 -1008.42
48.3615 -56.563599 -1009.46
48.664501 -55.8587 -1010.49
48.901901 -54.711601 -1012.35
49.047699 -54.053299 -1013.27
49.631302 -53.335098 -1014.31
49.514 -52.8862 -1015.18
50.057899 -52.197102 -1016.14
49.885601 -51.7658 -1016.87
49.998901 -50.819199 -1018.36
49.8484 -50.436699 -1019.03
49.8647 -49.9925 -1019.7
49.690399 -49.241501 -1020.94
49.636299 -48.8867 -1021.55
49.172401 -46.668499 -1025.1
48.470501 -46.554001 -1025.5601
48.361301 -46.224499 -1026.15
48.315399 -45.515701 -1027.3
48.064201 -45.224899 -1027.85
47.862 -44.936298 -1028.36
47.843498 -44.573601 -1028.96
47.459702 -43.935501 -1030.03
46.8092 -43.867298 -1030.4399
46.912899 -43.4576 -1031.01
46.768101 -43.158401 -1031.55
46.080299 -42.707199 -1032.4399
45.854198 -42.479301 -1032.9301
45.417099 -41.918598 -1033.89
45.067001 -41.366901 -1034.86
44.3979 -40.9529 -1035.74
44.001801 -40.777401 -1036.17
43.906601 -40.465199 -1036.63
43.550201 -39.906601 -1037.6
42.490398 -39.693401 -1038.3
42.174801 -39.177799 -1039.15
41.689899 -39.084 -1039.54
41.2477 -38.5914 -1040.36
40.7649 -38.4538 -1040.71
40.158001 -38.094002 -1041.49
39.752602 -37.9184 -1041.84
38.9603 -37.593899 -1042.5699
38.561501 -37.118 -1043.38
37.895901 -37.075298 -1043.72
37.290699 -36.711498 -1044.45
36.8839 -36.288101 -1045.13
35.795502 -36.1189 -1045.72
35.072601 -35.832699 -1046.39
34.1534 -35.597 -1047.02
27.4356 -34.034801 -1051.2
23.8545 -33.6385 -1052.77
45.319 -61.139599 -1001.64
