# .PCD v0.7 - Point Cloud Data file format
VERSION 0.7
FIELDS x y z
SIZE 4 4 4
TYPE F F F
COUNT 1 1 1
WIDTH 1716
HEIGHT 1
VIEWPOINT 0 0 0 1 0 0 0
POINTS 1716
DATA ascii
-5.3145099 36.035599 -1028.46
-6.7670002 35.856602 -1027.73
-8.7135296 35.753899 -1026.83
-10.6055 35.482399 -1025.72
-12.9635 35.154499 -1024.28
-15.318 34.622501 -1022.54
46.749001 20.0107 -1011.87
42.840801 23.5928 -1017.69
41.932598 24.252001 -1018.72
41.1861 25.067699 -1020.07
40.310299 25.4615 -1020.64
39.580502 25.997601 -1021.5
38.704399 26.244301 -1021.8
38.032101 26.7369 -1022.58
37.277901 27.1164 -1022.99
36.506001 27.5424 -1023.62
35.694698 27.982 -1024.25
35.056198 28.623699 -1025.29
34.2966 28.9505 -1025.79
33.498299 29.0903 -1025.89
32.998501 29.633699 -1026.75
31.7946 30.3536 -1027.65
31.0123 30.400499 -1027.62
30.4813 30.8426 -1028.26
29.7393 30.9986 -1028.38
29.196501 31.3908 -1028.9301
27.886801 31.794701 -1029.4
26.7355 32.2831 -1029.97
25.5341 32.608898 -1030.2
23.1598 33.316399 -1030.88
22.642799 33.618599 -1031.23
22.028099 33.7071 -1031.27
21.3461 33.682499 -1031.04
20.328501 34.0322 -1031.4
19.810101 34.229698 -1031.55
19.2726 34.372299 -1031.7
16.899 34.730701 -1031.7
16.4655 34.855499 -1031.91
15.7803 34.946701 -1031.79
8.1085796 36.4282 -1032.14
7.4967299 36.3731 -1031.92
6.2407799 36.233799 -1031.3199
5.2330298 36.360901 -1031.24
4.2623601 36.422298 -1031.08
3.8237 36.537399 -1031.13
3.43259 36.723099 -1031.28
2.7481101 36.503101 -1030.77
1.6571701 36.479401 -1030.41
1.24997 36.667 -1030.53
0.136749 36.527199 -1030.02
-1.21716 36.6465 -1029.77
-2.3135099 36.516998 -1029.23
-3.2771001 36.542 -1028.9301
-4.2740502 36.538601 -1028.59
-5.6515198 36.520199 -1028.0699
-7.1354699 36.375198 -1027.33
-9.1100502 36.1884 -1026.34
-10.9055 35.983501 -1025.34
-11.937 35.755501 -1024.58
44.961102 22.5268 -1015.01
44.031502 23.2623 -1016.14
42.870602 24.024 -1017.37
41.979198 24.739799 -1018.54
40.250702 25.7029 -1020
39.6348 26.258699 -1020.89
38.687599 26.4214 -1020.93
37.7854 26.846001 -1021.58
37.128399 27.5888 -1022.9
36.452801 28.2771 -1023.95
35.7425 28.740101 -1024.64
35.049999 29.1891 -1025.26
34.2943 29.4238 -1025.59
33.6726 29.826099 -1026.14
33.045799 30.1989 -1026.65
32.388199 30.3717 -1026.8199
31.772499 30.726 -1027.29
30.601999 31.432501 -1028.25
28.5434 31.9888 -1028.83
24.5149 33.4953 -1030.4301
22.707199 33.998001 -1030.84
22.088699 34.057999 -1030.85
21.5226 34.213001 -1030.95
20.9673 34.3326 -1031.0601
20.4174 34.441399 -1031.12
19.908001 34.641102 -1031.29
19.358101 34.768501 -1031.38
18.699499 34.7952 -1031.23
18.3416 35.219501 -1031.85
16.961201 35.139099 -1031.39
15.8643 35.3964 -1031.5601
8.4539499 36.482399 -1031.39
8.0289898 36.680302 -1031.5601
6.7164602 36.429401 -1030.86
6.3541298 36.724098 -1031.17
5.24896 36.711899 -1030.83
4.3586702 36.8815 -1030.85
3.87515 36.909199 -1030.8
1.7232701 36.904202 -1030.13
0.94454998 37.283901 -1030.4301
-0.144226 37.133801 -1029.86
-1.15729 37.083099 -1029.48
-2.1700101 37.043301 -1029.1
-3.6723299 37.058201 -1028.58
-4.1010399 37.100899 -1028.54
-6.0398598 36.943699 -1027.62
-7.5318599 36.795101 -1026.86
-10.3597 36.531799 -1025.41
-13.2858 35.986198 -1023.42
47.592701 20.2097 -1010.06
44.900902 22.3442 -1013.56
43.625099 23.028299 -1014.72
41.259201 25.6786 -1018.96
40.640099 26.5434 -1020.38
39.725601 26.9431 -1020.98
38.808102 27.5474 -1021.98
37.9851 28.008699 -1022.71
37.260201 28.4772 -1023.45
36.654301 29.123301 -1024.42
35.8839 29.382299 -1024.71
34.257999 29.7761 -1025.14
33.715 30.288799 -1025.92
33.0854 30.636499 -1026.41
32.439701 30.853201 -1026.6899
31.847099 31.220301 -1027.13
30.6411 31.8456 -1027.97
25.057301 33.522301 -1029.63
23.3522 34.138199 -1030.3101
22.759701 34.331001 -1030.45
22.217699 34.543999 -1030.7
21.6178 34.658199 -1030.73
21.115999 34.8494 -1030.95
20.492001 34.8465 -1030.77
19.979601 35.043499 -1030.99
19.379601 35.1129 -1030.99
18.414801 35.616501 -1031.54
16.616301 35.816399 -1031.37
15.6232 36.063599 -1031.62
6.4654799 37.2085 -1031.01
4.34341 37.1856 -1030.39
3.5322001 37.493 -1030.65
2.7943101 37.2141 -1029.99
1.82901 37.3708 -1029.9399
0.324341 37.449902 -1029.54
-0.074920699 37.5564 -1029.6
-2.0976901 37.455399 -1028.84
-3.6068699 37.449501 -1028.33
-4.6022301 37.384102 -1027.87
-7.4853201 37.164001 -1026.55
-8.9413099 37.0844 -1025.9
46.6525 21.9408 -1011.9
43.786499 23.698099 -1014.89
43.191101 25.191 -1017.35
42.237301 25.649401 -1017.95
41.443001 26.3993 -1019.16
40.042702 26.371599 -1019.19
39.602798 27.625799 -1021.26
38.805302 28.07 -1021.98
38.093399 28.616501 -1022.73
37.330399 28.9613 -1023.26
36.535 29.3123 -1023.7
35.8535 29.734501 -1024.3101
35.1558 30.1276 -1024.87
34.371498 30.3055 -1025.13
33.7211 30.639799 -1025.54
33.254299 31.241501 -1026.4399
24.572001 34.105301 -1029.51
24.088499 34.48 -1030
21.611601 34.900398 -1030.2
21.2111 35.251598 -1030.67
20.0683 35.471199 -1030.75
18.793301 35.541401 -1030.58
17.209499 36.079201 -1031.05
8.5509596 37.252701 -1030.76
6.5755901 37.6684 -1030.84
5.3789401 37.519402 -1030.3101
4.1191702 37.920502 -1030.53
3.6654401 37.9935 -1030.51
2.54266 37.920399 -1030.09
1.39459 37.844501 -1029.61
0.92816198 37.8974 -1029.5601
-0.052215599 37.910999 -1029.24
-1.00995 37.910599 -1028.95
-2.5627401 37.834 -1028.37
-4.0041499 37.898602 -1027.95
-4.9197402 37.895599 -1027.64
-5.9432101 37.741798 -1027.01
-7.86484 37.625301 -1026.16
-13.1984 36.736801 -1022.78
43.160999 25.202999 -1016.37
40.814201 26.232401 -1018.19
40.383099 27.6054 -1020.35
39.628399 28.0947 -1021.12
38.850101 28.5159 -1021.77
37.98 28.8291 -1022.13
37.4342 29.5191 -1023.25
36.665401 29.870199 -1023.67
35.9981 30.2917 -1024.3199
35.2243 30.5623 -1024.66
34.497898 30.815701 -1024.95
31.9711 31.936899 -1026.37
31.379499 32.262199 -1026.8101
30.75 32.5023 -1027.16
30.145399 32.827 -1027.55
28.239401 33.456799 -1028.26
25.91 34.237999 -1029.08
25.329901 34.4846 -1029.3101
24.702 34.5765 -1029.36
22.881001 35.091202 -1029.79
22.373301 35.319401 -1030.09
21.748899 35.383301 -1030.0699
21.2946 35.679798 -1030.42
20.644501 35.656898 -1030.26
18.8423 35.874298 -1030.2
18.555201 36.377399 -1030.9399
17.705299 36.1408 -1030.35
17.2955 36.4949 -1030.83
16.9079 36.8311 -1031.26
15.7114 36.773201 -1030.79
15.078 36.860901 -1030.78
7.8371601 38.106098 -1031
6.62714 38.014801 -1030.55
5.2258601 38.3069 -1030.5699
4.2002902 38.324001 -1030.3101
3.6778901 38.315701 -1030.15
2.68259 38.446999 -1030.0601
0.50189197 38.301601 -1029.15
-0.46935999 38.290298 -1028.8199
-1.4913 38.2383 -1028.41
-2.4214499 38.348099 -1028.28
-4.9716802 38.135399 -1027.12
-5.8052101 38.241299 -1026.9399
-7.8006902 38.017101 -1025.91
-10.1554 37.757801 -1024.61
-11.6124 37.498699 -1023.64
-14.8757 36.875301 -1021.38
41.895599 26.588499 -1017.8
41.087502 27.2321 -1018.83
40.358002 27.992901 -1019.97
38.9207 29.039101 -1021.59
38.1418 29.4632 -1022.22
37.5476 30.0215 -1023.04
36.896 30.5336 -1023.85
36.072102 30.688601 -1023.96
34.6595 31.2817 -1024.73
33.415699 31.908899 -1025.59
32.7379 32.0923 -1025.78
26.551001 34.414101 -1028.48
26.0287 34.7234 -1028.86
24.2108 35.209 -1029.29
22.9772 35.494202 -1029.51
22.443199 35.7369 -1029.79
21.823799 35.806499 -1029.74
21.32 36.014599 -1030.03
20.7472 36.0909 -1029.98
20.2176 36.233799 -1030.13
19.746901 36.520302 -1030.45
18.9424 36.312302 -1029.96
18.6619 36.833801 -1030.75
17.802799 36.5961 -1030.14
17.351299 36.872299 -1030.46
16.9387 37.160999 -1030.84
8.2327604 38.2244 -1030.33
7.63483 38.184101 -1030.09
5.5029898 38.307899 -1029.75
5.31113 38.7728 -1030.36
3.01685 38.494202 -1029.28
2.71594 38.809101 -1029.66
-0.387238 38.756802 -1028.61
-1.83856 38.770599 -1028.21
-2.2920201 38.857201 -1028.16
-3.91873 38.654499 -1027.33
-4.8554702 38.6544 -1026.98
-6.80725 38.4147 -1025.98
-7.7305298 38.444199 -1025.64
-10.0208 38.275501 -1024.52
-11.0362 38.0168 -1023.76
-12.5601 37.6721 -1022.63
45.131001 23.1824 -1010.74
44.004101 25.7201 -1015.43
42.8083 26.257999 -1016.19
42.2551 27.617001 -1018.52
41.182899 27.826599 -1018.7
40.435398 28.469299 -1019.76
39.718899 28.965599 -1020.49
39.077702 29.7283 -1021.69
38.257801 29.9102 -1021.98
37.656502 30.4571 -1022.78
36.875702 30.7118 -1023.08
35.407299 31.275499 -1023.78
34.745499 31.6385 -1024.3199
34.135799 32.009701 -1024.8
33.557098 32.348598 -1025.3199
32.8993 32.5214 -1025.53
32.294498 32.864601 -1025.98
30.9519 33.296799 -1026.46
25.522699 35.320599 -1028.73
24.8932 35.405998 -1028.75
24.315399 35.641399 -1029.03
23.1071 35.965801 -1029.3101
21.9235 36.225101 -1029.4399
21.4604 36.5005 -1029.86
20.820101 36.500198 -1029.67
20.2763 36.6479 -1029.8
19.8386 36.945599 -1030.2
19.1227 36.886799 -1029.95
18.808701 37.365898 -1030.64
17.4286 37.300201 -1030.1899
16.2318 37.3624 -1030.04
15.8253 37.5345 -1030.1899
15.1804 37.6101 -1030.13
8.7740498 38.4897 -1029.9399
7.9135399 38.861 -1030.29
6.8759499 39.040901 -1030.3101
4.76193 39.0508 -1029.71
4.2749 39.093899 -1029.63
3.16379 39.029499 -1029.1801
2.23456 39.222 -1029.22
1.69031 39.196098 -1029.02
-0.743469 39.263599 -1028.33
-1.76355 39.213001 -1027.9399
-2.79144 39.184101 -1027.5601
-5.1930199 39.0975 -1026.62
-6.15979 39.0266 -1026.17
-7.6649199 38.849701 -1025.39
-10.991 38.427502 -1023.45
-12.4623 38.155998 -1022.43
43.8508 25.908199 -1014.59
43.018799 26.972401 -1016.42
42.029301 27.609699 -1017.42
41.2673 28.219601 -1018.39
40.594799 28.9848 -1019.62
38.395 30.3381 -1021.64
36.074799 31.077299 -1022.53
35.5401 31.7024 -1023.5
34.931499 32.150501 -1024.16
34.278999 32.465698 -1024.5699
33.5242 32.5765 -1024.65
32.975201 32.885399 -1025.11
32.362099 33.203201 -1025.51
31.669201 33.423302 -1025.73
26.127399 35.408298 -1028.01
24.349899 35.9692 -1028.5601
23.7927 36.2514 -1028.89
23.192699 36.409302 -1029.05
22.115499 36.8055 -1029.4399
21.5284 36.898201 -1029.49
20.9139 36.930901 -1029.36
20.3986 37.123699 -1029.63
19.9037 37.361599 -1029.88
19.2036 37.311199 -1029.62
18.896799 37.819099 -1030.38
17.0786 37.980301 -1030.23
16.2953 37.789501 -1029.73
15.9537 38.018002 -1030
15.4052 38.279202 -1030.3199
8.7880602 38.8438 -1029.54
7.2659898 39.144699 -1029.5699
5.66821 39.2435 -1029.27
5.4703102 39.642502 -1029.85
4.4030199 39.620201 -1029.52
2.88345 39.706402 -1029.1801
2.3726201 39.741501 -1029.1
1.2661099 39.674599 -1028.64
0.232117 39.6073 -1028.2
-0.68014503 39.689301 -1028.0601
-1.68802 39.637199 -1027.67
-2.68872 39.6432 -1027.35
-3.7706001 39.520401 -1026.79
-5.56387 39.5546 -1026.23
-6.5489802 39.441898 -1025.72
-8.1101704 39.251598 -1024.8101
45.349602 25.989201 -1013.71
43.971199 26.468599 -1014.44
43.200401 27.609699 -1016.36
42.209202 28.1873 -1017.26
41.546101 28.882 -1018.42
40.7075 29.3241 -1019.04
40.051899 29.909401 -1019.95
39.349499 30.404699 -1020.7
38.510899 30.693899 -1021.06
37.934101 31.283199 -1022
37.124401 31.5005 -1022.25
36.3708 31.7868 -1022.62
35.8339 32.4217 -1023.57
34.916901 32.388199 -1023.42
34.419899 32.931499 -1024.22
33.761799 33.188999 -1024.5601
33.163502 33.526699 -1025.03
32.444 33.624001 -1025.0699
31.806 33.8909 -1025.41
26.277901 35.959202 -1027.86
25.662201 36.1292 -1027.98
25.165001 36.441601 -1028.38
24.4856 36.520802 -1028.38
23.8925 36.700199 -1028.53
22.6992 37.023201 -1028.8199
22.2055 37.2374 -1029.11
21.625401 37.376099 -1029.1899
20.0312 37.858299 -1029.63
19.2747 37.750599 -1029.27
18.942499 38.206501 -1029.96
17.617001 38.2118 -1029.64
17.146099 38.433399 -1029.87
16.428699 38.338001 -1029.54
16.055599 38.605301 -1029.9
14.5796 39.040699 -1030.15
7.3299599 39.619099 -1029.26
5.4868798 40.027302 -1029.36
4.8533902 39.863998 -1028.97
3.9783299 40.120201 -1029.08
3.37112 39.980701 -1028.72
2.3588901 40.084702 -1028.5699
1.32709 40.1022 -1028.28
0.33203101 40.1464 -1028.02
-0.64874297 40.091999 -1027.61
-2.0809 40.180401 -1027.3101
-3.1000099 40.1353 -1026.9301
-4.15344 39.987099 -1026.35
-5.5283799 39.964298 -1025.85
-7.5038099 39.780701 -1024.87
-8.5222502 39.655998 -1024.28
-9.8533897 39.5345 -1023.61
45.135201 25.9144 -1012.34
43.9767 26.7484 -1013.69
43.219501 27.867201 -1015.61
42.326302 28.5149 -1016.62
40.855701 29.6747 -1018.57
39.4114 30.6807 -1020
38.6437 31.061899 -1020.56
38.023701 31.594299 -1021.38
37.296799 31.9902 -1021.95
36.385601 31.9835 -1021.83
35.887501 32.727299 -1022.99
35.044998 32.820801 -1023.04
33.793201 33.509499 -1023.97
33.194401 33.789902 -1024.35
32.5746 34.0597 -1024.7
31.848499 34.255299 -1024.92
31.452499 34.882999 -1025.92
29.959801 35.0336 -1025.89
26.365601 36.376301 -1027.46
25.858999 36.733799 -1027.9301
25.1868 36.785702 -1027.85
24.639601 37.053398 -1028.2
23.360901 37.260101 -1028.29
22.8559 37.580399 -1028.7
22.231501 37.608799 -1028.61
21.716999 37.838699 -1028.86
21.1824 37.959202 -1028.99
20.0648 38.2397 -1029.1899
19.0529 38.684299 -1029.64
17.704399 38.6791 -1029.35
17.3431 39.063999 -1029.9
16.542299 38.841202 -1029.34
16.150101 39.0313 -1029.5699
15.4846 39.065601 -1029.41
14.6613 39.528198 -1029.8
8.8709698 40.4505 -1029.97
8.2271996 40.3372 -1029.61
7.4485502 40.108101 -1029.03
5.5741901 40.486698 -1029.1
1.96933 40.6273 -1028.27
0.83941698 40.477299 -1027.72
0.0095214797 40.675598 -1027.77
-1.073 40.5397 -1027.17
-2.5151701 40.610401 -1026.8101
-3.1106901 40.4935 -1026.41
-4.5546598 40.4622 -1025.84
-5.9496799 40.389099 -1025.29
-8.4383202 40.172401 -1023.99
-8.8443003 40.177399 -1023.89
-10.7579 39.829102 -1022.6
-14.0669 39.198399 -1020.31
44.671001 27.9564 -1014.77
43.348301 28.1635 -1014.98
42.542301 28.880899 -1016.12
41.810699 29.569099 -1017.28
40.952202 29.995399 -1017.93
40.309601 30.568701 -1018.84
38.7896 31.4217 -1020.08
38.1078 31.9088 -1020.75
37.366199 32.272202 -1021.35
36.618599 32.594101 -1021.78
35.2094 33.261501 -1022.68
34.568401 33.634399 -1023.22
33.950199 33.982201 -1023.69
33.250801 34.124901 -1023.88
32.7229 34.582298 -1024.5
25.287399 37.227501 -1027.54
24.6553 37.359402 -1027.7
23.497601 37.761299 -1028.08
22.8391 37.857899 -1028.08
22.2735 37.989899 -1028.1801
21.7845 38.267799 -1028.48
21.2435 38.380199 -1028.58
20.622 38.426701 -1028.5
20.201799 38.782001 -1029
19.038799 38.9991 -1029.08
16.549601 39.156799 -1028.79
16.2269 39.501801 -1029.22
15.5946 39.597599 -1029.26
7.9155898 40.277302 -1028.42
7.2133198 40.863602 -1029.14
6.6591802 40.908001 -1029.0699
5.71176 41.0509 -1028.97
5.0434899 40.836399 -1028.47
3.5314901 40.936298 -1028.2
3.0310099 40.970402 -1028.11
2.06583 41.152802 -1028.0699
0.97958398 41.022701 -1027.5699
0.087066703 41.158001 -1027.45
-0.87472498 41.187401 -1027.22
-1.97754 41.037498 -1026.59
-7.2989502 40.786201 -1024.4
-10.6196 40.367298 -1022.45
46.732498 25.1418 -1008.89
45.7798 27.0567 -1012.19
44.652599 27.8571 -1013.41
43.624802 28.4499 -1014.48
42.687199 29.1159 -1015.47
41.972698 29.9114 -1016.78
41.225399 30.5509 -1017.76
40.265301 30.6455 -1017.91
39.7855 31.478201 -1019.21
38.9967 31.928499 -1019.91
38.3339 32.466499 -1020.72
37.519402 32.722 -1021.05
36.806999 33.1213 -1021.58
36.012001 33.344101 -1021.89
35.3316 33.6987 -1022.39
34.5737 33.868099 -1022.55
34.058102 34.4286 -1023.37
33.5359 34.803501 -1023.97
32.730701 34.794701 -1023.85
32.193501 35.299301 -1024.59
27.816999 37.013401 -1026.66
24.8983 38.0541 -1027.77
24.2365 38.105301 -1027.77
23.670099 38.3512 -1028.0601
22.993099 38.382702 -1027.97
22.5009 38.637299 -1028.25
21.8032 38.565498 -1027.96
20.803699 38.995701 -1028.47
20.2717 39.2052 -1028.6801
19.175301 39.5131 -1028.9301
17.935499 39.622898 -1028.87
16.682501 39.658401 -1028.65
16.396 40.050598 -1029.1801
14.7092 40.280998 -1029.09
13.9789 40.086102 -1028.75
8.4313002 41.2701 -1029.08
7.4822402 40.8316 -1028.1801
7.2174702 41.227501 -1028.72
6.0991201 41.224899 -1028.41
4.6893601 41.419701 -1028.29
4.23489 41.497299 -1028.3101
3.1759601 41.507999 -1028
2.0592999 41.477001 -1027.61
1.0089099 41.424999 -1027.21
0.178619 41.635502 -1027.1801
-2.3290701 41.562099 -1026.36
-4.8050199 41.384499 -1025.24
-5.7020001 41.445702 -1024.96
-7.2515898 41.205299 -1024.0601
-9.1980896 40.960701 -1022.96
-12.5515 40.380798 -1020.73
45.8829 27.233299 -1011.38
44.724602 27.8876 -1012.41
43.014702 29.7554 -1015.51
42.141201 30.162399 -1016.17
41.2673 30.686001 -1016.96
40.456402 31.0919 -1017.62
39.845901 31.789 -1018.72
39.181702 32.344299 -1019.58
38.362099 32.645699 -1020.03
37.562302 32.997002 -1020.46
36.962299 33.536098 -1021.35
36.183498 33.828999 -1021.76
35.538502 34.2826 -1022.37
34.816502 34.4226 -1022.53
34.227699 34.894402 -1023.23
33.615799 35.150501 -1023.59
32.200001 35.5401 -1024.01
25.4979 38.077301 -1027.01
23.709999 38.700298 -1027.64
22.549 38.972401 -1027.87
21.979099 39.108898 -1027.96
20.387899 39.642101 -1028.48
19.2722 39.928299 -1028.7
16.8204 40.164902 -1028.54
16.4042 40.3354 -1028.71
15.749 40.385601 -1028.64
8.8334398 41.434399 -1028.5601
7.3303499 41.695702 -1028.55
5.83359 41.8326 -1028.39
3.7016301 41.8424 -1027.73
2.71176 41.950401 -1027.63
0.751495 42.059799 -1027.16
-0.27755699 41.9412 -1026.71
-1.28491 41.910599 -1026.33
-1.80606 41.926498 -1026.1801
-2.8095701 41.9249 -1025.8101
-6.1571999 41.7659 -1024.4
-8.1655598 41.540199 -1023.33
-12.9019 40.763901 -1020.26
44.864399 27.869301 -1011.33
42.314999 30.496799 -1015.74
41.2929 30.8074 -1016.16
39.836201 31.934099 -1017.95
39.1423 32.418999 -1018.71
38.478199 32.998402 -1019.58
37.013199 33.805801 -1020.78
36.179401 34.0284 -1020.98
35.543499 34.4907 -1021.75
34.832199 34.6586 -1021.97
34.318298 35.232201 -1022.81
33.738899 35.576302 -1023.34
33.039299 35.7859 -1023.55
25.5755 38.5005 -1026.72
24.304501 38.747898 -1026.87
23.776199 39.0504 -1027.27
22.5487 39.273998 -1027.37
21.4065 39.4669 -1027.47
20.960501 39.809898 -1027.89
19.351 40.345901 -1028.4399
18.5648 40.179901 -1027.99
18.062901 40.420399 -1028.25
17.599899 40.672798 -1028.53
16.905899 40.5961 -1028.28
16.503799 40.816601 -1028.5699
15.7562 40.727402 -1028.2
14.955 41.090199 -1028.61
9.24265 42.310902 -1029.1
6.9464698 42.2467 -1028.38
6.1708398 41.925598 -1027.6801
5.3109102 42.202202 -1027.8199
4.8691401 42.296398 -1027.87
2.8366101 42.437199 -1027.49
1.74237 42.401299 -1027.08
0.83273298 42.4758 -1026.9399
-0.16577099 42.426899 -1026.58
-1.6889 42.4179 -1026.04
-3.2679701 42.309101 -1025.3
-4.6550598 42.266399 -1024.78
-7.6536298 41.955601 -1023.21
-10.4207 41.610199 -1021.63
46.527599 27.434 -1009.5
45.2729 28.488701 -1011.41
44.307999 29.501101 -1013.09
43.327801 30.2022 -1014.32
42.347698 30.626301 -1014.96
41.537601 31.208099 -1015.88
41.116699 32.386002 -1017.83
40.068802 32.384102 -1017.65
39.4119 33.0228 -1018.76
38.591702 33.323502 -1019.15
37.906101 33.866798 -1019.98
37.191502 34.241402 -1020.57
36.321701 34.3759 -1020.69
35.700298 34.898499 -1021.47
35.058701 35.2402 -1021.93
34.397202 35.550499 -1022.35
33.094101 36.0896 -1023.1
32.419399 36.337502 -1023.39
31.794701 36.6236 -1023.77
25.0658 39.0924 -1026.63
24.499901 39.327099 -1026.9301
22.683201 39.7313 -1027.21
22.105 39.868698 -1027.3101
21.5592 40.0014 -1027.4399
21.038799 40.183601 -1027.6
20.468599 40.323399 -1027.6899
19.885201 40.460999 -1027.77
19.4224 40.732101 -1028.14
18.670401 40.619301 -1027.79
18.178699 40.875599 -1028.11
16.9464 40.930801 -1027.9
16.646 41.3228 -1028.48
15.4302 41.318199 -1028.15
8.5243797 42.427799 -1028.1801
7.8467999 42.285599 -1027.79
6.2511601 42.373699 -1027.46
5.3996 42.611 -1027.62
4.5329599 42.866901 -1027.77
3.4428999 42.858799 -1027.41
2.78757 42.697899 -1026.98
1.31345 42.788601 -1026.6801
0.33590701 42.7672 -1026.33
-0.083831802 42.8666 -1026.38
-2.0957 42.8512 -1025.66
-3.1574099 42.747299 -1025.13
-5.0739102 42.627998 -1024.25
-5.98877 42.5947 -1023.91
-9.8115196 42.203602 -1021.84
46.850498 27.4223 -1008.43
44.451401 29.708 -1012.39
43.413399 30.4412 -1013.66
42.473499 30.787201 -1014.19
41.7663 31.634199 -1015.54
40.269001 32.825298 -1017.45
39.369801 33.086201 -1017.8
38.7747 33.793999 -1018.98
38.0564 34.306499 -1019.71
37.290798 34.5858 -1020.12
36.390202 34.698399 -1020.16
35.830299 35.346298 -1021.2
34.516998 35.998199 -1022.12
33.861599 36.230999 -1022.41
33.241901 36.578602 -1022.88
27.5049 38.650799 -1025.34
26.3466 39.115398 -1025.92
25.7659 39.2925 -1026.15
25.0902 39.408401 -1026.1899
24.0154 39.9725 -1026.88
23.290899 39.954498 -1026.6801
22.817801 40.2351 -1027.0601
22.208401 40.331501 -1027.1
21.6845 40.513901 -1027.27
21.085699 40.577599 -1027.2
19.9004 40.783199 -1027.33
18.7484 41.030602 -1027.5
18.2726 41.319401 -1027.89
17.039101 41.363499 -1027.67
15.9473 41.574402 -1027.72
15.1487 42.023102 -1028.3199
12.4213 42.591801 -1028.5601
7.51651 42.941101 -1027.76
6.41254 42.920101 -1027.42
5.0405302 43.158199 -1027.4301
4.5571899 43.2192 -1027.36
3.51651 43.271702 -1027.11
2.43683 43.278301 -1026.8
1.9525501 43.316898 -1026.73
1.3801 43.236 -1026.4301
0.42025799 43.209099 -1026.11
-0.53613299 43.2784 -1025.88
-1.53394 43.2845 -1025.5699
-2.63168 43.140701 -1025
-3.5738499 43.1726 -1024.7
-6.4380498 42.9991 -1023.41
-7.93256 42.8363 -1022.58
-10.6877 42.4953 -1021.01
-13.1148 41.999298 -1019.26
45.559898 28.4133 -1008.99
44.416599 29.535801 -1010.96
43.678001 30.737801 -1013.02
42.912899 31.639601 -1014.55
41.919498 32.0779 -1015.2
41.0737 32.451599 -1015.84
39.491699 33.450001 -1017.42
38.828602 34.0541 -1018.29
37.9967 34.327499 -1018.71
37.3806 34.935699 -1019.68
36.657299 35.403801 -1020.33
35.874802 35.6423 -1020.64
35.311401 36.134399 -1021.41
34.602001 36.3587 -1021.66
33.931702 36.559101 -1021.92
33.354801 36.970901 -1022.57
32.009399 37.474201 -1023.14
30.7127 38.035301 -1023.89
26.3887 39.4422 -1025.5
25.318899 40.062 -1026.28
24.742901 40.270199 -1026.49
23.407 40.419498 -1026.47
22.310699 40.760502 -1026.8199
21.740499 40.877499 -1026.88
21.207399 41.037701 -1027.04
19.9597 41.170101 -1027.01
19.6255 41.642899 -1027.67
18.8708 41.529202 -1027.37
17.1481 41.862598 -1027.49
15.5477 42.097599 -1027.49
13.5101 42.736801 -1028.05
12.2916 42.806301 -1027.8101
8.6180401 43.1786 -1027.48
7.7020302 43.511002 -1027.73
6.1452599 43.571499 -1027.4399
5.07758 43.556301 -1027.08
4.0738802 43.616901 -1026.9301
3.63745 43.769199 -1026.98
2.4807999 43.661999 -1026.47
0.55517602 43.7607 -1026.02
-1.4285001 43.7603 -1025.4
-2.99243 43.660198 -1024.71
-3.85623 43.713501 -1024.55
-5.3941998 43.4702 -1023.6
-6.2740798 43.554798 -1023.38
-8.3174696 43.2127 -1022.1
-10.6218 42.888802 -1020.75
45.763802 28.613001 -1008.23
42.939201 31.7122 -1013.6
42.049301 32.260201 -1014.45
41.328201 32.974899 -1015.62
40.367802 33.2047 -1015.98
39.661098 33.8866 -1017.1
38.851501 34.251301 -1017.59
38.2644 35.028099 -1018.81
37.371201 35.120701 -1018.91
36.815899 35.847801 -1020.1
35.979801 35.9925 -1020.23
34.610401 36.548401 -1020.97
34.054699 36.998402 -1021.6
33.396301 37.278099 -1021.96
32.706902 37.5341 -1022.32
32.171799 37.9688 -1022.95
25.372299 40.404701 -1025.84
24.7127 40.507401 -1025.87
24.118299 40.7024 -1026.08
23.5161 40.853401 -1026.23
21.842699 41.3078 -1026.61
20.809299 41.7314 -1027.11
20.1472 41.734501 -1026.99
19.636101 41.973099 -1027.22
18.339001 42.032398 -1027.01
17.214001 42.27 -1027.15
16.818199 42.525002 -1027.47
16.1124 42.384701 -1027.15
15.6959 42.624802 -1027.38
15.2196 42.7314 -1027.45
14.1687 42.990799 -1027.59
12.2555 43.190201 -1027.51
8.8774996 43.863701 -1027.66
8.1057997 43.594299 -1027.0601
6.2135601 44.014999 -1027.14
5.1444702 43.975601 -1026.79
2.10043 44.192299 -1026.22
0.117523 44.159401 -1025.5601
-0.355591 44.204498 -1025.45
-1.31522 44.231499 -1025.23
-2.9228499 44.1078 -1024.4399
-4.24652 44.122398 -1024.05
-6.2544599 43.9282 -1023
-11.5336 43.153599 -1019.78
46.000999 28.194099 -1006.27
45.031799 30.2297 -1009.85
43.759201 30.719601 -1010.76
42.958199 31.658501 -1012.37
42.253399 32.6978 -1014.06
41.369202 33.145599 -1014.71
40.852001 34.1614 -1016.43
40.000999 34.5797 -1017.12
39.133801 34.901699 -1017.56
38.2565 35.166901 -1017.91
37.556 35.628601 -1018.66
36.7645 35.949001 -1019.1
36.318501 36.802502 -1020.48
34.848801 37.2047 -1020.95
34.2537 37.5509 -1021.44
33.6124 37.8741 -1021.87
32.986099 38.227402 -1022.41
32.207699 38.313801 -1022.42
31.5583 38.5947 -1022.81
24.7974 40.920898 -1025.47
23.579901 41.2752 -1025.84
22.549999 41.7393 -1026.36
21.879101 41.6805 -1026.16
21.3843 41.9146 -1026.41
20.802999 42.053902 -1026.54
20.2663 42.258701 -1026.76
19.8384 42.6091 -1027.2
18.9893 42.343201 -1026.61
18.5375 42.659401 -1027.01
17.9631 42.754398 -1027.03
17.354099 42.772598 -1026.9399
15.788 43.094601 -1027.08
14.5606 43.182701 -1026.97
10.1824 43.633099 -1026.65
8.15308 44.025902 -1026.6899
7.77841 44.2943 -1027.01
6.2954102 44.500301 -1026.88
4.7452698 44.520802 -1026.51
4.1799898 44.468601 -1026.24
3.1900899 44.6012 -1026.12
2.2147501 44.7146 -1026.02
1.68451 44.671902 -1025.8199
0.212433 44.675201 -1025.33
-0.31350699 44.629501 -1025.08
-1.7972701 44.630798 -1024.64
-3.2911699 44.5835 -1024.0601
-4.2374601 44.4921 -1023.6
-4.7277799 44.4575 -1023.37
-5.6410499 44.506001 -1023.09
-6.7282701 44.2528 -1022.31
-7.1622901 44.3162 -1022.26
-9.0022602 44.114201 -1021.25
44.005199 31.121799 -1010.19
43.423302 32.496101 -1012.59
42.2272 32.722198 -1012.89
41.4813 33.387501 -1014.03
40.750599 34.069901 -1015.21
40.097401 34.857498 -1016.45
39.149502 35.0382 -1016.62
37.849201 36.2757 -1018.64
36.978401 36.555302 -1018.99
36.316101 36.906399 -1019.52
35.6353 37.2644 -1020.04
34.840099 37.386299 -1020.13
34.3102 37.928799 -1020.94
33.610298 38.097801 -1021.16
33.0228 38.518902 -1021.78
32.3629 38.808498 -1022.18
24.8922 41.407299 -1025.1801
24.2502 41.5359 -1025.27
23.745001 41.8241 -1025.67
23.1542 41.950401 -1025.76
22.5786 42.077999 -1025.83
22.081499 42.308201 -1026.14
21.4419 42.348099 -1026.08
20.3326 42.662102 -1026.33
19.8426 42.931 -1026.67
19.127399 42.854099 -1026.42
18.6082 43.097401 -1026.66
18.058701 43.248199 -1026.76
16.976801 43.4589 -1026.88
15.4079 43.688202 -1026.84
12.2736 44.233898 -1027.16
9.8573599 45.202999 -1027.8199
7.82095 44.6931 -1026.61
6.7080402 44.7089 -1026.27
5.7437401 44.789799 -1026.16
4.8348098 45.007301 -1026.21
4.3305702 45.056099 -1026.13
2.2054701 45.0756 -1025.53
1.26126 45.130199 -1025.35
0.26010099 45.100201 -1024.9301
-0.700409 45.145199 -1024.73
-3.2355299 45.0112 -1023.71
-4.6308899 44.984299 -1023.15
-5.6177402 44.874802 -1022.61
-8.9867201 44.498299 -1020.8
44.330601 31.6019 -1009.89
43.4398 32.550499 -1011.47
42.638901 33.281399 -1012.78
40.2477 35.2477 -1015.97
39.322701 35.461601 -1016.22
38.474201 35.859798 -1016.8
37.8923 36.5476 -1017.97
36.968201 36.647301 -1018.03
36.312599 37.194199 -1018.84
35.0634 37.994801 -1020.04
34.457401 38.387199 -1020.64
33.801701 38.606602 -1020.94
33.172501 39.0373 -1021.51
31.725901 39.406502 -1021.97
26.2747 41.5606 -1024.61
25.638 41.748798 -1024.83
25.0105 41.891701 -1024.91
24.469101 42.174099 -1025.3101
23.782 42.210098 -1025.23
23.299299 42.479401 -1025.58
22.1532 42.719002 -1025.7
21.0005 42.978901 -1025.9399
19.8521 43.265499 -1026.13
19.341999 43.508499 -1026.4399
18.770599 43.668598 -1026.54
18.1322 43.662201 -1026.39
17.130301 43.996399 -1026.73
16.439501 43.883701 -1026.39
16.0261 44.123199 -1026.73
15.4651 44.145 -1026.5699
14.8493 44.327999 -1026.72
8.9711304 45.058601 -1026.42
7.9275799 45.219398 -1026.39
7.65167 45.578602 -1026.87
6.4558401 45.388199 -1026.3101
5.8317299 45.268398 -1025.89
3.89465 45.553902 -1025.74
3.37503 45.5686 -1025.59
2.31073 45.568001 -1025.29
1.28757 45.514999 -1024.9301
0.37002599 45.609798 -1024.76
-1.17322 45.561901 -1024.16
-2.23456 45.434601 -1023.67
-3.1338501 45.519501 -1023.47
-4.0060101 45.556599 -1023.25
-6.08319 45.245098 -1021.93
-7.9435101 45.1805 -1021.16
-9.3572702 44.952 -1020.29
45.543201 30.042101 -1005.95
43.7729 32.921299 -1011.07
42.936501 33.9002 -1012.75
41.811699 34.071098 -1012.96
41.1329 34.901901 -1014.35
40.428501 35.6866 -1015.62
39.610001 36.052399 -1016.16
38.733799 36.407799 -1016.72
38.002998 36.8685 -1017.46
36.541 37.704601 -1018.68
35.7733 37.8946 -1018.93
35.179001 38.375 -1019.66
33.958302 39.167099 -1020.8
33.233398 39.351898 -1021.04
32.6213 39.686199 -1021.5
32.011101 40.069901 -1022.08
29.372499 40.922798 -1023.08
26.360901 41.979099 -1024.3
25.1015 42.290001 -1024.6
23.8449 42.589699 -1024.83
22.219801 43.108398 -1025.36
21.7202 43.387901 -1025.6801
20.556 43.629902 -1025.85
20.011299 43.8312 -1026.05
19.405899 43.933998 -1026.0601
18.7484 43.947701 -1025.96
18.265699 44.174301 -1026.26
17.602501 44.114201 -1026.01
17.2579 44.5322 -1026.5601
16.6026 44.428398 -1026.29
16.084299 44.555698 -1026.3199
14.9254 44.799702 -1026.41
12.2188 44.852901 -1025.89
11.3886 45.558998 -1026.8
9.1233196 45.606701 -1026.3199
8.0578003 45.778801 -1026.24
6.5956402 45.933998 -1026.15
5.5485501 45.940601 -1025.88
5.1643701 46.1385 -1026.0699
3.9175401 45.9221 -1025.3199
2.90939 46.025501 -1025.1801
2.3696301 46.0154 -1025
1.90649 46.051998 -1024.9301
0.99911499 46.119801 -1024.8
-0.025146499 46.084801 -1024.38
-2.59958 45.963699 -1023.34
-3.04828 45.9673 -1023.23
-4.88873 45.974899 -1022.57
-9.22089 45.472599 -1020.14
45.004398 32.167599 -1008.77
43.784801 32.899799 -1009.94
43.180099 34.2029 -1012.19
42.062801 34.455101 -1012.63
41.306099 35.257599 -1013.92
40.404999 35.714802 -1014.66
39.697399 36.382301 -1015.75
38.895599 36.839401 -1016.42
38.16 37.293701 -1017.15
37.445099 37.7985 -1017.93
36.680599 38.114498 -1018.35
35.352798 38.8358 -1019.44
34.600101 38.992401 -1019.63
33.960602 39.338799 -1020.13
32.697601 40.0215 -1021.1
31.348101 40.546398 -1021.78
25.202499 42.701801 -1024.3199
24.616899 42.983898 -1024.65
23.424999 43.266102 -1024.9
22.8806 43.4744 -1025.1
22.3281 43.5742 -1025.17
20.688801 44.115101 -1025.73
20.0797 44.2253 -1025.78
19.4555 44.2813 -1025.71
18.809401 44.345501 -1025.65
18.254101 44.482601 -1025.77
17.7679 44.6479 -1025.95
17.2974 44.8666 -1026.17
16.617599 44.7449 -1025.83
15.6174 44.994801 -1026.03
15.0842 45.288799 -1026.34
14.613 45.309299 -1026.23
13.7998 45.149799 -1025.8101
12.5322 45.538601 -1026.16
10.1062 45.681301 -1025.74
9.6774902 45.918999 -1026.04
8.5899 46.006401 -1025.88
6.7385898 46.461899 -1026.04
5.5994301 46.330799 -1025.52
5.0732098 46.374401 -1025.45
4.0623202 46.434502 -1025.25
2.9564199 46.4217 -1024.9
0.96255499 46.408699 -1024.26
-0.0144348 46.4347 -1023.95
-0.95974702 46.5051 -1023.79
-2.5446801 46.354401 -1023.03
-3.4499199 46.388802 -1022.77
-4.3897099 46.327999 -1022.32
-6.3378301 46.263199 -1021.33
-7.83109 46.008301 -1020.53
-9.7347698 45.6679 -1019.26
44.327999 33.687302 -1010.3
43.2724 34.505001 -1011.72
41.4496 35.504501 -1013.34
40.483299 35.917 -1013.99
39.6726 36.333401 -1014.71
38.973202 37.0868 -1015.86
38.302299 37.6422 -1016.69
37.512901 38.036499 -1017.34
36.8265 38.539398 -1018.14
36.191399 38.926102 -1018.69
34.675598 39.3148 -1019.18
34.040901 39.690899 -1019.71
33.3936 40.031399 -1020.24
32.747898 40.3508 -1020.68
32.137699 40.765202 -1021.23
31.5033 41.043201 -1021.63
30.8351 41.268299 -1021.91
25.950899 43.004299 -1023.95
24.645901 43.293499 -1024.15
23.981001 43.332901 -1024.16
23.5541 43.723598 -1024.73
22.9431 43.8442 -1024.79
21.8932 44.209202 -1025.17
21.199499 44.176701 -1024.96
20.718 44.470901 -1025.34
20.1178 44.5564 -1025.34
19.5749 44.746101 -1025.5699
18.953699 44.835098 -1025.53
18.475599 45.0923 -1025.88
17.830999 45.032101 -1025.64
17.3314 45.219299 -1025.8101
16.233601 45.3507 -1025.79
15.6948 45.431801 -1025.76
15.0738 45.544998 -1025.8101
14.6521 45.663399 -1025.88
12.5904 46.006401 -1025.8199
10.8325 46.245602 -1025.87
8.1450796 46.5149 -1025.58
7.7846398 46.723202 -1025.84
6.68994 46.730598 -1025.52
5.6428499 46.716801 -1025.2
4.6061101 46.761398 -1025.01
3.0396099 46.826199 -1024.6
2.0307901 46.8755 -1024.34
0.60601801 46.8964 -1023.95
-0.354004 46.9086 -1023.63
-1.35623 46.926601 -1023.34
-1.85367 46.917801 -1023.13
-3.3685 46.755199 -1022.43
-9.6325397 46.049198 -1018.98
-10.6051 45.8871 -1018.27
44.412399 33.656601 -1009.25
43.187599 34.142502 -1010.01
42.541401 35.263401 -1011.93
41.447201 35.560001 -1012.41
40.587002 36.139702 -1013.36
38.439098 37.991699 -1016.32
37.6171 38.3521 -1016.91
36.8568 38.7458 -1017.48
36.275299 39.2976 -1018.3
35.399502 39.336102 -1018.32
34.880901 39.889301 -1019.12
34.1493 40.058201 -1019.38
33.561401 40.483501 -1020.05
32.928902 40.8335 -1020.51
32.173199 41.020599 -1020.71
31.5515 41.355598 -1021.17
26.0179 43.3806 -1023.67
25.354401 43.4897 -1023.69
24.704399 43.6507 -1023.8
23.0359 44.243 -1024.54
22.3783 44.181099 -1024.26
21.8937 44.489601 -1024.64
20.202499 44.9706 -1025.08
19.625099 45.107899 -1025.2
19.011 45.181198 -1025.17
17.4625 45.670502 -1025.66
16.903999 45.771198 -1025.6801
15.741 45.819698 -1025.48
15.1346 45.902599 -1025.49
9.8166504 46.7826 -1025.4301
9.0625 47.3032 -1026.04
8.1245699 46.792198 -1025.01
7.1521001 46.948101 -1025.03
6.7662702 47.115799 -1025.1899
6.2520399 47.110401 -1025.04
5.0841098 46.926498 -1024.3101
3.1206999 47.129601 -1024.13
2.1579001 47.196701 -1023.85
1.1714799 47.140999 -1023.4
0.30590799 47.283901 -1023.38
-0.680969 47.2439 -1022.94
-1.93286 46.851299 -1021.78
-6.4755201 46.031799 -1019.04
-7.0922198 46.458698 -1019.51
-12.804 45.7402 -1015.98
-15.1234 45.1091 -1014.16
44.6231 33.674702 -1008.11
43.604301 34.736698 -1009.92
42.4758 35.111401 -1010.52
41.8498 36.259998 -1012.55
40.9081 36.7248 -1013.29
40.100101 37.3162 -1014.26
39.362202 37.978802 -1015.33
38.5257 38.310001 -1015.85
37.834202 38.8927 -1016.8
37.033699 39.182098 -1017.19
35.6712 39.952702 -1018.37
35.036098 40.330002 -1018.91
34.387199 40.664799 -1019.4
32.239799 41.362301 -1020.28
30.330601 42.2341 -1021.44
26.1241 43.850498 -1023.43
25.4758 43.949299 -1023.5
24.825001 44.076099 -1023.58
24.308599 44.404701 -1024.01
23.6462 44.412102 -1023.89
22.5755 44.804401 -1024.3101
20.8016 45.124699 -1024.5
20.3421 45.502998 -1024.98
19.725599 45.549599 -1024.98
19.122 45.637901 -1024.97
18.566999 45.7831 -1025.09
18.0166 45.9016 -1025.1801
17.483 46.028801 -1025.25
16.945999 46.1134 -1025.24
16.444599 46.2957 -1025.41
15.1758 46.248501 -1025.0601
13.5821 46.6828 -1025.17
13.0983 46.814499 -1025.3101
12.0382 47.071899 -1025.3101
9.8922701 47.020699 -1024.84
9.03088 47.3867 -1025.17
8.4256601 47.3125 -1024.92
7.93436 47.393002 -1024.77
6.2950101 47.1525 -1023.88
-1.66458 45.996201 -1019.21
-5.1829801 45.486198 -1017.25
-7.04285 45.395802 -1016.38
-10.2534 45.748501 -1015.7
-12.0329 45.112301 -1013.95
-18.1029 44.4133 -1010.45
44.907799 33.819801 -1007.27
43.575401 34.628399 -1008.63
41.696201 36.043999 -1011.1
41.0527 37.048401 -1012.78
40.289299 37.706699 -1013.81
39.3811 38.166302 -1014.58
38.668701 38.6716 -1015.38
37.7491 38.935299 -1015.78
37.091999 39.4748 -1016.66
36.530899 40.0597 -1017.59
35.664299 40.1273 -1017.56
35.015598 40.4702 -1018.1
34.359299 40.868 -1018.62
33.791801 41.317001 -1019.4
33.0345 41.459099 -1019.51
32.2953 41.684601 -1019.8
31.794901 42.1973 -1020.58
30.327499 42.501999 -1020.87
24.921101 44.491901 -1023.3
23.8109 44.953999 -1023.8
23.273899 45.173901 -1024.08
22.725 45.297798 -1024.2
22.040701 45.2761 -1023.99
21.511 45.498798 -1024.28
20.9501 45.651199 -1024.39
20.2444 45.637501 -1024.2
19.834999 45.9911 -1024.74
19.2099 46.088402 -1024.74
18.010599 46.126701 -1024.5601
17.592199 46.4874 -1024.98
17.007 46.507198 -1024.88
16.5037 46.654301 -1024.9399
15.3528 46.734402 -1024.78
14.8617 46.921001 -1024.89
13.7514 47.0452 -1024.78
11.6812 47.610401 -1024.92
5.73245 45.521198 -1019.73
5.1947899 46.6012 -1021.24
1.4635299 46.389801 -1019.66
-1.90863 46.070202 -1017.74
-7.3546801 44.792801 -1013.79
-8.4302101 43.921902 -1012.03
-15.9941 43.919498 -1009.05
-17.499599 43.6464 -1008.12
45.019798 33.641899 -1005.76
43.7556 34.7113 -1007.66
42.115101 36.6493 -1011.05
41.1026 37.203899 -1011.91
40.312 37.826801 -1013.05
38.7304 38.896 -1014.74
38.045898 39.566399 -1015.78
36.602402 40.3022 -1016.93
34.5994 41.4547 -1018.64
33.219799 41.997398 -1019.38
32.4492 42.1703 -1019.56
31.813801 42.442001 -1019.95
29.9636 43.369598 -1021.22
25.611 44.723099 -1022.74
24.9979 44.909 -1022.96
24.515699 45.264599 -1023.48
23.277901 45.474701 -1023.53
22.2903 45.977402 -1024.17
21.648899 45.999401 -1024.09
21.062799 46.162498 -1024.11
20.4039 46.154499 -1024.02
19.8622 46.336102 -1024.17
19.3564 46.547001 -1024.4399
18.7876 46.638401 -1024.4399
17.0693 46.666801 -1023.85
12.3408 47.016499 -1022.88
10.0078 45.533001 -1019.56
9.3434401 46.0415 -1020.36
4.1351299 45.634998 -1017.75
2.586 45.746201 -1017.29
1.31827 44.609402 -1014.99
1.49634 45.473801 -1016.41
0.559784 44.954601 -1015.39
-0.193756 44.524399 -1014.35
-1.19513 45.568699 -1015.69
-2.3795199 44.561699 -1013.72
-3.39502 44.3349 -1012.85
-4.33255 44.885502 -1013.26
-11.0882 43.068901 -1007.93
-10.8679 43.994598 -1009.52
-14.4448 43.343498 -1007.15
-15.6929 42.869202 -1005.84
-20.698601 42.8316 -1003.94
-21.573799 42.877201 -1003.75
43.2813 36.2645 -1009.17
41.365601 37.681301 -1011.69
38.8125 39.170601 -1014.01
38.164902 39.904999 -1015.25
37.385799 40.2873 -1015.8
36.508499 40.406898 -1015.9
35.314602 41.392399 -1017.47
34.7215 41.847198 -1018.16
34.128899 42.3158 -1018.93
33.376499 42.488201 -1019.1
32.632 42.687401 -1019.35
31.9867 42.9977 -1019.8
31.415001 43.4319 -1020.4
25.6929 45.157799 -1022.33
24.5135 45.577301 -1022.77
24.014601 45.844101 -1023.13
23.373699 45.900902 -1023.05
22.858801 46.0359 -1023.18
22.316999 46.183899 -1023.26
15.8926 45.290298 -1019.73
11.1499 45.5881 -1018.45
8.09583 45.015499 -1016.5
5.2129798 44.171398 -1014.02
-1.7374901 44.388302 -1011.83
-3.5897501 43.6782 -1009.97
-5.8225698 43.171398 -1008.31
-7.4237099 43.34 -1008.08
-8.1808796 42.9617 -1007.17
-9.4194899 43.138302 -1006.87
-10.6074 42.8032 -1005.98
-12.0081 42.634602 -1005.21
-13.062 42.453201 -1004.53
-14.1517 42.2015 -1003.63
-14.9072 43.070999 -1004.73
-18.354601 42.641602 -1002.8
-19.8302 42.443802 -1001.83
-23.431101 41.2299 -998.54498
42.714802 37.566601 -1010.28
41.5597 37.971298 -1011.05
40.685299 38.617901 -1012.03
39.935101 39.300499 -1013.23
39.159901 39.9207 -1014.14
38.2966 40.291302 -1014.74
37.5728 40.760101 -1015.5
36.756901 40.994202 -1015.81
36.0812 41.385799 -1016.44
35.457901 41.8074 -1017.05
34.767601 42.154999 -1017.58
33.946201 42.240101 -1017.62
33.4846 42.908001 -1018.69
32.845901 43.253399 -1019.19
32.147701 43.495201 -1019.49
31.3776 43.632401 -1019.62
30.7201 43.876301 -1019.96
30.187901 44.294498 -1020.53
29.5546 44.498402 -1020.82
28.915501 44.608398 -1020.9
27.690001 45.0672 -1021.43
26.519699 45.513802 -1021.9
25.965401 45.725101 -1022.16
25.2649 45.779202 -1021.98
24.1005 45.920502 -1021.82
23.430799 46.371601 -1022.47
14.4788 44.902901 -1016.86
-0.277374 43.4828 -1009.11
-0.972565 43.1861 -1008.43
-4.7137799 43.121899 -1006.98
-7.4018602 42.992199 -1005.63
-12.5921 42.7029 -1003.23
-17.7278 41.274399 -999.00201
-20.409901 40.745201 -997.073
-21.0902 40.378601 -996.14398
-21.8169 41.176399 -997.18298
43.723999 36.783199 -1007.75
42.804699 37.7295 -1009.41
41.662601 38.2216 -1010.27
40.8769 39.044102 -1011.69
39.981499 39.508099 -1012.39
39.0886 39.997101 -1013.13
38.346298 40.483898 -1013.95
37.695801 41.1605 -1015.07
37.009998 41.538502 -1015.66
36.317699 41.9603 -1016.33
35.632198 42.311699 -1016.78
34.907101 42.611401 -1017.21
34.240398 42.9678 -1017.75
33.618 43.359001 -1018.32
32.842499 43.498901 -1018.49
32.216801 43.8601 -1019.02
29.6283 44.864201 -1020.13
29.0502 45.039799 -1020.44
26.5742 45.175201 -1019.81
24.829399 44.654301 -1018.53
24.02 44.782501 -1018.51
10.5912 43.392601 -1011.26
9.3043203 43.289001 -1010.76
7.5458398 43.317699 -1010
4.8192401 43.3419 -1009.08
2.65311 42.088902 -1006.15
0.662292 42.5275 -1006.16
-2.12375 42.503399 -1005.13
-9.5143995 41.683399 -1000.95
-10.2557 41.1796 -999.789
-12.3365 41.601101 -999.90302
-16.0403 39.986801 -995.65802
-18.559299 41.077099 -996.54797
-19.555799 40.438 -995.28302
-21.781099 39.804699 -993.30701
-23.763599 39.702999 -992.43799
40.209499 40.006802 -1012.14
39.468102 40.615101 -1013.16
37.763699 41.413601 -1014.39
35.6474 42.527302 -1016.11
34.314098 43.277599 -1017.25
33.616199 43.5303 -1017.59
33.023399 44.043098 -1018.36
32.2696 44.1469 -1018.38
31.6796 44.526199 -1018.94
30.412701 44.836201 -1019.14
28.851101 44.990299 -1018.93
27.620501 45.2188 -1018.98
23.5252 44.1026 -1015.48
22.332001 44.5019 -1015.81
12.1831 43.259102 -1009.89
11.7868 43.515499 -1010.21
9.6385803 42.0825 -1007.1
8.9004803 42.738701 -1007.8
6.711 42.6679 -1007.09
4.5404701 42.465099 -1005.72
3.42044 41.517799 -1003.84
2.1777999 41.848301 -1003.99
-0.0026855499 41.941101 -1003.27
-0.85833699 41.432999 -1002.24
-7.68082 40.742599 -998.521
-11.6217 40.393299 -996.448
-12.3705 40.667801 -996.59998
-16.794201 39.448502 -992.87799
-21.1059 38.6362 -989.97498
-21.8554 38.912998 -990.15399
-23.944901 38.6273 -988.80798
-24.2169 38.900002 -989.09802
44.349499 37.321301 -1006.46
43.0928 37.944599 -1007.52
42.116001 38.977299 -1009.35
41.257801 39.678001 -1010.59
40.3354 40.265999 -1011.57
39.504902 40.794601 -1012.36
38.618801 41.197498 -1013.08
37.8018 41.623798 -1013.73
37.2542 42.307999 -1014.87
36.4333 42.499599 -1015.14
35.7593 42.883202 -1015.67
35.158501 43.3922 -1016.52
34.461601 43.655998 -1016.85
33.818298 43.979698 -1017.28
33.1646 44.2729 -1017.65
29.6826 43.826698 -1015.79
29.425501 44.873798 -1017.58
28.163601 44.296902 -1016.11
26.1061 43.185501 -1013.48
24.9468 43.9907 -1014.37
12.833 42.470901 -1008
7.9826398 42.165199 -1005.11
0.710419 40.833302 -1000.26
-1.5238301 40.210701 -998.38898
-2.02652 40.275799 -998.31299
-3.5416 40.073299 -997.35999
-5.8768902 39.916698 -996.31201
-7.0273099 39.667198 -995.37
-8.0187998 40.1385 -995.74402
-9.9288301 39.935699 -994.71503
-10.7471 39.621601 -994.01703
-19.2432 39.244801 -990.21698
-21.2241 38.3904 -987.92603
44.3894 36.861099 -1004.35
42.270302 39.060799 -1008.43
41.422199 39.9403 -1010.02
38.7019 41.4487 -1012.45
38.129902 42.2934 -1013.88
37.239601 42.506001 -1014.17
36.677601 43.081501 -1015.06
35.246498 43.513699 -1015.61
34.732498 43.993099 -1016.22
33.562698 43.8843 -1015.59
32.587101 44.004799 -1015.64
32.5481 44.728901 -1016.89
29.201 43.531101 -1013.81
28.4837 43.080399 -1012.69
27.0441 43.574902 -1013.01
21.722 42.205002 -1008.76
16.366899 41.738998 -1006.38
13.9507 42.772301 -1007.11
6.9625502 41.1035 -1001.46
1.39398 40.312302 -998.03198
-11.8026 38.556099 -990.17297
-15.6665 37.707199 -987.36603
-17.6761 38.1273 -987.23102
-20.839399 38.291599 -986.46301
39.845699 41.4939 -1011.62
38.964001 41.9748 -1012.36
38.123402 42.3554 -1012.92
37.311199 42.615101 -1013.15
36.965401 43.4259 -1014.61
35.9305 42.938301 -1013.41
35.296398 43.6045 -1014.42
22.6366 41.868599 -1006.96
20.450001 42.539101 -1007.23
16.7591 42.358101 -1005.92
15.542 42.835098 -1006.56
14.9942 42.922798 -1006.67
13.9485 43.2136 -1006.81
-3.79462 38.0051 -990.745
-3.1605799 39.634602 -993.659
-5.4548602 39.0005 -991.79102
-9.2631798 38.7164 -989.849
-11.5061 37.503502 -986.89099
-13.7226 37.7425 -986.54797
-19.8848 36.228699 -981.70203
-20.311399 36.819801 -982.367
40.782299 41.104801 -1009.83
39.744598 41.373402 -1010.27
39.1693 42.246201 -1011.72
38.506699 42.703999 -1012.32
37.875702 42.905602 -1012.54
37.3699 43.6632 -1013.64
35.186401 42.246498 -1010.58
34.033199 42.0252 -1009.89
33.7528 43.024101 -1011.48
29.962601 41.847698 -1008.07
28.437599 40.9659 -1006.05
25.6998 41.352402 -1005.57
23.5492 40.813 -1003.81
22.4592 40.611401 -1003.19
21.7686 40.924702 -1003.47
19.0874 40.231899 -1001.29
15.5461 43.1604 -1006.13
15.0869 43.481602 -1006.61
13.9835 43.601601 -1006.61
-5.4600501 37.4286 -987.54797
-8.44238 37.835602 -987.13501
-10.3863 37.014702 -984.987
-12.108 37.202202 -984.625
-14.0323 37.160301 -983.84003
-16.08 36.321999 -981.664
-16.0471 36.898998 -982.55103
-21.6141 36.340599 -979.46399
44.077499 38.556499 -1004.14
43.0667 40.1208 -1007.11
41.8727 40.590801 -1007.86
40.904301 41.226002 -1008.95
40.051102 41.532101 -1009.28
39.8381 42.7295 -1011.43
39.037998 42.268398 -1010.25
36.909302 41.2682 -1008.14
36.995998 42.839699 -1010.79
33.931702 41.434601 -1007.21
32.023499 41.2402 -1006.18
31.329599 41.509602 -1006.38
27.2202 40.721199 -1003.6
24.9622 39.844799 -1001.04
24.344801 40.338699 -1001.7
24.4608 41.234402 -1003.24
22.5165 40.243301 -1000.85
22.321699 40.692799 -1001.6
16.2733 43.4548 -1005.82
15.647 43.6632 -1006.14
15.0609 43.831001 -1006.35
42.160198 40.696701 -1006.93
41.4753 41.4813 -1008.13
38.131302 41.855099 -1007.81
32.704201 40.4655 -1003.42
30.6689 40.7481 -1003.21
28.985399 40.2952 -1001.81
28.204901 39.736198 -1000.59
27.3085 39.796799 -1000.44
26.7948 39.719601 -1000.07
22.152201 39.441502 -997.82501
20.3097 38.602798 -995.59698
19.722799 38.433998 -995.06
16.253799 43.887299 -1005.6
15.576 43.974201 -1005.75
15.1068 44.330299 -1006.25
14.093 44.552898 -1006.29
41.833599 40.526699 -1005.14
39.2146 40.175598 -1003.62
38.552898 41.3335 -1005.29
33.776001 40.182301 -1001.62
32.770401 39.305801 -999.81299
30.587 39.518299 -999.354
29.064699 39.815201 -999.15997
27.2901 38.487202 -996.33899
21.235001 38.4319 -993.96899
16.280001 44.426201 -1005.47
15.7222 44.7369 -1005.87
15.1166 44.813599 -1005.84
-4.6061101 35.3442 -979.25897
43.822899 39.146801 -1001.64
42.602699 39.845699 -1002.51
41.668701 39.373001 -1001.6
39.684399 39.776501 -1001.41
39.553902 40.1553 -1001.96
38.617001 40.080898 -1001.47
37.9202 39.836498 -1000.89
37.063801 39.1577 -999.44598
33.471802 39.191299 -998.12201
32.268002 37.998402 -995.66101
30.165501 38.186699 -995.09302
22.182899 37.915699 -991.64301
16.467199 45.1222 -1005.44
15.7731 45.1497 -1005.46
14.2139 45.6922 -1005.86
-5.79111 34.490601 -975.45898
-7.4470201 34.1978 -974.41101
39.1562 38.955299 -998.01099
31.4214 37.5956 -992.81299
30.3384 37.816898 -992.67499
27.958 37.152901 -990.745
26.193399 36.554298 -989.09497
25.316799 36.526798 -988.75702
25.294399 37.300499 -990.06799
23.338301 36.333302 -987.54199
22.478399 36.666599 -987.90399
16.5625 45.713699 -1005.3
15.904 45.820202 -1005.35
15.2804 45.895302 -1005.4
-7.51297 33.855499 -972.03003
-8.4378099 33.905201 -971.73901
44.6395 39.1731 -998.77899
41.955799 37.8601 -995.48499
36.8311 37.000301 -992.06702
34.987598 36.930599 -991.30798
34.289902 37.3447 -991.77899
32.564999 36.905201 -990.409
31.342699 37.693901 -991.31
29.853901 37.617802 -990.54199
26.9576 35.9366 -986.62799
25.852501 36.823299 -987.50897
24.448299 36.8764 -987.01599
15.3749 46.475601 -1005.25
16.640301 35.729599 -982.414
14.3904 35.157299 -980.68903
44.805 38.445202 -995.99597
41.414398 37.271599 -992.638
39.081001 37.391602 -992.07898
38.1068 36.378502 -989.87598
36.175701 37.037701 -990.37299
34.722401 36.9352 -989.612
33.676399 36.7197 -988.80298
31.816799 35.905998 -986.71899
28.163099 36.9557 -987.37903
25.7055 35.667801 -983.84198
14.6646 33.906601 -976.99701
44.476002 37.253799 -992.05103
40.5425 36.331902 -989.21698
35.726799 36.6255 -987.73602
31.345699 36.337502 -985.67102
16.4897 32.734299 -973.914
-6.0150099 31.160999 -962.849
41.576 35.375198 -986.30499
41.267899 36.2327 -987.53998
30.6122 34.106602 -979.87799
29.915001 34.504501 -980.37299
28.5539 34.490501 -979.771
18.914101 48.486698 -1007.28
17.558001 48.809399 -1007.59
14.5352 31.851801 -970.08502
14.334 32.284199 -970.72302
12.6999 32.523102 -970.56
43.437 35.583698 -985.61902
42.8997 35.2677 -984.73602
41.321098 35.236401 -984.22302
37.063999 33.560501 -979.78101
37.065399 34.4408 -981.362
34.1106 34.1287 -979.64301
33.743599 34.242901 -979.677
19.4095 48.569599 -1006.4
18.997999 48.960701 -1007
18.4069 49.2617 -1007.43
17.1192 49.6157 -1007.81
16.5602 49.833099 -1008.15
15.4804 50.074902 -1008.3
18.5417 32.488899 -970.97601
16.5089 31.6824 -968.95599
14.0001 31.517599 -967.74402
43.0527 34.170799 -981.10101
41.321701 33.879501 -980.04401
40.2085 33.665798 -979.427
37.7281 34.145 -979.26599
36.3456 33.765099 -978.323
32.797401 33.058498 -975.599
30.202499 32.6255 -973.755
29.968901 32.9501 -974.117
19.6873 49.293201 -1006.65
19.116301 49.506199 -1006.89
17.707701 49.747799 -1007.09
17.179501 50.0266 -1007.47
15.9879 50.396702 -1007.86
15.0603 50.666698 -1008.12
16.247299 30.1521 -964.35199
14.223 30.692101 -964.513
12.4239 31.621099 -965.448
40.202499 32.250099 -975.078
33.627499 32.4832 -973.12903
33.047699 32.418201 -972.80701
17.2446 51.2924 -1008.81
18.4583 30.1483 -963.39801
16.9596 30.116899 -962.67603
