# .PCD v0.7 - Point Cloud Data file format
VERSION 0.7
FIELDS x y z
SIZE 4 4 4
TYPE F F F
COUNT 1 1 1
WIDTH 1600
HEIGHT 1
VIEWPOINT 0 0 0 1 0 0 0
POINTS 1600
DATA ascii
-25.5704 -20.568199 -977.11401
-25.226101 -20.6763 -976.73999
-25.0247 -20.7757 -976.14301
-24.336399 -20.994499 -975.35199
-23.892401 -21.1455 -975.099
-21.8936 -21.7658 -973.41699
-21.516199 -21.8605 -973.05902
-20.738199 -22.138901 -972.28601
-20.4062 -22.2351 -971.81403
-19.923 -22.378901 -971.57001
-19.638201 -22.492201 -971.013
-18.515301 -22.8647 -969.86102
-18.1628 -22.973499 -969.47198
-15.9025 -23.622801 -968.54999
-15.4684 -23.754801 -968.10101
-13.3699 -24.3937 -967.06598
-12.837 -24.5 -966.789
-10.688 -25.128401 -965.586
-9.4101 -25.499901 -965.24902
-8.8185396 -25.6803 -964.99298
-6.9609399 -26.203501 -964.28998
-6.3803101 -26.367399 -963.92603
-5.5982699 -26.549999 -963.90302
-3.6271999 -27.099501 -963.112
-2.7741699 -27.337099 -963.15698
-1.9986 -27.5473 -963.047
-1.26587 -27.7712 -962.90302
-0.61279303 -27.9415 -962.604
-0.129089 -28.123199 -962.146
-35.295502 -14.9256 -1017.51
-35.319302 -14.9757 -1016.86
-35.187 -15.1116 -1014.98
-35.500999 -15.1952 -1012.73
-35.628799 -15.2468 -1011.39
-35.709999 -15.2738 -1010.71
-35.693199 -15.3584 -1009.6
-35.836899 -15.3597 -1008.77
-35.998699 -15.3756 -1007.89
-35.980999 -15.4831 -1006.06
-35.949001 -15.5988 -1004.86
-36.038898 -15.6359 -1004.08
-35.812698 -15.7788 -1002.47
-35.612999 -15.9377 -1000.74
-35.5616 -16.021999 -999.41498
-35.571999 -16.070601 -998.08398
-35.742901 -16.091 -997.354
-35.867001 -16.1208 -996.66602
-35.8862 -16.1751 -996.02399
-35.152199 -16.5644 -992.65002
-33.994598 -17.0313 -990.15002
-33.0205 -17.292101 -989.97601
-32.6469 -17.483801 -988.15302
-31.4547 -17.8944 -986.80798
-30.9891 -18.143299 -985.07599
-30.365999 -18.417999 -983.55902
-29.7626 -18.621099 -982.81403
-28.932899 -18.876499 -981.526
-28.580601 -18.998199 -981.17999
-28.3002 -19.0914 -980.76801
-28.117901 -19.206301 -980.19202
-24.4799 -20.444 -975.901
-23.4396 -20.7293 -974.729
-23.152599 -20.843 -974.23102
-22.477699 -21.078501 -973.35797
-20.3911 -21.7397 -971.70697
-19.531 -21.989201 -971.065
-18.3878 -22.3493 -969.901
-17.6805 -22.600599 -969.052
-16.382099 -22.946301 -968.76898
-14.8497 -23.393101 -967.914
-13.9021 -23.6833 -967.25702
-12.6921 -24.007099 -966.88098
-12.2629 -24.182301 -966.44202
-11.6927 -24.305799 -966.17401
-11.1251 -24.490101 -965.93799
-10.0682 -24.7794 -965.25403
-8.1449604 -25.347799 -964.74597
-7.4745498 -25.5324 -964.56201
-6.9401202 -25.681499 -964.18597
-3.5443101 -26.609301 -963.138
-0.56793201 -27.419399 -962.466
0.238892 -27.652 -962.36798
1.4053299 -27.993 -961.65601
-35.3195 -14.4326 -1017.26
-35.234699 -14.5051 -1016.15
-35.103401 -14.6054 -1014.88
-35.344799 -14.6552 -1013.34
-35.5453 -14.701 -1011.92
-35.612301 -14.764 -1010.69
-35.630199 -14.791 -1010.1
-35.871899 -14.8385 -1008.54
-35.888199 -14.8681 -1007.91
-35.919102 -15.1304 -1004.12
-36.036301 -15.1914 -1002.61
-35.780899 -15.263 -1002.36
-35.589401 -15.5094 -999.21503
-35.644699 -15.5736 -997.94202
-35.863499 -15.6272 -996.58099
-35.858898 -15.6851 -995.94897
-35.908699 -15.6996 -995.17999
-35.608101 -15.812 -994.94702
-34.440498 -16.2925 -991.90997
-33.047501 -16.7943 -989.76898
-32.073898 -17.2108 -987.323
-31.575399 -17.4296 -985.685
-30.8901 -17.6455 -985.09698
-30.9191 -17.7103 -984.23999
-30.3545 -17.9042 -983.42798
-28.903 -18.3978 -981.435
-28.588499 -18.5156 -981.04303
-28.319 -18.5949 -980.58099
-26.743299 -19.1406 -978.62799
-26.0697 -19.424801 -977.01703
-25.166 -19.662399 -976.534
-24.946199 -19.7698 -975.98999
-24.2397 -19.989799 -975.237
-23.712099 -20.1145 -975.09601
-22.374901 -20.577999 -973.40601
-21.885799 -20.7519 -973.16498
-21.5404 -20.864799 -972.73901
-21.195499 -20.9743 -972.28699
-19.886 -21.3811 -971.36902
-19.4722 -21.4897 -970.99597
-19.129801 -21.5989 -970.54797
-18.4007 -21.850401 -969.74402
-18.055901 -21.9786 -969.36603
-17.6236 -22.117001 -969.02502
-15.3436 -22.7297 -968.08197
-13.8937 -23.184 -967.099
-13.3626 -23.3491 -966.82098
-12.2065 -23.6759 -966.36902
-11.61 -23.834999 -966.19397
-11.1336 -23.9942 -965.78601
-10.5709 -24.1551 -965.48901
-10.0644 -24.289301 -965.14203
-8.7997398 -24.6313 -964.79199
-6.2667198 -25.3521 -963.85999
-5.6086402 -25.566401 -963.62701
-5.2056899 -25.6798 -963.06201
-2.82495 -26.318001 -962.80603
-0.43048099 -26.9526 -962.52301
1.53204 -27.5326 -961.65997
2.37433 -27.7181 -961.61902
-35.135399 -13.8845 -1017.96
-35.195202 -13.9005 -1017.26
-35.162498 -13.9589 -1016.71
-35.2127 -13.9879 -1015.98
-35.091702 -14.0497 -1015.43
-35.092098 -14.0866 -1014.68
-35.161701 -14.1667 -1013.46
-35.3083 -14.1902 -1012.7
-35.446602 -14.1982 -1011.92
-35.542599 -14.2081 -1011.19
-35.624001 -14.2306 -1010.5
-35.703602 -14.2769 -1009.8
-35.809399 -14.332 -1008.47
-35.834702 -14.4048 -1007.23
-36.016201 -14.4466 -1005.67
-35.9538 -14.5011 -1005.15
-35.921001 -14.6511 -1003.29
-35.9016 -14.6841 -1002.66
-35.8312 -14.7629 -1002.11
-35.680801 -14.8472 -1000.98
-35.665798 -15.0472 -997.82202
-35.7649 -15.0724 -997.14697
-35.433701 -15.3619 -994.31897
-35.008202 -15.5084 -993.39203
-35.204601 -15.5246 -992.28998
-33.820301 -16.0252 -990.242
-33.002201 -16.283199 -989.68597
-32.523998 -16.511 -988.08301
-32.0317 -16.678801 -987.22601
-31.6168 -16.895901 -985.45697
-30.8452 -17.123699 -985.01202
-30.3162 -17.382799 -983.33899
-28.884399 -17.8794 -981.29102
-28.598301 -17.9853 -980.87598
-28.2658 -18.077299 -980.52197
-27.9202 -18.196899 -980.19598
-27.5471 -18.3626 -979.00299
-26.1357 -18.826099 -977.62598
-25.217501 -19.1443 -976.33301
-23.447201 -19.718599 -974.42401
-23.1912 -19.837999 -973.90802
-21.518999 -20.339199 -972.63397
-20.399799 -20.7192 -971.388
-19.878099 -20.8545 -971.22699
-19.0655 -21.1077 -970.48602
-18.3748 -21.343901 -969.64099
-17.969999 -21.464399 -969.31
-17.549 -21.597401 -968.96698
-16.3069 -21.9235 -968.62
-15.2803 -22.2258 -968.03198
-14.768 -22.363001 -967.75299
-14.3267 -22.5418 -967.40601
-13.8381 -22.6744 -967.06
-13.2419 -22.8484 -966.85303
-12.7204 -22.9984 -966.58502
-11.6123 -23.3074 -966.03601
-11.1943 -23.422701 -965.56799
-9.4066801 -23.9305 -964.86902
-4.9102802 -25.202101 -963.31097
-4.33606 -25.379601 -962.95697
-2.6993999 -25.809601 -962.89502
-2.1889 -25.9643 -962.35602
0.24902301 -26.591101 -962.07501
1.5788 -26.974199 -961.54498
-34.825699 -13.2923 -1019.41
-35.025501 -13.3326 -1017.9
-35.019299 -13.5499 -1014.6
-35.393002 -13.6695 -1011.83
-35.4762 -13.7077 -1011.13
-35.714401 -13.6967 -1009.58
-35.762501 -13.7731 -1008.35
-35.776699 -13.8105 -1007.75
-35.8274 -13.8408 -1007.07
-35.8815 -13.9259 -1005.72
-35.921001 -13.9784 -1005.03
-35.8964 -14.0266 -1004.43
-35.908401 -14.0419 -1003.78
-35.834 -14.0975 -1003.26
-35.797501 -14.1571 -1002.66
-35.747002 -14.2037 -1002.07
-35.494801 -14.4294 -999.73798
-35.395302 -14.4806 -999.211
-35.6259 -14.5205 -997.797
-35.726601 -14.5496 -997.05603
-35.776901 -14.6247 -995.75598
-35.447899 -14.7657 -994.81097
-35.3988 -14.7822 -994.16302
-33.775902 -15.4807 -990.17603
-31.320101 -16.3743 -986.55902
-31.5278 -16.3745 -985.45099
-30.7568 -16.5958 -984.98499
-30.802999 -16.651199 -984.10303
-30.190201 -16.855301 -983.38
-29.5809 -17.0488 -982.63397
-29.3925 -17.143999 -982.07397
-28.881201 -17.3265 -981.14001
-27.9662 -17.6406 -979.96698
-26.969801 -17.9846 -978.81403
-26.7264 -18.0755 -978.34497
-26.5338 -18.166 -977.76599
-25.916 -18.3757 -976.927
-25.1693 -18.6129 -976.26099
-24.407301 -18.9154 -974.70001
-23.3971 -19.162201 -974.34998
-23.2108 -19.2749 -973.71301
-22.3885 -19.5347 -973.07202
-21.8204 -19.653099 -972.94897
-21.208099 -19.900299 -971.99298
-18.599199 -20.699499 -970.09302
-17.7857 -20.9559 -969.42603
-15.9068 -21.534901 -967.979
-12.3085 -22.5816 -965.97699
-11.1252 -22.907 -965.55103
-10.53 -23.064899 -965.29797
-9.4011803 -23.403299 -964.75403
-6.98914 -24.105301 -963.71198
-6.2170401 -24.2651 -963.711
-5.5378399 -24.4701 -963.49103
-4.8824501 -24.6399 -963.27301
-3.5490699 -25.0219 -962.79199
-1.2931499 -25.612499 -962.28998
-0.39379901 -25.879499 -962.26501
0.359741 -26.0683 -962.08801
2.2237501 -26.635401 -961.12598
-34.666698 -12.8121 -1019.41
-34.835899 -12.7727 -1018.54
-35.014198 -12.8725 -1016.55
-35.008999 -12.9361 -1015.89
-34.8741 -13.0086 -1014.63
-35.0359 -13.0538 -1013.81
-35.124901 -13.0832 -1013.15
-35.390202 -13.1126 -1011.64
-35.446999 -13.1869 -1010.41
-35.5686 -13.1806 -1009.64
-35.612099 -13.2294 -1009
-35.6828 -13.2923 -1007.71
-35.729801 -13.318 -1007.03
-35.804199 -13.3895 -1005.67
-35.7729 -13.4465 -1005.1
-35.805801 -13.5208 -1003.74
-35.847 -13.5541 -1003.04
-35.695702 -13.6729 -1001.99
-35.804699 -13.7078 -1001.12
-35.585499 -13.7843 -1000.79
-35.569599 -13.8114 -1000.11
-35.462601 -13.942 -998.93597
-35.634499 -13.9884 -997.638
-35.603901 -14.0279 -997.05902
-35.6315 -14.0934 -995.76801
-35.424702 -14.2708 -993.94098
-34.8946 -14.4745 -993.224
-34.3302 -14.7199 -991.63599
-32.916401 -15.2109 -989.49799
-32.396301 -15.4476 -987.92999
-32.128399 -15.5555 -987.53699
-30.788601 -16.072599 -984.79602
-30.200899 -16.331499 -983.19299
-29.6373 -16.505899 -982.354
-28.9261 -16.802999 -980.93597
-28.220699 -17.0403 -980.28101
-27.3829 -17.314301 -978.95502
-25.786699 -17.853001 -976.98602
-24.8325 -18.1887 -975.71002
-23.079901 -18.767799 -973.75403
-22.3671 -19.0137 -972.98401
-21.4487 -19.2796 -972.43799
-20.246201 -19.6266 -971.30902
-19.387501 -19.927299 -970.71899
-18.9074 -20.0488 -970.43799
-18.303499 -20.2607 -969.43701
-17.4643 -20.524599 -968.80298
-16.9174 -20.6759 -968.57501
-16.288099 -20.865299 -968.38898
-15.7852 -21.0014 -968.05298
-15.3061 -21.1744 -967.72699
-14.7562 -21.3132 -967.47101
-13.8151 -21.584999 -966.79498
-12.2435 -22.0403 -965.91602
-11.0084 -22.3745 -965.57397
-10.4516 -22.522301 -965.28003
-9.8920298 -22.7251 -965.03497
-8.6829205 -23.065201 -964.54797
-8.1812096 -23.2073 -964.16901
-7.6635699 -23.3547 -963.76801
-6.2329102 -23.7572 -963.56097
-5.5349698 -23.926201 -963.38599
-4.19312 -24.3125 -962.88202
-0.44952399 -25.2838 -962.08197
2.43329 -26.095699 -961.18402
3.2601299 -26.3351 -961.11102
4.2849102 -26.5653 -961.229
5.0388198 -26.800699 -960.82898
-34.169201 -12.2239 -1020.96
-34.344101 -12.2357 -1020.21
-34.483898 -12.254 -1019.4
-34.7071 -12.2482 -1018.48
-34.879799 -12.4361 -1015.09
-34.964699 -12.4926 -1013.73
-35.2024 -12.5479 -1012.31
-35.344601 -12.5833 -1011.52
-35.383202 -12.6247 -1010.9
-35.4235 -12.6433 -1009.69
-35.508099 -12.6805 -1008.99
-35.604198 -12.7121 -1008.24
-35.753399 -12.7255 -1007.41
-35.735001 -12.8111 -1006.23
-35.780899 -12.8817 -1004.91
-35.765099 -12.9783 -1003.64
-35.665001 -13.1377 -1001.85
-35.5042 -13.2342 -1000.73
-35.491001 -13.3253 -999.39398
-35.598701 -13.4326 -997.51501
-35.551498 -13.4715 -996.961
-35.5396 -13.575 -995.67798
-35.608002 -13.6047 -994.89301
-34.948002 -13.9454 -992.15698
-33.8312 -14.4029 -989.73901
-32.933201 -14.6676 -989.30798
-31.8818 -15.0785 -986.97601
-31.3489 -15.3017 -985.42102
-30.8507 -15.5008 -984.521
-30.7833 -15.5791 -983.81598
-29.569799 -16.0005 -982.29602
-29.271999 -16.0774 -981.927
-28.9863 -16.180901 -981.52301
-27.990499 -16.5473 -979.58502
-27.407301 -16.764601 -978.73199
-26.7293 -16.979601 -978.039
-25.907101 -17.309299 -976.63397
-25.3491 -17.435101 -976.57098
-23.286699 -18.1287 -974.20099
-21.736601 -18.6147 -972.78302
-21.384199 -18.7316 -972.38098
-20.965599 -18.864201 -972.03003
-19.763901 -19.2211 -970.94098
-19.2694 -19.3652 -970.724
-18.895399 -19.480499 -970.323
-17.4618 -19.985399 -968.66101
-15.3124 -20.570801 -967.51703
-14.8052 -20.7421 -967.27899
-14.2753 -20.8899 -967.013
-13.7227 -21.036699 -966.81702
-12.7592 -21.326401 -966.09497
-11.5801 -21.652599 -965.68701
-6.2221098 -23.1744 -963.38501
-4.8532701 -23.536501 -962.995
-1.26978 -24.5436 -962.06097
1.26569 -25.188601 -961.79602
2.6285999 -25.5683 -961.151
4.4856 -26.055401 -961.31201
5.3861699 -26.2913 -961.16602
-34.208801 -11.7257 -1020.17
-34.441898 -11.717 -1019.2
-34.9258 -11.7401 -1016.98
-34.965199 -11.7861 -1016.23
-34.863701 -11.8364 -1015.65
-34.766399 -11.9278 -1014.4
-35.167 -12.0143 -1011.62
-35.301899 -12.0445 -1010.85
-35.4687 -12.1062 -1009.44
-35.576698 -12.1679 -1008.12
-35.693001 -12.1935 -1007.34
-35.726299 -12.3163 -1005.45
-35.693699 -12.4342 -1003.59
-35.629002 -12.5728 -1001.7
-35.357601 -12.7779 -1000.12
-35.3992 -12.8015 -999.36298
-35.305901 -12.8739 -998.84698
-35.548302 -12.884 -997.41998
-35.520401 -12.9234 -996.81897
-35.562801 -12.9912 -996.07202
-35.315201 -13.0772 -995.77399
-35.1558 -13.1766 -994.63702
-35.2253 -13.1905 -993.81403
-34.191502 -13.7017 -990.71198
-33.855301 -13.8478 -989.54199
-32.191002 -14.3154 -988.67798
-32.428799 -14.3422 -987.56201
-31.3971 -14.7454 -985.16998
-30.659401 -15.0568 -983.85199
-30.136801 -15.2383 -982.98499
-29.432899 -15.4426 -982.34003
-28.747101 -15.7136 -980.89001
-27.4373 -16.227501 -978.53699
-26.593 -16.509001 -977.23199
-25.8696 -16.7407 -976.54602
-25.0411 -16.9998 -975.96997
-24.907 -17.064699 -975.30701
-24.0893 -17.319799 -974.677
-23.07 -17.6458 -973.47601
-22.366899 -17.893499 -972.65802
-20.599199 -18.4242 -971.48499
-20.210899 -18.565701 -971.07397
-18.1826 -19.180401 -969.27802
-17.423599 -19.425501 -968.53302
-17.013599 -19.535601 -968.15997
-13.1307 -20.653 -966.45697
-12.5788 -20.7882 -966.20801
-12.1453 -20.920099 -965.78802
-11.0413 -21.2644 -965.26202
-9.8178101 -21.604601 -964.83398
-9.3546104 -21.757099 -964.37598
-8.7734404 -21.9314 -964.15698
-7.5540199 -22.235701 -963.599
-6.8238502 -22.454 -963.58801
-6.21454 -22.6084 -963.25299
-4.25946 -23.1651 -962.52899
-2.73016 -23.5481 -962.32501
-0.400879 -24.167801 -961.88202
0.370056 -24.408701 -961.73999
3.06989 -25.058901 -961.54797
3.8459499 -25.296301 -961.31702
6.10712 -25.921 -960.65503
-33.793301 -11.1206 -1021.53
-33.998798 -11.1085 -1020.78
-34.567699 -11.1692 -1018.32
-34.814301 -11.1914 -1016.94
-34.777699 -11.2448 -1016.29
-34.8246 -11.3935 -1013.56
-34.955601 -11.4643 -1012.33
-35.188202 -11.4885 -1010.82
-35.247101 -11.5117 -1010.16
-35.373798 -11.5485 -1009.39
-35.465801 -11.5924 -1008.68
-35.507401 -11.6192 -1008.04
-35.5793 -11.6906 -1006.71
-35.627701 -11.713 -1006.01
-35.5966 -11.8074 -1004.83
-35.664299 -11.8946 -1003.45
-35.632401 -11.9377 -1002.85
-35.497002 -12.0503 -1001.75
-35.384201 -12.1489 -1000.57
-35.4216 -12.2097 -999.82501
-35.259499 -12.3246 -998.69702
-35.412899 -12.3591 -997.43402
-35.173698 -12.5336 -995.74902
-35.1166 -12.6713 -993.745
-35.063801 -12.7459 -993.10303
-34.188702 -13.1331 -990.52899
-32.415901 -13.7957 -987.409
-31.8104 -13.9972 -986.77502
-31.3116 -14.2239 -985.12
-30.608299 -14.4393 -984.53699
-30.1887 -14.6755 -982.71698
-29.4491 -14.8972 -982.15503
-29.337299 -14.9553 -981.51703
-28.768101 -15.1579 -980.66602
-28.099899 -15.3764 -979.97198
-27.944901 -15.4779 -979.34497
-27.417299 -15.5962 -979.24298
-26.831301 -15.8031 -978.40302
-24.971201 -16.443199 -975.90802
-24.237 -16.7351 -974.30603
-23.1954 -17.0357 -974.047
-23.0063 -17.1147 -973.41199
-22.217501 -17.382999 -972.70502
-21.3386 -17.631201 -972.12799
-19.299299 -18.246799 -970.34998
-18.837099 -18.384001 -970.06201
-18.3752 -18.5606 -969.771
-17.3892 -18.876301 -968.41199
-14.7356 -19.627199 -967.08801
-13.1177 -20.084499 -966.31403
-12.5396 -20.2735 -966.112
-12.1172 -20.394699 -965.66699
-11.4849 -20.5732 -965.51099
-10.3751 -20.885599 -964.94202
-8.6499004 -21.3944 -964.14899
-6.2332201 -22.0247 -963.09497
-5.4135699 -22.2782 -963.13702
-4.8031001 -22.434299 -962.83099
-3.44806 -22.808399 -962.36401
-2.7578101 -23 -962.18597
4.7388301 -24.9676 -961.03003
6.43085 -25.4133 -960.85699
7.2514 -25.6457 -960.74701
-33.669998 -10.5889 -1021.49
-33.886799 -10.5889 -1020.77
-34.09 -10.5878 -1020.01
-34.4021 -10.5622 -1018.94
-34.528599 -10.5914 -1018.21
-34.6651 -10.7092 -1016.24
-34.562099 -10.7744 -1015.65
-34.544701 -10.8122 -1014.93
-34.8284 -10.8952 -1012.86
-34.9687 -10.9097 -1012.09
-35.062401 -10.972 -1010.84
-35.165501 -10.9907 -1010.11
-35.307701 -11 -1009.3
-35.361301 -11.0404 -1008.66
-35.4855 -11.0778 -1007.89
-35.5602 -11.0948 -1007.17
-35.5536 -11.1533 -1006.58
-35.5355 -11.2014 -1005.99
-35.658298 -11.2328 -1005.17
-35.666901 -11.2706 -1004.52
-35.583801 -11.375 -1003.39
-35.583599 -11.4034 -1002.74
-35.386501 -11.5194 -1001.75
-35.274101 -11.6198 -1000.55
-35.150902 -11.7959 -998.68701
-35.394501 -11.8221 -997.20801
-35.360699 -11.925 -995.992
-35.043098 -12.0075 -995.75403
-34.956402 -12.1141 -994.41803
-33.692299 -12.7902 -989.409
-32.748001 -13.048 -989.09198
-32.3353 -13.2665 -987.37
-31.810301 -13.4389 -986.56598
-31.2444 -13.6702 -985.05603
-30.600201 -13.9228 -984.40601
-30.0928 -14.1551 -982.70801
-29.4254 -14.3538 -982.03101
-27.883499 -14.9395 -979.27002
-26.4492 -15.3822 -977.95801
-26.3638 -15.468 -977.23102
-25.7572 -15.6687 -976.375
-24.850599 -15.8927 -975.94501
-24.254601 -16.1989 -974.10101
-23.440599 -16.3885 -974.39203
-22.924601 -16.582701 -973.354
-21.6276 -16.9979 -972.48901
-19.256001 -17.727501 -970.24597
-18.138399 -18.064899 -969.00299
-16.927401 -18.4575 -967.98102
-16.337099 -18.608101 -967.84003
-15.6832 -18.812099 -967.62299
-15.1151 -18.9503 -967.42902
-14.1412 -19.260599 -966.75299
-13.6246 -19.3866 -966.48199
-11.9707 -19.877501 -965.75201
-10.9958 -20.155001 -964.99597
-8.6213398 -20.798201 -964.05902
-8.05896 -20.9496 -963.72699
-7.3718901 -21.173599 -963.60999
-6.8400898 -21.3405 -963.23199
-4.1542401 -22.0707 -962.42999
2.79895 -23.908899 -960.90601
5.8009601 -24.661699 -960.98602
8.2752705 -25.3573 -960.40802
-33.0504 -10.1618 -1023.09
-33.205299 -10.147 -1022.45
-33.569599 -10.1156 -1021.47
-34.440899 -10.0593 -1018.78
-34.591202 -10.0735 -1018.04
-34.692299 -10.1591 -1016.72
-34.389702 -10.3364 -1014.96
-34.4063 -10.3829 -1014.38
-34.590401 -10.4048 -1013.57
-34.6605 -10.428 -1012.97
-34.808201 -10.4215 -1012.19
-35.047401 -10.4785 -1010.68
-35.201302 -10.4803 -1009.86
-35.2626 -10.5137 -1009.2
-35.357498 -10.5936 -1007.92
-35.486301 -10.674 -1006.51
-35.549099 -10.6981 -1005.8
-35.4795 -10.75 -1005.3
-35.582001 -10.7555 -1004.49
-35.492699 -10.9078 -1002.71
-35.476101 -11.0015 -1001.42
-35.290901 -11.1045 -1000.35
-35.323502 -11.324 -997.07202
-35.354401 -11.3576 -996.461
-35.040501 -11.5146 -995.57898
-34.762299 -11.7003 -993.802
-34.175201 -11.884 -993.20697
-34.485802 -11.9012 -991.98401
-33.548199 -12.2595 -990.24597
-32.042198 -12.7566 -988.39502
-31.7318 -12.9606 -986.50897
-31.7374 -13.0236 -985.74902
-31.127399 -13.1772 -985.85199
-30.534401 -13.409 -984.33099
-30.038601 -13.6568 -982.64801
-28.698601 -14.1415 -980.461
-28.199301 -14.268 -980.34998
-27.150499 -14.6679 -978.51001
-26.7463 -14.8076 -978.24597
-26.5429 -14.88 -977.664
-25.708599 -15.1859 -976.30103
-24.701099 -15.4903 -975.11102
-23.0895 -15.9978 -973.87299
-22.2041 -16.318001 -972.40802
-21.200701 -16.624399 -972.02698
-20.8647 -16.710699 -971.586
-20.154499 -16.9662 -970.716
-19.2742 -17.2078 -970.05701
-18.8801 -17.3528 -969.72302
-17.8766 -17.618799 -969.28003
-17.128099 -17.858801 -968.492
-15.1458 -18.462099 -967.23297
-13.5037 -18.9247 -966.547
-11.4828 -19.523701 -965.23199
-10.2468 -19.8442 -964.84698
-9.74438 -19.9883 -964.48798
-9.1070604 -20.1639 -964.32599
-8.07129 -20.471901 -963.573
-7.3281298 -20.688 -963.52002
-6.6727901 -20.8703 -963.37299
-5.5297899 -21.157301 -962.77698
1.18604 -22.9624 -961.16602
-33.841599 -9.5492601 -1020.42
-34.113998 -9.5543098 -1019.6
-34.445801 -9.5902901 -1018.11
-34.6157 -9.6139603 -1017.22
-34.3284 -9.8890495 -1014.3
-34.464401 -9.8999596 -1013.59
-34.709702 -9.8924503 -1012.68
-34.794102 -9.9196396 -1012.03
-35.212299 -10.0055 -1009.09
-35.3596 -10.167 -1006.55
-35.487999 -10.1794 -1005.71
-35.486801 -10.225 -1005.09
-35.435101 -10.2837 -1004.56
-35.450199 -10.3538 -1003.23
-35.349701 -10.4927 -1001.44
-35.228298 -10.6702 -999.59003
-34.976501 -10.7976 -998.59003
-35.021801 -10.8853 -997.28497
-34.9268 -11.0169 -995.55298
-35.045502 -11.0346 -994.638
-34.780201 -11.2426 -992.87598
-34.174301 -11.3887 -993.06299
-33.773102 -11.5973 -991.28101
-33.791698 -11.6549 -990.508
-32.575901 -12.051 -989.02197
-32.622299 -12.0829 -988.16199
-29.987101 -13.1468 -982.54797
-29.459101 -13.3073 -982.49298
-29.115801 -13.4436 -981.37402
-28.694 -13.6211 -980.31598
-27.187799 -14.142 -978.28302
-26.3524 -14.4478 -976.961
-25.5933 -14.6777 -976.31598
-24.9083 -14.941 -975.54901
-24.110001 -15.2046 -974.01801
-23.0536 -15.485 -973.74701
-22.360901 -15.7017 -972.94202
-21.6012 -15.9688 -972.23798
-20.0947 -16.440901 -970.67603
-19.1849 -16.7143 -970.09497
-18.8016 -16.8566 -969.69202
-18.2754 -16.996901 -969.466
-17.104601 -17.4447 -967.45502
-16.4237 -17.5849 -967.43903
-15.1509 -17.938499 -967.08197
-9.7196703 -19.496099 -964.38098
-8.1167002 -19.977699 -963.39398
-5.7137499 -20.6259 -962.521
-5.2424302 -20.7904 -962.12299
-4.4080801 -20.9883 -962.15601
-2.9962201 -21.375401 -961.79602
-2.3806801 -21.539801 -961.46198
9.2471304 -24.569099 -960.13
-33.935398 -9.0818396 -1019.68
-34.141899 -9.0700903 -1018.86
-34.275101 -9.07059 -1018.1
-34.441898 -9.0816097 -1017.24
-34.3578 -9.2157803 -1016.07
-34.272099 -9.3747396 -1014.21
-34.625099 -9.4123297 -1012.64
-34.735901 -9.4157 -1011.93
-34.889301 -9.4114799 -1011.13
-35.0634 -9.4852304 -1009.72
-35.084702 -9.5107203 -1009.13
-35.259399 -9.5497999 -1007.71
-35.334499 -9.5997696 -1006.99
-35.318199 -9.6552095 -1006.43
-35.382999 -9.6822205 -1005.71
-35.4081 -9.7571001 -1004.41
-35.447399 -9.8323698 -1003.06
-35.215099 -10.0687 -1000.8
-35.141499 -10.1226 -1000.23
-35.110001 -10.1729 -999.60699
-35.0826 -10.2423 -998.95697
-34.873501 -10.308 -998.58398
-34.8298 -10.3972 -997.32501
-34.926399 -10.4131 -996.58398
-34.6548 -10.6499 -994.30499
-34.6068 -10.7102 -993.716
-34.206799 -10.866 -992.84497
-33.624298 -11.1962 -990.508
-33.245602 -11.363 -989.435
-32.5439 -11.5475 -988.89001
-31.5504 -11.9825 -986.48199
-30.9258 -12.1956 -985.83301
-30.3276 -12.431 -984.33398
-30.4426 -12.4682 -983.34399
-29.2686 -12.8707 -981.78302
-27.871901 -13.3443 -979.65601
-27.577 -13.4798 -979.27301
-27.1584 -13.6479 -978.18402
-26.435301 -13.8868 -977.52502
-25.434401 -14.2066 -976.39398
-24.524 -14.5244 -975.09698
-22.7766 -15.1139 -973.10699
-22.0742 -15.3344 -972.29901
-20.952 -15.6716 -971.16602
-20.219101 -15.9501 -970.362
-19.1598 -16.224501 -969.97498
-18.8318 -16.3312 -969.49103
-17.898701 -16.614799 -968.91302
-16.903601 -16.9426 -967.60602
-16.2033 -17.1301 -967.60498
-13.6184 -17.874399 -966.07397
-13.1368 -18.023899 -965.68903
-12.5062 -18.1765 -965.59802
-11.2849 -18.562099 -965.22803
-10.7891 -18.681101 -964.91199
-10.1747 -18.829599 -964.69598
-9.0635405 -19.1642 -964.11603
-8.4794903 -19.355 -963.88702
-6.81427 -19.7756 -963.01599
-6.4776001 -19.9083 -962.45801
-4.3877602 -20.459101 -962.05402
-3.82306 -20.598499 -961.68903
-2.30267 -21.025299 -961.45398
-1.55231 -21.249001 -961.17798
-33.451199 -8.6195602 -1020.61
-33.7346 -8.5927401 -1019.69
-33.935101 -8.5557299 -1018.89
-34.330502 -8.5900297 -1017.2
-34.223202 -8.7036104 -1015.99
-34.020901 -8.7869596 -1015.54
-34.172401 -8.8383799 -1014.18
-34.3391 -8.8671198 -1013.43
-34.558102 -8.86656 -1012.56
-34.7113 -8.9157 -1011.23
-34.849499 -8.9614801 -1010.45
-34.948399 -8.98524 -1009.74
-35.121899 -9.0269499 -1008.3
-35.1735 -9.0511904 -1007.64
-35.2822 -9.0885296 -1006.87
-35.323002 -9.1164398 -1006.22
-35.2971 -9.1590099 -1005.65
-35.3311 -9.2000999 -1004.98
-35.305801 -9.26406 -1004.39
-35.334801 -9.3427401 -1003.09
-35.317101 -9.3949299 -1002.46
-35.1492 -9.5562401 -1000.73
-35.0158 -9.6591101 -999.58197
-34.849201 -9.8013496 -998.43903
-34.726398 -9.9164 -997.28101
-34.620701 -10.0529 -995.53802
-34.5471 -10.1473 -994.22601
-34.550499 -10.2094 -993.58002
-34.4501 -10.2676 -993.05798
-33.5555 -10.6155 -991.14899
-33.588299 -10.6741 -990.28998
-32.816502 -10.85 -990.65802
-31.903601 -11.2493 -988.10101
-32.1689 -11.2574 -986.93597
-31.6292 -11.4044 -986.966
-31.576401 -11.4612 -986.28198
-31.527901 -11.5358 -985.573
-30.899 -11.7282 -984.95599
-30.422701 -11.8939 -984.01501
-29.8076 -12.1709 -982.48999
-27.1096 -13.149 -978.07599
-26.578899 -13.2859 -977.987
-25.607401 -13.68 -975.97302
-25.025499 -13.8326 -975.94098
-24.8193 -13.9221 -975.37097
-23.6791 -14.2707 -974.36298
-22.999399 -14.506 -973.51599
-22.271 -14.7131 -972.76501
-21.9324 -14.8343 -972.34497
-18.660601 -15.8387 -969.61401
-17.814199 -16.1022 -968.88898
-16.7173 -16.4848 -967.70502
-16.299 -16.624901 -967.33099
-14.4606 -17.091499 -966.76703
-11.9272 -17.8319 -965.18298
-11.3087 -17.9923 -965.02698
-9.5480299 -18.500299 -964.367
-7.58289 -19.0655 -963.02301
-5.26617 -19.728701 -961.90198
-4.3737798 -19.9466 -961.94397
-3.69104 -20.1458 -961.716
-3.0766599 -20.2999 -961.38702
-32.596298 -8.1102695 -1022.5
-32.986599 -8.0795898 -1021.46
-33.387402 -8.03897 -1020.33
-33.6278 -8.0099201 -1019.5
-33.966099 -8.0756102 -1018.07
-34.076401 -8.0805702 -1017.33
-34.071602 -8.11028 -1016.71
-34.0709 -8.1718798 -1016
-34.0854 -8.3287001 -1014.11
-34.4772 -8.3093901 -1012.46
-34.616402 -8.3400002 -1011.72
-34.733501 -8.3756504 -1010.98
-34.948399 -8.4070902 -1009.51
-35.068501 -8.4511604 -1008.75
-35.063702 -8.4685698 -1008.2
-35.096802 -8.5212498 -1007.57
-35.191502 -8.5369701 -1006.82
-35.213799 -8.5904598 -1006.2
-35.236198 -8.6260099 -1005.54
-35.2299 -8.6736498 -1004.94
-35.235802 -8.7390099 -1004.31
-35.2645 -8.7621098 -1003.61
-35.118 -8.9588499 -1001.27
-34.9772 -9.1276197 -999.44501
-34.620701 -9.3628902 -997.237
-34.717701 -9.4173403 -996.40698
-33.303299 -10.1274 -991.284
-33.4604 -10.1323 -990.25
-32.951698 -10.3348 -989.46802
-32.539398 -10.4528 -989.30103
-31.542601 -10.8809 -986.90198
-31.531601 -10.9166 -986.14502
-31.0499 -11.1693 -984.534
-30.3333 -11.3683 -983.96503
-29.687599 -11.6233 -982.5
-29.063 -11.8492 -981.737
-29.023701 -11.9052 -980.97498
-28.4041 -12.1004 -980.25299
-28.031601 -12.2376 -979.95398
-27.771799 -12.3149 -979.49103
-27.5688 -12.4065 -978.93597
-26.8922 -12.6504 -978.20203
-26.1423 -12.9203 -976.755
-25.4645 -13.1451 -976.01202
-24.4387 -13.4794 -974.89001
-23.396299 -13.8243 -973.685
-22.966801 -13.9684 -973.41498
-22.665001 -14.0486 -972.95801
-20.8043 -14.6725 -971.05103
-19.9788 -14.9042 -970.34399
-19.4366 -15.0503 -970.19202
-19.095301 -15.1634 -969.75098
-18.590799 -15.3145 -969.53003
-18.0807 -15.4224 -969.31598
-17.802 -15.5661 -968.75403
-16.649099 -15.9405 -967.64697
-15.6306 -16.2162 -967.104
-13.467 -16.8384 -965.98297
-12.9807 -16.9844 -965.64203
-11.23 -17.4606 -965.04199
-10.7661 -17.624001 -964.59802
-10.2964 -17.7642 -964.21002
-9.1693096 -18.0784 -963.72803
-8.6102896 -18.209 -963.52502
-7.8566298 -18.4765 -962.66302
-7.0222802 -18.650101 -962.73401
-6.4492202 -18.8109 -962.38202
-5.8340502 -19.022301 -962.07397
-5.1033301 -19.194401 -961.974
-1.43817 -20.1535 -961.12097
-0.77142298 -20.383301 -960.75299
-33.161999 -7.5443902 -1020.38
-33.341301 -7.5556102 -1019.71
-33.760399 -7.5612302 -1018.14
-33.9119 -7.5574598 -1017.28
-33.982498 -7.59867 -1016.57
-33.998402 -7.6412001 -1015.89
-34.011799 -7.7672801 -1014.01
-34.161701 -7.78827 -1013.29
-34.348801 -7.80863 -1012.48
-34.490501 -7.8548598 -1011.73
-34.6203 -7.85217 -1010.96
-34.779301 -7.86865 -1010.14
-35.019501 -7.9731798 -1008.08
-35.063599 -8.0320501 -1006.84
-35.155201 -8.06989 -1006.09
-35.229099 -8.1427803 -1004.75
-35.153301 -8.2969398 -1002.97
-35.116299 -8.33986 -1002.38
-35.089699 -8.3930101 -1001.79
-35.054901 -8.48701 -1000.49
-34.9547 -8.5581398 -999.97101
-34.708698 -8.7409096 -998.289
-34.609901 -8.8393602 -997.05402
-34.5508 -8.9174805 -996.48499
-34.185902 -9.1361704 -994.20599
-34.218899 -9.2094297 -993.51001
-32.4384 -9.9777298 -988.52301
-32.2981 -10.0717 -987.96002
-31.3118 -10.3798 -987.10498
-31.3622 -10.4156 -986.24298
-30.3104 -10.8421 -983.84998
-28.9772 -11.3148 -981.70203
-28.3379 -11.5989 -980.20099
-26.9543 -12.1188 -977.94202
-26.5219 -12.2228 -977.73102
-26.1514 -12.3233 -977.44897
-25.494699 -12.6085 -975.83301
-24.659201 -12.8667 -975.25403
-24.3629 -12.975 -974.82397
-23.711 -13.1866 -973.97699
-22.816999 -13.4527 -973.48499
-22.825399 -13.499 -972.57703
-21.9832 -13.7651 -971.97302
-20.7911 -14.1123 -970.91199
-19.0159 -14.6373 -969.71002
-18.5355 -14.7987 -969.466
-17.7143 -15.0357 -968.71198
-16.6171 -15.4148 -967.49701
-15.9771 -15.5866 -967.40198
-15.0739 -15.8379 -966.66302
-13.9372 -16.159599 -966.19
-12.2742 -16.599701 -965.44202
-11.84 -16.7644 -965.04303
-10.6956 -17.0774 -964.57599
-8.8299599 -17.6187 -963.23798
-7.6960402 -17.9599 -962.73102
-4.2496901 -18.8771 -961.76898
-2.9262099 -19.266199 -961.30103
-2.33112 -19.419399 -960.90503
-0.59576398 -19.8479 -960.95099
-32.331799 -7.0188198 -1022.31
-32.6819 -7.0107498 -1021.29
-32.9123 -7.01963 -1020.5
-33.156101 -7.0148401 -1019.72
-33.410599 -6.99897 -1018.86
-33.615398 -7.0219498 -1018.01
-33.6437 -7.08255 -1017.36
-33.787498 -7.0669899 -1016.52
-33.786098 -7.1045499 -1016.01
-34.02 -7.22436 -1013.8
-34.470798 -7.2653799 -1011.54
-34.700901 -7.3650899 -1009.53
-34.9585 -7.46386 -1007.41
-35.042099 -7.4844398 -1006.66
-35.0695 -7.5327702 -1006.02
-35.1124 -7.6174202 -1004.72
-35.194199 -7.63449 -1003.95
-35.050499 -7.7978401 -1002.31
-34.973 -7.8994098 -1001.1
-34.8643 -8.0251799 -999.94397
-34.612099 -8.18894 -998.23999
-34.088902 -8.5055904 -995.552
-33.792 -8.8027401 -992.50299
-33.080502 -9.0824299 -991.20801
-33.232399 -9.0829401 -990.18799
-32.691299 -9.2293701 -990.24103
-32.250999 -9.4571505 -988.64099
-31.293501 -9.8631296 -986.18103
-30.4293 -10.2171 -984.263
-30.278299 -10.2775 -983.69299
-29.7076 -10.548 -982.08502
-28.866899 -10.7818 -981.70697
-28.3442 -11.0728 -979.97998
-26.9167 -11.5486 -977.81299
-26.1635 -11.7724 -977.27197
-25.361401 -12.0737 -975.81299
-24.825399 -12.1978 -975.73999
-23.752701 -12.6266 -973.72498
-23.160601 -12.8156 -973.68298
-21.812799 -13.2218 -972.03802
-19.362301 -13.976 -969.96399
-17.6315 -14.5003 -968.68402
-17.153799 -14.6266 -968.41199
-16.4333 -14.8721 -967.56799
-15.7623 -15.1229 -966.61401
-12.8532 -15.9081 -965.52197
-12.2473 -16.0709 -965.33698
-10.1945 -16.6576 -964.11603
-9.7680101 -16.778 -963.802
-9.4143105 -16.881599 -963.36902
-8.3151903 -17.213699 -962.92102
-6.3165302 -17.7651 -962.237
-5.7019 -17.9175 -961.92499
-3.5570099 -18.497801 -961.41998
-2.7899201 -18.7083 -961.28998
1.63831 -19.882099 -960.12799
-32.232201 -6.4930801 -1022.1
-32.777401 -6.4463 -1020.43
-33.028301 -6.4823799 -1019.63
-33.153999 -6.5180101 -1018.95
-33.296398 -6.5404701 -1018.1
-33.572102 -6.5624599 -1016.57
-33.686901 -6.5624399 -1015.95
-33.775799 -6.62602 -1015.15
-33.834 -6.7025399 -1013.89
-34.021999 -6.6948099 -1013.12
-34.262699 -6.7199898 -1012.23
-34.3843 -6.7349501 -1011.48
-34.507301 -6.7409201 -1010.72
-34.559799 -6.8003201 -1010.1
-34.733002 -6.8013301 -1009.25
-34.884499 -6.8930702 -1007.32
-34.976799 -6.9367199 -1006.57
-34.983898 -6.9710002 -1005.95
-35.055801 -7.0654202 -1004.61
-35.027199 -7.1222901 -1004.04
-35.049999 -7.23352 -1002.08
-34.836601 -7.4299502 -1000.45
-34.811199 -7.4810901 -999.81201
-34.519501 -7.6728001 -998.19702
-34.3582 -7.8223 -996.33398
-34.010899 -7.9819298 -995.46899
-33.7635 -8.1832199 -993.69397
-33.504501 -8.3637104 -991.888
-32.660801 -8.7578802 -989.37402
-32.193699 -8.91675 -988.53601
-31.7453 -9.1278296 -986.87
-30.086399 -9.7725697 -983.80402
-29.5574 -9.9550695 -982.94897
-29.634701 -10.0214 -982.026
-28.961599 -10.2305 -981.38702
-28.7763 -10.3166 -980.83502
-28.414101 -10.4439 -980.54602
-27.8641 -10.6256 -979.67499
-27.633499 -10.7232 -979.17102
-27.434401 -10.8224 -978.62097
-26.8972 -10.933 -978.547
-26.242399 -11.164 -977.81799
-26.0049 -11.2528 -977.323
-25.766199 -11.366 -976.81598
-24.4058 -11.7853 -975.30499
-24.1607 -11.8932 -974.79199
-22.8109 -12.3378 -973.146
-22.609301 -12.4441 -972.56403
-20.9105 -12.9326 -971.32898
-20.6334 -13.0454 -970.78198
-19.7806 -13.3103 -970.16901
-19.1581 -13.459 -970.09198
-18.2892 -13.6992 -969.48499
-17.945101 -13.8237 -969.01202
-15.6347 -14.5893 -966.646
-13.696 -15.0896 -966.23102
-12.683 -15.3829 -965.59998
-12.1428 -15.5469 -965.33899
-11.1798 -15.8352 -964.61499
-10.6075 -15.9588 -964.43201
-9.9329205 -16.203899 -963.55499
-9.6577101 -16.2887 -962.96301
-6.83148 -17.047701 -962.46899
-6.1311002 -17.2353 -962.302
-4.9832802 -17.5658 -961.65399
-4.2000098 -17.736 -961.55603
-3.4621 -17.947599 -961.41803
2.6152301 -19.5217 -960.112
-32.9893 -5.96913 -1018.74
-33.2397 -6.0101099 -1017.26
-33.632401 -6.0163002 -1015.82
-33.622101 -6.0978899 -1015.23
-33.6978 -6.1314001 -1014.4
-34.105801 -6.1752501 -1012.25
-34.278099 -6.1981502 -1011.44
-34.444199 -6.2591 -1010.05
-34.591999 -6.2756901 -1009.25
-34.693901 -6.3117299 -1008.53
-34.772598 -6.33248 -1007.84
-34.783699 -6.3739901 -1007.26
-34.914501 -6.5023599 -1005.27
-34.965599 -6.5242901 -1004.55
-34.9394 -6.5870399 -1003.98
-34.9473 -6.6651101 -1002.7
-34.976398 -6.70467 -1001.98
-34.906502 -6.7543502 -1001.44
-34.856602 -6.8022499 -1000.87
-34.719601 -6.9481802 -999.755
-34.5056 -7.1129298 -998.02301
-34.315899 -7.2526598 -996.91998
-33.944599 -7.4549999 -995.35999
-33.794601 -7.55685 -994.12799
-32.951801 -8.0012903 -991.00299
-32.1973 -8.3759203 -988.33899
-31.6779 -8.6265602 -986.80298
-31.3344 -8.6989603 -986.47198
-30.572399 -9.0081301 -985.28998
-30.7904 -9.0069599 -984.16901
-30.044701 -9.2311802 -983.68298
-29.522499 -9.4998999 -982.01703
-26.610201 -10.5165 -977.93799
-25.310499 -11.0148 -975.55902
-24.1668 -11.3515 -974.58301
-23.6378 -11.5392 -973.59802
-22.783001 -11.8762 -972.12701
-21.909201 -12.1004 -971.58801
-20.8088 -12.4082 -971.29797
-18.744699 -13.0342 -969.62097
-17.6793 -13.3948 -968.28497
-17.0096 -13.5563 -968.26898
-16.3571 -13.7885 -967.32703
-15.7765 -14.0178 -966.328
-15.0627 -14.1667 -966.29199
-13.246 -14.6972 -965.66998
-12.6748 -14.844 -965.44
-11.3066 -15.2301 -964.33398
-10.9139 -15.345 -963.96698
-10.5865 -15.4539 -963.54401
-8.7448702 -15.9643 -963.07001
-8.17029 -16.1294 -962.65198
-5.4790602 -16.8435 -961.901
-1.9882801 -17.775101 -960.93201
1.02441 -18.571301 -960.25702
1.64801 -18.7271 -959.84698
3.4835801 -19.2104 -959.78601
-31.7097 -5.4681501 -1022.41
-32.3307 -5.4733601 -1020.53
-32.535599 -5.4783702 -1019.6
-32.632401 -5.4941301 -1018.91
-33.614498 -5.4995599 -1015.6
-33.650799 -5.61378 -1014.28
-33.875999 -5.63696 -1012.9
-33.9617 -5.65731 -1012.29
-34.1884 -5.65835 -1011.38
-34.337002 -5.7026 -1010.59
-34.370701 -5.7355299 -1009.97
-34.575298 -5.78479 -1008.53
-34.677601 -5.89259 -1006.66
-34.772598 -5.9707699 -1005.28
-34.810699 -6.0585699 -1003.99
-34.896198 -6.1368399 -1002.57
-34.6968 -6.3018298 -1000.95
-34.624298 -6.4632301 -999.03699
-34.451 -6.5851698 -997.90802
-34.301498 -6.7071199 -996.73999
-33.047901 -7.41219 -991.39697
-32.540001 -7.6813202 -989.19
-32.040199 -7.8642502 -988.39001
-31.633699 -8.0879097 -986.66901
-31.0588 -8.3361101 -985.17999
-30.514299 -8.5347204 -984.41302
-30.1539 -8.6397696 -984.13
-29.4221 -8.9631395 -981.98102
-28.7395 -9.2045097 -981.35999
-28.0119 -9.48841 -979.97302
-27.3885 -9.6625404 -979.17401
-26.1483 -10.0957 -977.63
-25.874701 -10.2089 -977.14801
-25.6945 -10.2805 -976.59003
-25.362499 -10.4571 -975.34601
-21.9767 -11.5604 -971.315
-20.5697 -11.982 -970.578
-19.7631 -12.2335 -969.87
-18.399401 -12.6324 -969.01099
-17.7003 -12.8594 -968.09302
-16.600599 -13.136 -967.72498
-16.4249 -13.2269 -967.02399
-15.0578 -13.6422 -966.14398
-14.3337 -13.8377 -966.12598
-11.7789 -14.5132 -964.64398
-11.4224 -14.6497 -964.22998
-10.1378 -15.0527 -963.09302
-9.3551598 -15.2728 -963.10999
-7.8989301 -15.6228 -962.81403
-7.2298002 -15.8127 -962.646
-6.6677198 -15.9363 -962.32703
-4.8497901 -16.4809 -961.492
-3.9674699 -16.689199 -961.56201
-3.39343 -16.843599 -961.22302
-2.76367 -17.035 -960.914
-1.98572 -17.228399 -960.797
-31.5833 -4.9693699 -1022.36
-31.8284 -4.9813199 -1021.52
-32.370399 -5.03195 -1018.99
-32.968899 -5.0039201 -1017.15
-33.3311 -4.96666 -1016.18
-33.500198 -5.00495 -1015.56
-33.583698 -5.0799198 -1014.19
-34.069 -5.18153 -1011.38
-34.1492 -5.2030802 -1010.7
-34.309502 -5.19836 -1009.86
-34.544998 -5.27318 -1008.38
-34.560398 -5.3467798 -1007.21
-34.717999 -5.4106398 -1005.78
-34.715099 -5.51543 -1004.55
-34.816399 -5.57021 -1003.76
-34.7603 -5.7364702 -1001.3
-34.699699 -5.79246 -1000.74
-34.622398 -5.9009299 -999.508
-34.3727 -6.1058898 -997.85199
-34.195099 -6.2093902 -996.72302
-33.506401 -6.6125698 -993.49701
-33.0051 -6.8973799 -991.28601
-32.914101 -6.9690599 -990.68402
-32.4935 -7.1871099 -989.08301
-31.5334 -7.61446 -986.65399
-30.5541 -7.98453 -984.92798
-29.4375 -8.4708595 -981.789
-28.7062 -8.6861 -981.216
-28.047501 -8.9451504 -979.71997
-26.704 -9.3818903 -978.32397
-26.770399 -9.4464598 -977.354
-25.327 -9.8474302 -976.15503
-24.409901 -10.1515 -974.92297
-24.18 -10.2593 -974.37097
-22.7379 -10.699 -972.86401
-22.33 -10.8474 -972.55798
-19.7384 -11.7283 -969.76801
-18.7267 -12.0025 -969.30298
-18.499201 -12.0924 -968.68597
-17.5742 -12.3692 -968.13
-16.2297 -12.7553 -967.146
-15.3942 -12.9965 -966.46198
-13.2573 -13.5941 -965.46802
-12.8383 -13.7173 -965.078
-12.4269 -13.863 -964.73999
-11.0851 -14.2788 -963.75299
-10.3849 -14.4494 -963.65503
-9.9075899 -14.5768 -963.23401
-3.3891001 -16.354601 -961.08002
-1.94995 -16.716299 -960.72803
-1.23798 -16.9086 -960.52197
3.62854 -18.1567 -959.70001
-31.386999 -4.4786901 -1022.4
-31.630699 -4.4997301 -1021.46
-31.792 -4.5204802 -1020.59
-31.9732 -4.5184898 -1019.78
-32.3666 -4.5381999 -1018.32
-32.736401 -4.5464602 -1017.32
-33.1115 -4.5173602 -1016.33
-33.3605 -4.5445299 -1015.1
-33.546902 -4.6075702 -1013.5
-33.7024 -4.6392102 -1012.77
-33.893398 -4.64432 -1011.97
-34.227501 -4.7241802 -1009.79
-34.420799 -4.77633 -1008.4
-34.514999 -4.8562498 -1007.1
-34.537201 -4.8950701 -1006.47
-34.656799 -5.04704 -1003.84
-34.701199 -5.13203 -1002.49
-34.517399 -5.4155998 -999.50201
-34.357601 -5.5833702 -997.67401
-34.138 -5.71246 -996.63397
-33.7948 -5.9169502 -995.047
-33.636101 -6.0514498 -993.83002
-32.783001 -6.4804902 -990.711
-31.9979 -6.86516 -988.10797
-31.1439 -7.2149501 -986.229
-30.8995 -7.35182 -985.08398
-29.233601 -7.9362502 -982.737
-29.464199 -7.9541302 -981.56598
-28.7467 -8.1934099 -981.01801
-28.687599 -8.2465897 -980.28802
-27.993999 -8.4697304 -979.659
-27.5896 -8.59167 -979.40601
-25.964701 -9.2067404 -976.07599
-25.5536 -9.30476 -975.89899
-25.0347 -9.5431404 -974.97198
-24.818199 -9.6307898 -974.40601
-24.455099 -9.7481203 -974.04901
-24.017799 -9.8700705 -973.80298
-23.7218 -9.9969397 -973.32098
-23.424601 -10.0749 -972.86401
-22.999599 -10.1965 -972.57202
-22.5474 -10.3237 -972.30402
-22.129999 -10.4514 -972.00201
-21.6978 -10.5753 -971.65802
-20.3859 -10.9544 -970.61902
-15.757 -12.3602 -966.80902
-13.8572 -12.9554 -965.66803
-13.4069 -13.0774 -965.328
-12.69 -13.3304 -964.422
-12.223 -13.4596 -964.08301
-11.5754 -13.612 -963.97998
-9.6711998 -14.1314 -963.30499
-7.1571002 -14.8041 -962.43402
-6.5461998 -14.9423 -962.15601
-6.0121498 -15.129 -961.77698
-5.3006001 -15.3099 -961.65698
-4.6448398 -15.487 -961.487
-3.89148 -15.6663 -961.383
-3.2379799 -15.8576 -961.14697
0.22430401 -16.8067 -959.94501
2.0734301 -17.2453 -959.94202
2.7769201 -17.403299 -959.70801
-31.243799 -3.99506 -1022.34
-31.4655 -4.0320401 -1021.34
-31.6115 -4.0543098 -1020.53
-32.0392 -4.0331001 -1018.98
-32.294399 -4.0346198 -1018.19
-32.944901 -4.0268202 -1016.37
-33.1157 -4.0164499 -1015.72
-33.492599 -4.1143298 -1013.39
-33.894299 -4.1989698 -1011.26
-34.120098 -4.2056999 -1010.34
-34.2379 -4.2239699 -1009.59
-34.3419 -4.2724099 -1008.32
-34.526402 -4.3598299 -1006.89
-34.5616 -4.5008898 -1004.4
-34.715401 -4.5867801 -1002.9
-34.537102 -4.8105898 -1000.62
-34.417702 -4.9816198 -998.78699
-34.2472 -5.10324 -997.68597
-34.027802 -5.2210202 -996.60699
-33.744801 -5.4235001 -994.94501
-33.4538 -5.62572 -993.22198
-33.103901 -5.76898 -992.24701
-32.7094 -6.0116501 -990.66101
-32.248001 -6.1669502 -989.86798
-31.855301 -6.4039502 -988.18103
-31.459299 -6.6042299 -986.40002
-30.3643 -6.9931898 -984.92798
-29.7416 -7.2540002 -983.46503
-29.1514 -7.4510899 -982.69897
-28.7673 -7.61233 -981.59998
-28.570601 -7.75735 -980.28802
-27.2509 -8.1921101 -978.90802
-27.3029 -8.2385902 -977.97101
-26.530001 -8.4360905 -977.466
-26.348301 -8.5239096 -977.02002
-26.1866 -8.6366901 -976.54498
-25.6094 -8.8260698 -975.78101
-25.077801 -9.0439901 -974.82898
-24.7628 -9.1541901 -974.44397
-23.118299 -9.7165298 -972.34497
-21.9189 -10.0604 -971.38898
-21.068501 -10.2953 -970.677
-20.673201 -10.4267 -970.28497
-18.8682 -10.934 -969.02002
-18.5084 -11.0702 -968.58698
-17.6143 -11.3105 -967.96198
-17.091801 -11.4663 -967.80902
-15.3688 -12.0012 -966.41199
-14.9438 -12.1359 -966.05798
-14.7781 -12.2263 -965.32098
-14.1083 -12.3968 -965.31799
-13.582 -12.5316 -965.08502
-13.1306 -12.6693 -964.74103
-12.7254 -12.7995 -964.28601
-12.0965 -12.9681 -964.12799
-11.6206 -13.0887 -963.70801
-10.9532 -13.2809 -963.52301
-10.1396 -13.5052 -963.56
-9.5244799 -13.6556 -963.27698
-7.6805401 -14.1217 -962.573
-5.2424898 -14.8013 -961.62097
-4.5461402 -14.9745 -961.47498
-3.1875 -15.3568 -961.04797
-2.72668 -15.4856 -960.54901
-1.92773 -15.7057 -960.45398
-1.09778 -15.8938 -960.39899
-0.55847198 -16.0959 -959.909
2.9161401 -16.9137 -959.724
3.78461 -17.148199 -959.56897
-31.254499 -3.5392699 -1020.77
-31.5383 -3.51281 -1019.89
-32.164501 -3.51176 -1018.13
-32.791698 -3.50424 -1016.35
-33.180302 -3.51402 -1014.98
-33.341999 -3.6201899 -1013.43
-33.807098 -3.64135 -1011.16
-33.9174 -3.6749699 -1010.43
-33.970798 -3.7253301 -1009.81
-34.132999 -3.75267 -1009
-34.305698 -3.75967 -1008.16
-34.3442 -3.8627901 -1006.95
-34.439602 -3.8687699 -1006.19
-34.441399 -3.9726701 -1005.01
-34.543301 -4.0087099 -1004.24
-34.521999 -4.1589298 -1002.4
-34.494801 -4.20123 -1001.79
-34.473099 -4.2750201 -1000.53
-34.334202 -4.4214201 -999.40698
-34.3237 -4.45333 -998.74298
-33.900799 -4.7685299 -995.91901
-33.622799 -4.9274402 -994.95203
-33.427101 -5.0377998 -993.78601
-33.393101 -5.10534 -993.12201
-31.8563 -5.8090701 -988.73199
-31.9046 -5.8676801 -987.88501
-30.9841 -6.2137499 -986.15399
-30.2803 -6.4915199 -984.87402
-29.8405 -6.7049899 -983.125
-29.643101 -6.79954 -982.61499
-29.166 -6.9995098 -981.69598
-28.4823 -7.2067599 -981.04602
-28.414 -7.26999 -980.33398
-27.8186 -7.4854999 -979.59302
-27.267799 -7.7321401 -977.87598
-26.652201 -7.9151101 -977.242
-25.3654 -8.3454399 -975.90198
-25.4706 -8.3966904 -974.90198
-24.6367 -8.6229296 -974.46698
-24.547001 -8.7015104 -973.76202
-23.878201 -8.9713001 -972.93298
-23.1105 -9.1955004 -972.23999
-22.929399 -9.2879696 -971.63898
-22.0203 -9.5249901 -971.159
-21.5179 -9.6595097 -970.92102
-20.289301 -10.0613 -969.86798
-19.069 -10.4109 -968.78497
-18.6015 -10.5325 -968.49799
-17.6749 -10.8304 -967.92102
-17.2819 -10.9273 -967.552
-16.980801 -11.0352 -967.01501
-16.394199 -11.2199 -966.88
-15.9446 -11.3473 -966.552
-15.4991 -11.4773 -966.19098
-15.0242 -11.6076 -965.89001
-14.0882 -11.8706 -965.22302
-13.597 -12.0083 -964.96002
-10.6418 -12.8207 -963.72998
-9.4883404 -13.1562 -963.12701
-8.1898804 -13.472 -962.80103
-7.5738502 -13.6213 -962.57599
-6.5844102 -13.9348 -961.78003
-5.24512 -14.2818 -961.435
-4.0177002 -14.6315 -960.88702
-1.7829601 -15.1998 -960.51703
-0.39386001 -15.5676 -959.99402
1.216 -15.9766 -959.75299
2.0357699 -16.199699 -959.65302
-30.813101 -3.00033 -1022.28
-30.883499 -3.0306001 -1021.53
-33.094101 -2.9964399 -1014.89
-33.289902 -3.0743301 -1013.31
-33.437599 -3.1020601 -1012.54
-33.721401 -3.1250801 -1011.1
-33.858799 -3.12765 -1010.33
-33.974098 -3.1587701 -1009.6
-34.073898 -3.2121401 -1008.88
-34.099201 -3.24176 -1008.29
-34.301998 -3.3566401 -1006.22
-34.3139 -3.4063699 -1005.62
-34.400501 -3.51527 -1003.63
-34.4403 -3.6500299 -1001.66
-34.3992 -3.7130899 -1001.1
-34.3671 -3.77004 -1000.51
-34.235901 -3.85956 -999.34302
-34.118 -4.00704 -998.17102
-34.0308 -4.1062999 -996.91602
-33.946499 -4.1571102 -996.34003
-33.628399 -4.39606 -994.73102
-33.223 -4.6027098 -993.198
-32.9925 -4.7830801 -991.34698
-32.5037 -4.9556298 -990.612
-32.1413 -5.1320901 -989.63098
-31.7558 -5.3406701 -987.92902
-31.2125 -5.52773 -987.16699
-30.235399 -6.0050001 -983.97302
-29.5952 -6.2190199 -983.32001
-29.0518 -6.4658899 -981.65997
-27.104799 -7.16151 -978.76501
-27.0173 -7.20892 -978.13098
-26.719101 -7.3099399 -977.84497
-26.804399 -7.3786502 -976.90002
-25.8906 -7.6722298 -975.73602
-24.5016 -8.1260996 -974.40002
-24.444401 -8.1821098 -973.66101
-23.786301 -8.3572197 -973.69098
-23.415501 -8.6276903 -972.51202
-22.9862 -8.7256899 -972.26398
-23.016701 -8.7687101 -971.33099
-21.1115 -9.2547398 -970.414
-20.8641 -9.34062 -969.84302
-19.8771 -9.6130505 -969.38202
-19.4111 -9.7418203 -969.10797
-16.4914 -10.6311 -966.60797
-13.9932 -11.333 -965.19299
-12.9907 -11.6336 -964.586
-11.3802 -12.0886 -963.64801
-9.9698496 -12.4475 -963.341
-9.3523598 -12.6056 -963.11499
-8.7167397 -12.774 -962.93201
-6.3984399 -13.4037 -961.90601
-5.8772001 -13.5702 -961.52502
-4.5335698 -13.9228 -961.13098
-3.8934901 -14.1002 -960.83698
-0.904724 -14.8905 -960.35901
3.0223999 -15.857 -959.56799
3.8522301 -16.0783 -959.33301
-30.411301 -2.4644001 -1023.21
-30.502701 -2.50753 -1022.41
-30.755199 -2.4807401 -1021.38
-32.801498 -2.4713199 -1015.5
-33.045799 -2.4582801 -1014.72
-33.2174 -2.5622201 -1013.22
-33.509602 -2.5980599 -1011.71
-33.672401 -2.60935 -1010.94
-34.016998 -2.6978099 -1008.74
-34.0513 -2.70947 -1008.14
-34.115501 -2.7325499 -1007.46
-34.273399 -2.87115 -1005.45
-34.392601 -2.9156499 -1004.65
-34.3423 -2.9568999 -1004.13
-34.261902 -3.10079 -1002.39
-34.257801 -3.19189 -1001.11
-34.244701 -3.3181701 -999.80701
-34.278099 -3.41434 -998.40698
-33.8992 -3.6658499 -996.22498
-33.2351 -4.0173001 -993.71899
-32.821899 -4.2814898 -991.42902
-31.660601 -4.8326602 -987.87903
-31.207199 -5.0658898 -986.23102
-30.6406 -5.25914 -985.52301
-30.183001 -5.4949598 -983.87402
-29.645901 -5.68606 -983.04102
-29.0588 -5.9671302 -981.47998
-28.556299 -6.0773702 -981.401
-28.4347 -6.15206 -980.74799
-27.8195 -6.34058 -980.03302
-27.809299 -6.40802 -979.23798
-27.018999 -6.6377802 -978.776
-26.824699 -6.8397198 -976.71698
-25.8456 -7.1723499 -975.58698
-24.4202 -7.6395302 -974.18402
-24.253401 -7.7239199 -973.651
-23.7512 -7.80266 -973.55798
-23.013 -7.9588199 -972.79102
-22.8377 -8.12605 -971.31799
-21.756201 -8.5588799 -970.14697
-20.6082 -8.8687401 -970.03003
-20.201 -9.0402899 -968.75
-18.968 -9.3517399 -968.68903
-18.847 -9.4312496 -967.922
-17.875099 -9.7089701 -967.39001
-16.5259 -10.0881 -966.39398
-15.4879 -10.3826 -965.91699
-14.3889 -10.6904 -965.474
-13.9726 -10.8145 -965.07098
-13.4522 -10.9388 -964.77301
-12.4133 -11.238 -964.23102
-11.9531 -11.403 -963.77301
-9.7744102 -11.9234 -963.43597
-9.2610502 -12.0926 -963.07599
-8.6806002 -12.2607 -962.84497
-8.1268301 -12.4121 -962.55701
-7.5394902 -12.573 -962.28497
-6.9440899 -12.752 -962.02301
-6.3232398 -12.9257 -961.81598
-5.04877 -13.2291 -961.39099
-4.4092398 -13.4358 -961.16498
-3.08441 -13.7628 -960.68799
-1.65369 -14.1503 -960.33899
-0.84002697 -14.3385 -960.29102
1.2835701 -14.896 -959.48798
4.7266202 -15.7598 -959.11401
-30.039 -1.92538 -1023.93
-30.190399 -1.9431601 -1023.13
-30.299 -1.98022 -1022.32
-30.638399 -1.96526 -1021.25
-33.271198 -2.01296 -1012.35
-33.402199 -2.0675099 -1011.66
-33.920601 -2.1972499 -1008.14
-34.1082 -2.2486 -1006.68
-34.197498 -2.2587399 -1005.93
-34.272499 -2.31322 -1005.22
-34.2048 -2.40783 -1004.13
-34.304901 -2.4565001 -1003.34
-34.298599 -2.5030799 -1002.72
-34.2183 -2.59691 -1001.59
-34.1992 -2.71154 -1000.34
-34.1595 -2.77914 -999.737
-34.093102 -2.8290701 -999.17798
-34.063599 -2.89238 -998.53699
-34.072701 -2.9599199 -997.82397
-33.8755 -3.0144999 -997.45001
-33.726799 -3.1459999 -996.29199
-33.4062 -3.40696 -993.98401
-33.2253 -3.4692099 -993.51099
-31.1348 -4.52843 -986.14099
-30.5811 -4.71873 -985.41901
-28.929899 -5.3410602 -982.28302
-28.354601 -5.6136899 -980.69897
-27.6042 -5.89325 -979.36499
-27.109699 -6.0652299 -978.56201
-26.733 -6.3201499 -976.69501
-25.931801 -6.5579801 -976.15698
-25.782499 -6.6156101 -975.51501
