# .PCD v0.7 - Point Cloud Data file format
VERSION 0.7
FIELDS x y z
SIZE 4 4 4
TYPE F F F
COUNT 1 1 1
WIDTH 1648
HEIGHT 1
VIEWPOINT 0 0 0 1 0 0 0
POINTS 1648
DATA ascii
3.0020101 14.0702 -957.58099
3.8292201 13.9408 -957.46301
5.5111699 14.0751 -957.11102
6.1445298 13.9219 -956.70697
7.3338599 14.1892 -956.84998
8.5460196 13.9822 -957.16199
9.3722496 13.7819 -956.96198
11.5052 13.8748 -956.83301
13.8071 13.9408 -956.74402
14.9695 13.6898 -956.78802
16.470699 13.4281 -957.20398
17.947599 13.7195 -957.10303
19.3636 13.4424 -957.28302
21.8382 13.5791 -958.211
23.2335 13.2915 -957.63599
-28.910801 17.731199 -1000.23
-29.0254 17.4575 -996.966
-28.662001 17.7904 -995.29602
-28.527 17.5945 -993.52899
-28.2831 17.3911 -991.85797
-28.109699 17.2521 -990.711
-27.367901 17.381001 -987.99402
-27.0828 17.228001 -986.95502
-26.722601 17.0308 -986.03998
-25.994301 17.233101 -983.84003
-25.6738 17.061501 -982.80103
-25.357901 16.950399 -982.5
-24.9617 16.7799 -981.54498
-24.618799 16.6259 -980.48602
-24.032301 17.028601 -980.37799
-23.8531 16.8717 -979.04303
-23.4154 16.671499 -978.15302
-22.943001 16.4793 -977.21002
-22.7089 16.3965 -976.74597
-22.4589 16.7857 -976.18701
-21.816299 16.5695 -975.45203
-21.7297 16.499599 -974.74402
-21.048599 16.284 -974.073
-20.761299 16.178699 -973.664
-20.1595 16.566999 -973.453
-19.5292 16.308701 -971.75897
-19.1688 16.2153 -971.44598
-19.0291 16.135201 -970.70203
-18.0574 15.8891 -970.34698
-17.491199 16.147699 -969.40198
-16.6509 15.8965 -968.83398
-15.9064 16.191401 -967.97101
-15.5605 16.105 -967.54401
-15.1027 15.9634 -967.28302
-14.8507 15.875 -966.698
-14.3702 15.7484 -966.45898
-13.916 15.6122 -966.19299
-13.5098 16.0207 -965.70801
-12.6114 15.7859 -965.06897
-11.8043 15.5404 -964.29797
-11.3892 15.4354 -963.91498
-10.7335 15.2751 -963.87598
-10.1637 15.6881 -963.55103
-9.8605299 15.5932 -962.96899
-9.3533897 15.4719 -962.69098
-8.9274902 15.3176 -962.31403
-8.4194298 15.1959 -962.00098
-7.3693199 15.4658 -961.27002
-6.8348398 15.3421 -960.98901
-6.2929702 15.188 -960.70099
-5.7573199 15.0503 -960.41901
-4.9700899 14.8966 -960.41498
-3.61658 15.1051 -960.00702
-2.6458099 14.8355 -959.17102
-1.88324 15.1983 -958.87
-1.29419 15.0936 -958.58801
-0.423462 14.902 -958.68799
0.22827099 14.7284 -958.43103
1.95349 14.8865 -958.289
3.1232901 14.5837 -957.50702
4.1872602 14.8838 -957.54797
4.7247901 14.7377 -957.078
5.7841802 14.5319 -957.31799
6.6444101 14.8302 -956.97601
7.6171298 14.6864 -956.97101
8.3884897 14.4861 -956.72198
9.6885996 14.2522 -957.13098
10.4867 14.584 -956.56
11.7897 14.3487 -956.96503
12.9189 14.1313 -957.07397
14.1724 14.4011 -956.96198
15.0653 14.2411 -956.58002
17.0182 13.9487 -957.60699
18.301201 14.188 -957.27802
19.8267 13.8804 -957.43903
21.9697 14.0639 -957.823
-27.5147 19.2684 -1007.88
-28.6924 18.3999 -1001.4
-28.540701 18.450199 -996.53003
-28.3892 18.154301 -994.14801
-28.179399 17.9755 -992.42297
-27.791201 18.253901 -990.68903
-27.632099 18.136801 -989.48602
-27.1735 17.819 -987.302
-26.8141 17.645399 -986.38501
-26.2297 17.400101 -985.00702
-25.7787 17.692101 -983.94501
-25.6443 17.621799 -983.40601
-24.8305 17.2813 -981.52399
-24.6523 17.163401 -980.26398
-24.302099 17.4662 -979.09998
-23.639999 17.2633 -978.50897
-23.558901 17.1714 -977.81702
-23.111099 17.062599 -977.685
-22.4086 17.334499 -976.87701
-21.643499 17.068701 -975.48602
-21.624599 17.004101 -974.67102
-21.246 16.8995 -974.38898
-20.662701 17.1805 -973.50403
-20.069401 16.978201 -972.66998
-19.7274 16.886499 -972.315
-19.366501 16.7768 -972.00598
-18.9963 16.659201 -971.67999
-18.854799 16.5909 -970.97998
-18.0627 16.8701 -970.26398
-17.7946 16.752199 -969.75598
-17.0641 16.5599 -969.01099
-16.3099 16.312099 -968.31299
-15.5782 16.6425 -967.39899
-15.1828 16.495199 -967.052
-14.4173 16.280899 -966.29901
-13.9059 16.143801 -966.08801
-12.9867 16.4674 -965.367
-12.1413 16.202299 -964.69
-11.8079 16.0877 -964.15698
-11.3679 15.963 -963.82397
-10.2832 16.237499 -963.19897
-9.7561598 16.1007 -962.99402
-9.1946402 15.9787 -962.81897
-8.7627602 15.8497 -962.38397
-8.55902 15.7549 -961.61798
-7.1584501 15.9441 -961.39899
-6.60956 15.8359 -961.09698
-2.4619801 15.3502 -959.19299
-1.6232899 15.7223 -959.00201
-0.28912401 15.3571 -958.65503
1.03748 15.0778 -958.19897
1.47992 15.5336 -958.59601
1.91431 15.3982 -957.99799
2.5111699 15.2456 -957.664
3.36444 15.0495 -957.64203
4.4000902 15.3677 -957.62299
5.0332599 15.2183 -957.21301
5.79181 15.0426 -957.04199
7.0029302 15.3236 -957.224
7.6553302 15.1755 -956.771
8.6134005 14.9803 -956.76599
9.7215595 14.7631 -956.97101
10.814 15.114 -956.745
12.1329 14.8638 -957.14398
12.9584 14.6544 -956.77899
15.17 14.7543 -956.38
16.857 14.4289 -956.97101
18.177799 14.7448 -956.65601
22.2537 14.6367 -957.745
25.826401 14.6844 -959.55603
-28.378401 19.207899 -999.005
-28.326 18.8652 -995.935
-28.396799 18.7731 -994.49799
-28.1429 18.5033 -992.19598
-27.8992 18.353901 -991.22198
-27.5145 18.6395 -990.16901
-27.2304 18.4235 -988.44501
-26.9645 18.264999 -987.409
-26.5341 18.1021 -986.599
-26.1007 18.319799 -984.08899
-25.674999 18.133499 -983.224
-25.309999 17.981001 -982.27197
-25.0005 17.817499 -981.17798
-24.4907 18.110201 -980.26801
-24.1353 18.002199 -980.01001
-23.8036 17.8396 -978.87799
-23.418301 17.6604 -977.875
-22.427799 17.901501 -976.70398
-21.7838 17.590401 -975.16498
-21.445499 17.4841 -974.836
-21.2925 17.386101 -974.25403
-20.665701 17.7188 -973.40601
-20.306999 17.616301 -973.10498
-19.810101 17.407801 -972.09302
-19.5035 17.316799 -971.66498
-19.176001 17.203501 -971.29401
-18.5131 17.5296 -970.37402
-17.797701 17.2719 -969.65002
-17.5446 17.186399 -969.09399
-17.065901 17.078699 -968.927
-15.9169 16.7223 -967.83301
-15.7012 17.166201 -967.09399
-14.8206 16.929399 -966.51703
-14.4145 16.812901 -966.14502
-13.9541 16.697701 -965.88702
-13.6412 16.5914 -965.383
-12.6227 16.868299 -964.745
-12.1949 16.7575 -964.435
-11.36 16.4862 -963.67499
-10.5897 16.8979 -963.56799
-10.1621 16.752501 -963.17401
-9.72437 16.641199 -962.78601
-9.0834999 16.4816 -962.73297
-8.6272001 16.3689 -962.362
-8.1379404 16.235001 -962.047
-7.5309401 16.6436 -961.64001
-7.0059199 16.493401 -961.35199
-6.42419 16.864201 -960.922
-5.2842398 16.5786 -960.45203
-2.97717 15.9887 -959.33801
-0.767151 16.045601 -958.90399
-0.36035201 15.8994 -958.30402
1.9990799 15.8986 -957.89203
2.8370399 15.717 -957.84698
3.5579801 16.081499 -957.396
5.3765302 15.7181 -957.52502
5.9214501 15.5541 -956.94397
7.0433302 15.8843 -956.99402
8.8342304 15.4927 -956.76703
9.7606802 15.3049 -956.73401
11.2547 15.5826 -957.06598
12.0911 15.3749 -956.80103
13.1744 15.175 -956.77399
14.5178 15.5032 -956.70001
15.4149 15.3011 -956.34302
16.912201 15.0134 -956.65198
17.775101 15.4615 -957.54102
18.779699 15.296 -957.133
22.8253 15.1443 -958.09302
-28.325899 19.488501 -996.93597
-28.0797 19.233801 -994.74902
-27.9799 19.0282 -992.92902
-27.5357 19.301701 -991.27197
-27.423 19.129801 -990.07703
-27.082199 18.966801 -989.146
-26.3239 18.9611 -985.133
-26.0179 18.7952 -984.10699
-25.7013 18.6395 -983.07599
-25.3332 18.473 -982.09998
-24.7822 18.7952 -981.17297
-24.6003 18.705099 -980.64801
-24.207199 18.5406 -979.64001
-23.6782 18.354099 -978.85797
-23.275 18.1696 -977.87402
-22.824699 18.0599 -977.74701
-22.600401 18.4135 -976.39502
-22.330999 18.309 -975.97198
-21.7645 18.1122 -975.16602
-21.661301 18.033899 -974.46802
-21.2292 17.9023 -974.26501
-20.693399 18.2568 -973.25598
-19.655199 17.9186 -972.198
-19.496799 17.827999 -971.55603
-19.2195 17.733999 -971.10901
-18.1495 17.8999 -969.89502
-17.8701 17.8036 -969.41602
-17.150101 17.5963 -968.65399
-15.0776 17.555901 -966.92297
-14.027 17.3041 -966.50598
-12.6057 17.4918 -965.526
-12.5134 17.3944 -964.685
-11.6554 17.1537 -963.98798
-11.1038 17.011101 -963.83002
-10.0059 17.2668 -963.17297
-9.7197905 17.1999 -962.58502
-9.0323496 17.0357 -962.565
-8.5223398 16.8922 -962.25702
-7.9896202 16.7512 -962.02698
-7.8853102 17.271799 -961.92603
-7.4014902 17.1129 -961.61401
-7.0116 17.0158 -961.11798
-5.2435899 17.072701 -960.26898
-4.1394 16.807301 -959.66302
-2.7053199 16.9627 -959.27197
-1.8392299 16.814699 -959.41699
-1.46741 16.6887 -958.78601
-0.67346197 16.5179 -958.79999
0.88549799 16.6693 -958.466
2.11151 16.384199 -957.81299
2.93665 16.2195 -957.76703
4.8467999 16.3811 -957.72699
5.6083999 16.215401 -957.55902
6.1653399 16.0511 -957.04999
8.1196899 16.218399 -956.92401
9.2226601 15.9814 -957.11102
10.9558 16.1341 -956.35999
12.4724 15.8818 -956.995
13.0044 15.7447 -956.23999
14.9225 16.006701 -957.03198
16.067301 15.7899 -956.89502
17.495501 16.0385 -956.815
19.0424 15.7706 -957.12
20.9464 15.4517 -957.802
21.597 15.9103 -958.24701
-28.0931 20.047199 -997.66302
-28.030899 19.855301 -995.86798
-27.941799 19.598 -993.38098
-27.496 19.835699 -991.79602
-27.3057 19.632799 -990.07599
-27.0917 19.507099 -988.96301
-26.829 19.298401 -987.25897
-26.605801 19.6334 -986.02399
-26.368999 19.518101 -984.86798
-25.9797 19.308201 -983.98499
-25.570801 19.133699 -983.086
-25.0637 18.9396 -982.32898
-24.956699 19.4219 -981.52502
-24.2047 19.049299 -979.61603
-23.8797 18.8484 -978.52899
-23.197001 19.116899 -977.034
-22.5602 18.923599 -976.34998
-22.3887 18.8354 -975.77698
-21.735001 18.6217 -975.065
-21.7798 18.5758 -974.16602
-20.9918 18.35 -973.65601
-20.832399 18.796499 -972.92401
-20.3971 18.6908 -972.70697
-19.694 18.452101 -972.03699
-19.488199 18.3542 -971.45398
-19.232401 18.255301 -970.96503
-18.521999 18.719299 -970.883
-17.6777 18.24 -968.40698
-14.9714 18.1954 -967.703
-15.1259 18.1145 -966.59003
-13.7205 17.750299 -965.81799
-12.6823 18.0245 -965.19202
-12.5748 17.928699 -964.37
-11.9827 17.8043 -964.27197
-11.3688 17.6719 -964.17401
-11.0017 17.549999 -963.73199
-10.6091 17.429199 -963.31097
-9.9298697 17.7687 -963.04102
-9.4357901 17.634001 -962.79102
-8.8737202 17.511801 -962.552
-8.3544903 17.396601 -962.29401
-7.7411499 17.710899 -961.927
-7.2151499 17.593901 -961.66699
-6.7038002 17.4765 -961.354
-5.5775099 17.191601 -960.84802
-4.4356699 17.4076 -960.08698
-1.19971 17.1397 -958.93402
0.21777301 16.8493 -958.672
0.84954798 17.199699 -958.15503
1.64307 17.054501 -958.11902
2.9603901 16.729799 -957.539
4.0374098 17.086201 -957.56
4.8248901 16.876301 -957.47198
5.6687002 16.7339 -957.41101
6.3397799 16.5606 -957.05798
7.25769 16.3587 -957.052
7.5734901 16.8948 -957.23499
8.6306801 16.692801 -957.37799
9.2905903 16.530899 -956.91302
10.2139 16.358601 -956.80798
11.4706 16.6418 -956.77197
12.6301 16.434401 -956.93799
13.7266 16.222401 -956.94897
15.1223 16.5175 -956.95697
16.318701 16.2666 -956.95599
24.5455 15.9932 -959.52197
-27.9517 20.662001 -998.854
-28.0583 20.3396 -995.56897
-27.841499 20.122801 -993.95502
-27.0359 19.9328 -988.23401
-26.836201 19.788099 -987.13202
-26.429899 20.108601 -985.24402
-25.7831 19.8319 -984.01801
-25.543301 19.6975 -982.91699
-25.167601 19.5203 -981.987
-24.782101 19.8307 -981.00098
-24.687201 19.7507 -980.35303
-24.181801 19.5735 -979.54401
-23.371799 19.2288 -977.599
-22.5084 19.4814 -976.28302
-22.315001 19.386801 -975.73102
-21.711901 19.1735 -974.987
-21.6556 19.1026 -974.21301
-21.1168 18.9205 -973.336
-20.737801 19.333599 -972.92102
-20.117001 19.129101 -972.125
-19.6583 18.9797 -971.87799
-19.250401 18.896299 -971.71802
-19.098 18.8554 -971.10303
-18.6229 18.6991 -969.888
-14.8943 18.646799 -966.66498
-13.9114 18.381001 -966.23297
-13.5783 18.2605 -965.80798
-13.5494 18.2083 -964.90802
-12.6406 18.518499 -965.03601
-12.2408 18.4006 -964.65302
-11.8189 18.294901 -964.27899
-11.265 18.1276 -964.12097
-10.8766 18.0277 -963.68799
-10.2676 18.378201 -963.35602
-9.7766104 18.2565 -963.05402
-9.3945303 18.146299 -962.599
-8.8778696 18.004299 -962.33301
-7.6265898 18.2176 -961.89099
-7.0817299 18.0784 -961.63501
-6.47754 17.9519 -961.46002
-5.9909101 17.806499 -961.07397
-5.06952 17.554899 -960.29102
-1.08643 17.6856 -958.83899
0.985596 17.718901 -958.11298
1.70862 17.555099 -957.97101
2.4939599 17.4023 -957.81799
4.07654 17.600901 -957.39801
4.7769198 17.432501 -957.14099
5.5872798 17.271099 -957.013
6.6758399 17.0606 -957.30103
8.7014799 17.2363 -957.18201
9.5169697 17.0429 -956.96002
10.2942 16.879601 -956.60602
11.7551 17.1782 -956.883
12.5925 16.9755 -956.55902
14.0187 16.7188 -957.013
15.6628 16.9981 -957.38
16.8127 16.791201 -957.33002
18.8228 16.9624 -957.961
21.795 16.442699 -958.04401
22.139601 16.882601 -958.10999
24.1528 16.5485 -958.34802
-27.7059 21.067699 -998.35303
-27.594601 20.962299 -992.04303
-27.427401 20.773899 -990.263
-27.0214 20.545 -988.76801
-25.977699 20.4158 -984.46198
-25.7778 20.2696 -983.28101
-25.131001 20.011101 -982.01703
-24.541401 20.2337 -979.67401
-24.1891 20.1339 -979.39301
-23.807199 19.953199 -978.37598
-23.4391 19.767 -977.32098
-23.067301 19.679701 -977.07703
-22.374399 19.9498 -975.50598
-21.8141 19.7255 -974.68402
-21.556 19.638 -974.20599
-21.2239 19.564899 -973.85101
-20.222601 19.2218 -972.83099
-19.526699 19.494801 -971.81702
-19.183201 19.430799 -971.513
-18.871799 19.332899 -971.21002
-18.313 19.2024 -970.987
-18.3459 19.6252 -969.99701
-18.187201 19.5487 -969.24701
-14.6606 19.0336 -965.90399
-13.617 18.8363 -966.43799
-12.4106 18.992399 -965.14801
-12.0676 18.8881 -964.69702
-11.638 18.765301 -964.32599
-11.2671 18.639601 -963.901
-10.7271 18.521999 -963.67499
-10.1055 18.8631 -963.37799
-9.7614098 18.7605 -962.85498
-9.0319204 18.605499 -962.92603
-8.6926298 18.4956 -962.41901
-8.2179003 18.3605 -962.07202
-6.96771 18.558701 -961.60101
-6.4129 18.424 -961.32098
-5.2321801 18.1567 -960.91498
-4.7888799 18.535801 -960.24402
-4.1500201 18.4044 -960.00201
-1.61938 18.334299 -959.01202
-0.38885501 18.048599 -958.49701
0.379089 18.4359 -958.17499
1.81134 18.1127 -957.86401
3.41522 17.743999 -957.68799
5.1024799 17.961901 -957.33502
6.10144 17.7642 -957.50897
6.9201002 17.585699 -957.40997
7.3828702 17.4491 -956.677
7.77917 17.945101 -956.94299
8.68396 17.7875 -956.83801
9.5507803 17.584801 -956.67102
10.5519 17.4067 -956.68201
11.9811 17.680799 -956.89398
12.9247 17.511 -956.71698
13.9057 17.2927 -956.54199
15.3713 17.5278 -956.65601
16.8743 17.3018 -957.10199
18.770901 17.4921 -957.57001
20.1754 17.2104 -957.57501
-27.809799 21.196899 -993.617
-27.491899 21.473801 -992.021
-27.302299 21.2854 -990.22498
-26.8694 21.0714 -988.758
-26.446199 20.6854 -985.88501
-26.222 21.058201 -984.71399
-26.055599 20.9685 -984.22699
-25.594299 20.754101 -982.66302
-25.1021 20.5779 -981.927
-24.9056 20.3883 -980.66998
-24.436399 20.762199 -979.68701
-24.115499 20.6593 -979.37701
-23.756201 20.495399 -978.32397
-23.5292 20.418501 -977.867
-23.0562 20.235901 -976.96503
-22.6276 20.0268 -975.93298
-22.226101 20.4506 -975.51202
-21.992901 20.3627 -975.01599
-21.549999 20.1621 -973.98901
-21.022499 20.023899 -973.96802
-20.8242 19.949499 -973.40399
-20.026699 20.2465 -972.65997
-19.861 20.1738 -972.06097
-19.479099 20.080799 -971.61902
-19.3197 19.991199 -971.05402
-16.8298 19.813801 -969.17401
-14.6699 19.589001 -966.604
-14.3243 19.499701 -966.151
-13.4181 19.3407 -966.52197
-13.3201 19.2418 -965.73499
-12.3447 19.469 -965.02802
-11.8314 19.356199 -964.802
-11.5374 19.233 -964.26703
-11.0686 19.117201 -963.95898
-9.9340801 19.3437 -963.43402
-9.5353403 19.2244 -962.99103
-9.0818501 19.093 -962.63202
-8.5072002 18.963699 -962.45502
-7.9148598 19.3498 -962.06299
-7.3642602 19.2169 -961.81598
-7.0372901 19.103001 -961.229
-6.2627602 18.9601 -961.31799
-4.6266499 19.0651 -960.22302
-0.60205102 18.685101 -959.07202
-0.21539301 18.571199 -958.50098
3.6482501 18.2799 -957.77399
4.2954102 18.1485 -957.48798
5.3986201 18.4834 -957.51099
6.3512001 18.2908 -957.63599
6.9049702 18.109501 -957.08197
9.0714703 18.275101 -957.112
9.8197002 18.116199 -956.75403
10.9399 17.9123 -956.94
13.3559 17.9454 -957.021
14.5033 17.737101 -957.052
15.8353 17.971701 -957.00897
17.103001 17.753201 -957.10999
20.5173 17.6761 -957.62402
22.405199 17.905399 -957.64697
22.9797 17.2855 -958.84698
25.2684 17.434601 -958.94397
-27.7234 21.773701 -994.28198
-27.392099 22.1294 -992.58099
-27.0084 21.5916 -988.52301
-26.7024 21.437901 -987.60797
-26.4589 21.204901 -985.836
-26.2395 21.613001 -984.52502
-25.9076 21.446899 -983.547
-25.5921 21.2978 -982.526
-25.0548 21.120001 -981.86102
-24.773899 20.9293 -980.73901
-24.191999 21.210501 -979.07898
-23.726601 21.022499 -978.15802
-23.451401 20.9055 -977.79199
-22.9669 20.7465 -976.90698
-22.0149 20.957001 -975.599
-21.8755 20.8687 -974.96997
-21.3578 20.6649 -974.05499
-20.889299 20.555201 -973.94
-20.407301 20.3585 -972.93298
-19.761999 20.660801 -972.01001
-19.1968 20.525101 -971.88
-18.6479 20.3524 -971.04303
-18.3134 20.2528 -970.505
-18.298401 20.220699 -969.76898
-17.6807 20.065901 -969.79401
-15.624 20.330299 -966.82898
-14.9268 20.1945 -966.92297
-14.0482 20.0184 -967.22803
-13.2342 19.717199 -965.64801
-13.0848 19.6304 -964.91602
-12.1117 19.9541 -965.13898
-11.8326 19.8423 -964.57599
-11.41 19.7234 -964.25299
-10.9691 19.6031 -963.89899
-9.4408598 19.748199 -962.85999
-8.9545898 19.6206 -962.586
-8.4487896 19.490601 -962.30402
-7.2086201 19.716999 -961.82599
-6.3252602 19.479799 -961
-5.1529498 19.198099 -960.547
-2.11993 19.014099 -959.17999
0.113159 19.087999 -958.74701
0.60717797 18.937799 -958.27197
1.46393 18.7742 -958.31201
2.04584 18.6292 -957.94501
3.57178 18.856001 -957.38098
4.4372602 18.653099 -957.40198
7.1791401 18.666201 -957.16699
8.1058998 18.4664 -957.146
10.0473 18.587 -956.82001
11.0239 18.368 -956.758
12.2548 18.6752 -956.65503
13.4043 18.4576 -956.854
15.9719 18.5084 -956.89203
17.172501 18.2631 -956.85199
18.8316 18.485701 -957.04602
21.0226 18.1528 -958.02399
26.1357 17.928499 -959.47498
-27.6663 22.603901 -997.31097
-27.517799 22.3405 -995.03101
-27.502399 22.543301 -991.73798
-27.3256 22.342199 -990.01202
-27.092199 22.1605 -988.27301
-26.8958 22.0107 -987.17499
-25.829599 21.9814 -983.50598
-25.578699 21.8867 -983.13501
-25.231899 21.6593 -981.41998
-25.052401 21.569201 -980.92798
-24.629601 21.367399 -980.03198
-24.067801 21.6985 -979.04498
-23.4578 21.5291 -978.35199
-23.359501 21.4338 -977.69397
-22.903999 21.241199 -976.76202
-22.5956 21.152201 -976.37903
-22.212601 21.523899 -975.92999
-21.9736 21.429399 -975.44598
-21.361 21.2451 -974.64697
-20.9424 21.0581 -973.60797
-20.569401 20.951099 -973.34302
-19.6159 21.126101 -971.98602
-19.098101 21.014 -971.80103
-18.8461 20.9032 -971.35498
-18.282 20.6765 -970.28699
-14.5215 20.6406 -967.284
-14.2288 20.4886 -965.85101
-13.0469 20.197201 -965.71899
-12.7795 20.6334 -964.91998
-11.8419 20.3722 -964.39001
-11.143 20.225 -964.422
-10.8983 20.108801 -963.763
-10.3421 19.991501 -963.62201
-9.7137499 20.3864 -963.30402
-9.3526602 20.268299 -962.79303
-8.8389301 20.117399 -962.547
-7.9043002 19.864901 -961.82599
-6.48175 20.124701 -961.57703
-6.1134 19.9923 -961.07397
-5.62958 19.853001 -960.70697
-2.5074501 19.697701 -959.51099
-1.24963 19.403601 -959.07599
-0.45416301 19.760201 -958.81201
0.96777302 19.4398 -958.58301
1.50726 19.309799 -958.159
2.9442699 19.534 -957.49701
3.7960801 19.3372 -957.48798
4.69135 19.184999 -957.487
5.37958 19.0429 -957.22498
5.6218901 19.4862 -957.35303
6.4333501 19.3235 -957.211
7.3295898 19.153601 -957.10498
8.2066698 18.9424 -957.01703
9.1965904 19.2614 -956.78198
10.1358 19.0884 -956.685
11.063 18.884501 -956.55701
12.6036 19.1336 -956.93903
13.5695 18.9375 -956.78302
14.5399 18.7437 -956.51398
14.9545 19.2001 -956.80902
16.3568 18.9772 -957.13898
17.288 18.755899 -956.64301
19.6075 18.9748 -957.67999
21.091499 18.6905 -957.73401
23.2656 18.868 -957.92603
-27.4072 22.900499 -989.72803
-27.2663 22.755199 -988.52802
-26.707001 22.4681 -986.60498
-26.579 22.404301 -986.07599
-26.259199 22.6747 -984.20001
-26.104099 22.5758 -983.69299
-25.4023 22.306801 -982.50098
-25.2848 22.237499 -981.89398
-24.8172 22.076 -981.07098
-23.7363 22.121799 -978.50201
-23.2111 21.9114 -977.68701
-22.9825 21.823601 -977.24402
-22.754801 21.7474 -976.74902
-22.1392 22.028099 -975.80298
-21.642 21.8431 -974.88098
-21.318501 21.7244 -974.52301
-21.014 21.6346 -974.133
-19.9597 21.8218 -972.93799
-19.528 21.684999 -972.73901
-19.508699 21.599701 -971.93201
-18.373301 21.3447 -971.04303
-18.326599 21.281401 -969.98102
-17.404301 21.4939 -969.49298
-16.6998 21.757099 -968.45203
-14.8726 21.3048 -967.45599
-14.77 21.2034 -966.74298
-14.2037 21.0093 -965.67999
-12.9563 20.7155 -965.59998
-11.9454 20.9897 -964.95203
-10.975 20.718901 -964.43701
-10.7244 20.635 -963.80701
-9.5275898 20.905199 -963.31799
-9.1919603 20.780199 -962.789
-7.6388502 20.3936 -961.99103
-6.96069 20.781099 -961.71997
-4.7571998 20.2428 -960.65601
-3.00861 20.368601 -959.60901
-1.01227 19.8932 -959.17902
0.37451199 20.127399 -958.60901
1.02979 19.968 -958.39001
1.8822 20.3388 -958.19202
1.65503 19.8234 -958.09601
3.9860799 19.850401 -957.53101
4.9202299 20.148899 -957.32202
5.8855 19.9673 -957.47998
6.8010302 19.782101 -957.45099
7.6546001 19.5919 -957.34497
8.4068604 19.4464 -957.026
9.4206495 19.7691 -956.82001
10.2963 19.569599 -956.60602
11.3011 19.3869 -956.604
12.7404 19.6168 -956.83398
13.6938 19.4154 -956.63702
16.722799 19.438999 -957.29102
17.979401 19.2246 -957.33197
-27.6299 23.368799 -993.979
-27.361099 23.6017 -990.99701
-27.1984 23.4289 -989.90002
-27.240101 23.3176 -988.42102
-26.3132 22.739 -984.85101
-25.820601 23.068399 -983.89502
-25.554399 22.8836 -982.77197
-25.3605 22.813801 -982.32098
-24.790899 22.5327 -980.90302
-24.1696 22.8421 -980.01501
-24.053301 22.7637 -979.40302
-23.694799 22.594 -978.32898
-23.360201 22.4851 -978.04602
-22.694 22.7822 -977.23999
-22.512699 22.7043 -976.68402
-21.9811 22.5142 -975.83502
-21.6493 22.3801 -975.48401
-21.0739 22.1905 -974.672
-20.873199 22.0982 -974.112
-20.452299 22.4886 -973.67798
-19.954201 22.317301 -972.737
-19.2845 22.0961 -972.04602
-18.4513 21.8578 -971.51501
-18.287901 21.822901 -970.92603
-17.946301 22.160101 -970.172
-14.8691 21.8092 -967.25403
-14.4293 21.6959 -967.01801
-13.9637 21.568701 -966.69397
-12.631 21.742701 -965.63702
-11.6179 21.467899 -965.19299
-10.8379 21.2666 -964.422
-10.4562 21.1404 -963.97998
-9.4157696 21.421 -963.24103
-8.8570604 21.2932 -963.04797
-8.4822397 21.1817 -962.59302
-7.9621601 21.0404 -962.315
-7.5629902 20.928699 -961.87402
-6.3223901 21.188 -961.354
-5.5134902 21.531 -961.25201
-4.65692 20.7526 -960.57001
-2.1665599 20.725901 -959.51898
-1.06378 20.4438 -958.84198
-0.0080566397 20.753599 -958.98999
0.44988999 20.615601 -958.48999
1.14288 20.491699 -958.31598
2.6549101 20.6374 -957.82202
3.3324599 20.506599 -957.57599
5.0644498 20.631399 -957.29797
6.1052198 20.4415 -957.50403
7.3983202 20.1464 -956.664
8.71661 20.412701 -957.00201
9.83636 20.206301 -957.16803
10.8012 20.024401 -957.06598
11.8073 19.848101 -957.06799
12.9127 20.158899 -956.80103
14.2223 19.943399 -957.10797
15.068 19.759399 -956.67297
16.723301 20.017799 -956.90601
18.253 19.739901 -957.237
19.5369 19.4727 -957.19897
21.462799 19.758101 -957.16699
23.7264 19.367901 -957.94397
24.933901 19.8067 -959.18402
-27.634501 24.2253 -996.90997
-27.6451 23.965799 -994.44098
-27.221901 23.919001 -989.71399
-26.981899 23.7568 -988.68201
-26.895599 23.633699 -987.40399
-26.3561 23.411699 -986.05402
-25.974701 23.7069 -984.94
-25.7397 23.557699 -983.78198
-25.505899 23.4718 -983.35901
-25.187901 23.2948 -982.35699
-24.646999 23.5959 -981.42603
-24.2465 23.4293 -980.453
-23.8594 23.252199 -979.45502
-23.639601 23.178801 -979.00897
-23.2521 22.9853 -977.98297
-22.272499 23.166201 -976.81097
-22.1733 23.097 -976.13397
-21.590401 22.883101 -975.37
-20.9758 22.669001 -974.59998
-20.7034 23.1248 -973.896
-20.310699 23.004 -973.64398
-19.784901 22.832199 -972.75403
-19.2321 22.690901 -972.72101
-19.109301 22.5937 -972.02197
-18.6765 22.5051 -971.789
-17.5569 22.745001 -970.508
-17.8137 22.1322 -969.52899
-16.8141 22.463499 -970.01398
-16.6926 22.256001 -968.255
-12.9778 21.8473 -966.086
-12.4174 22.275101 -965.72699
-12.3276 22.183001 -964.901
-11.5782 22.038401 -964.987
-11.3214 21.9368 -964.43701
-10.7194 21.7834 -964.35901
-10.4302 21.688 -963.76001
-9.7602501 22.064199 -963.52301
-9.3185396 21.9349 -963.16803
-8.8548603 21.814199 -962.82599
-8.3342896 21.705099 -962.58301
-8.0155001 21.5877 -961.98401
-6.1560102 21.6845 -961.37299
-2.22668 21.7423 -958.95099
-1.5141 21.087999 -959.078
1.52826 21.439899 -958.39502
2.09161 21.291201 -957.99799
2.79456 21.1406 -957.78302
3.56549 20.959299 -957.62598
4.46246 20.7985 -957.68903
6.2003798 20.930599 -957.414
6.7837501 20.809799 -956.92102
7.67664 20.630199 -956.86102
8.9675903 20.940599 -957.08899
10.9297 20.566 -956.97699
13.1533 20.6467 -956.82703
13.9756 20.4874 -956.409
15.7064 20.780899 -956.87097
17.0165 20.525 -957
18.7264 20.2246 -957.63202
20.344999 20.507799 -957.44098
22.555799 20.1619 -958.31201
-27.592699 24.528601 -995.02197
-27.381201 24.724199 -991.96899
-27.0467 24.380301 -989.79797
-26.666401 24.112101 -987.53003
-26.242701 24.448999 -986.487
-26.0093 24.2827 -985.38
-25.584299 24.0392 -983.79602
-25.4084 23.9345 -983.284
-24.585199 24.0984 -981.27197
-24.187201 23.9154 -980.315
-23.903099 23.82 -979.953
-23.495701 23.6695 -978.979
-22.986 23.4701 -978.14899
-22.6005 23.8787 -977.69897
-22.2255 23.695101 -976.63501
-22.0476 23.610001 -976.07898
-21.7125 23.499701 -975.77197
-21.181601 23.2992 -974.909
-20.814501 23.202801 -974.604
-20.170799 23.5021 -973.63501
-19.923 23.4174 -973.16199
-19.2285 23.2024 -972.48999
-19.0361 23.101 -971.96399
-18.6089 22.9893 -971.67798
-18.132 23.379601 -971.31097
-18.028 23.2579 -970.67499
-17.1667 23.121599 -969.14398
-13.6656 22.621099 -966.67102
-13.682 22.532499 -965.776
-12.4137 22.788601 -965.46399
-12.0884 22.6984 -964.98499
-11.3398 22.4657 -964.18799
-10.6182 22.331699 -964.25098
-10.3342 22.188999 -963.66602
-9.7053804 22.594999 -963.35101
-9.2492104 22.4659 -963.052
-8.6967802 22.3353 -962.80798
-8.29883 22.2307 -962.383
-7.64709 22.082199 -962.30499
-6.4970698 22.315399 -961.71899
-5.9660602 22.152599 -961.42902
-5.5075102 22.0644 -961.03101
-4.92554 21.905001 -960.797
-4.4360399 21.7668 -960.40802
-4.3043199 22.2736 -960.38702
-3.74036 22.139099 -960.12402
-0.65075701 21.9156 -958.77698
0.085632302 21.7479 -958.66901
0.87188703 21.592199 -958.66101
2.49353 21.747999 -958.35797
3.00244 21.636999 -957.85797
3.7620201 21.4396 -957.70898
4.5425401 21.261 -957.54999
6.30896 21.4807 -957.24902
7.22577 21.3109 -957.30902
8.0216103 21.120199 -957.06201
8.4346304 21.609699 -957.40198
9.1070604 21.478399 -957.00897
10.1909 21.266899 -957.09399
11.1004 21.0711 -956.91302
12.1859 21.391001 -956.71301
13.5197 21.1581 -957.03497
14.7552 20.967699 -957.25098
17.212799 21.0453 -956.88599
18.732 20.825001 -957.24902
20.640499 21.0191 -957.45801
22.842699 20.677099 -958.34302
25.2694 20.8067 -958.41901
-27.614 25.1717 -996.052
-27.587799 24.9242 -993.59601
-27.234301 25.183901 -991.99799
-27.0709 24.964399 -990.18402
-26.841999 24.816401 -989.15198
-26.2328 25.005899 -986.987
-26.002001 24.8538 -985.88098
-25.8053 24.6849 -984.703
-25.4858 24.519699 -983.703
-24.8328 24.2693 -982.45203
-24.2304 24.510401 -980.79102
-23.7616 24.314699 -979.94202
-23.407801 24.1602 -978.89398
-23.201799 24.0888 -978.388
-22.3529 24.2787 -977.01801
-21.861099 24.099899 -976.12402
-21.638399 24.0105 -975.63702
-21.257401 23.9142 -975.36499
-20.4645 24.116699 -973.80701
-19.6145 23.9137 -973.42102
-19.4415 23.826401 -972.81299
-18.816799 23.632601 -972.06097
-18.4671 23.503099 -971.60699
-17.2512 23.743799 -969.698
-16.606199 23.489401 -968.78198
-16.191 23.398701 -968.422
-13.8221 23.2432 -967.15198
-12.9325 22.9512 -965.64801
-12.3065 23.312799 -965.41901
-12.0726 23.2129 -964.80701
-11.1224 23.047701 -965.22498
-11.1284 22.9891 -964.26599
-10.6862 22.8447 -963.91498
-10.0469 23.206699 -963.625
-9.5008497 23.0672 -963.43402
-9.1270103 22.957001 -963.01202
-8.6713305 22.8262 -962.62299
-7.7144799 22.567101 -961.98999
-6.8306899 22.9226 -962.01202
-6.5325899 22.802299 -961.44897
-5.7206402 22.634501 -961.55701
-4.9239502 22.416401 -960.57599
-4.16608 22.756701 -960.36902
-3.59131 22.5949 -960.12701
-3.1322 22.470699 -959.67102
-2.4640501 22.3167 -959.53699
-1.6443501 22.6782 -959.35303
-1.11981 22.525101 -959.00598
-0.42401099 22.3759 -958.87097
1.0115401 22.096701 -958.59198
1.79724 22.433201 -958.26202
3.22559 22.128201 -957.94598
3.84796 22.005699 -957.54999
4.6989698 21.808399 -957.534
5.6718798 22.1579 -957.39502
6.3735399 21.9884 -957.06598
9.2368202 21.9937 -956.909
10.19 21.814501 -956.815
12.3748 21.9566 -956.685
13.408 21.748501 -956.55499
16.4699 21.7819 -957.35699
18.103901 21.5378 -957.77002
18.8771 21.328199 -957.021
21.438499 21.4881 -958.12799
24.0814 21.626499 -959.05798
-27.3365 25.951 -994.19202
-27.136999 25.713301 -991.85797
-26.962601 25.5392 -990.77502
-26.8762 25.417299 -989.53198
-26.450899 25.1749 -988.07599
-25.8834 25.366699 -985.815
-25.355801 25.114799 -984.39697
-25.2892 25.033001 -983.74402
-24.569 24.692301 -981.828
-24.1024 25.0278 -980.745
-23.639799 24.846201 -979.888
-23.527201 24.756599 -979.24701
-23.125401 24.577999 -978.26202
-22.892599 24.483 -977.81
-22.206499 24.8221 -977.01001
-22.0126 24.723 -976.47803
-21.4396 24.529301 -975.68903
-21.124201 24.4011 -975.36798
-20.610399 24.235901 -974.44702
-20.1873 24.6439 -973.995
-19.577801 24.453899 -973.23999
-19.3472 24.367701 -972.70001
-18.9095 24.2624 -972.49902
-18.2493 24.0289 -971.71002
-18.035 23.9666 -971.185
-17.670099 23.900801 -970.95099
-16.405701 24.0672 -969.92902
-15.9434 23.8515 -968.67798
-15.1986 23.508801 -966.953
-13.826 23.775499 -966.96399
-11.8745 23.6884 -964.91803
-11.2115 23.5443 -964.87402
-11.0279 23.450899 -964.20502
-10.5034 23.3398 -963.935
-9.4373798 23.5711 -963.31097
-9.0209398 23.4464 -962.935
-8.4317598 23.3071 -962.75098
-7.94067 23.196301 -962.474
-7.51617 23.068399 -962.05902
-5.71136 23.1556 -961.33698
-5.1863999 23.0135 -961.06
-4.6892099 22.882 -960.698
-3.98792 23.2535 -960.38
-3.4853499 23.1227 -960.04498
-0.79602098 23.0399 -959.21899
0.60742199 22.746901 -958.93903
1.05804 22.6103 -958.40997
2.57233 22.297701 -958.245
3.48438 22.6264 -958.03998
4.1849399 22.471901 -957.75598
4.6670499 22.341299 -957.21997
5.7843599 22.6989 -957.32098
6.73663 22.5397 -957.33099
7.6024799 22.312099 -957.30902
8.4122295 22.1523 -957.05603
9.3786602 22.4993 -956.828
10.2674 22.3277 -956.64099
11.6847 22.092699 -957.19098
13.8633 22.2453 -956.93402
16.793699 22.283701 -957.41699
18.0408 22.064699 -957.37903
19.5774 21.8034 -957.65399
-27.177299 26.4867 -994.13202
-27.108601 26.353399 -992.94598
-26.8594 26.135401 -991.35699
-26.73 25.9028 -989.50098
-26.572399 25.7745 -988.30902
-26.078199 26.035801 -986.71002
-25.7404 25.8657 -985.78198
-25.4951 25.671499 -984.68402
-25.167101 25.533501 -983.68402
-24.8246 25.3526 -982.69897
-23.968399 25.558901 -980.69299
-23.648899 25.454599 -980.409
-23.4025 25.2764 -979.19897
-23.107401 25.187401 -978.867
-22.619499 24.9904 -977.97998
-21.279499 25.0431 -975.71002
-20.9695 24.9366 -975.341
-20.8041 24.853701 -974.73901
-19.7449 25.0648 -973.55603
-19.6371 24.981899 -972.88202
-18.7271 24.735701 -972.534
-18.796801 24.677601 -971.60602
-17.9776 24.4564 -971.086
-17.056999 24.717199 -970.354
-13.5647 24.232401 -967.117
-12.9492 24.0201 -966.10602
-12.3533 24.3869 -965.823
-11.9474 24.275801 -965.51202
-10.9081 23.9377 -964.12903
-10.3047 23.8151 -964.04602
-8.9128399 23.929899 -962.87097
-8.4197397 23.783501 -962.547
-7.9341998 23.6745 -962.23901
-6.7838702 23.908501 -961.67401
-6.13867 23.7675 -961.54999
-5.0798302 23.500799 -960.95203
-4.4994502 23.386801 -960.71399
-3.3873301 23.635099 -959.95697
-2.7839999 23.456699 -959.69897
-1.69489 23.212099 -959.04498
0.623474 23.2616 -958.74103
2.1024799 22.941401 -958.47101
2.7058101 23.378901 -957.854
3.4021001 23.195101 -957.66498
4.3046298 23.0144 -957.69098
5.9746699 23.2349 -957.27698
6.7517099 23.0639 -957.07703
7.75348 22.870501 -957.19598
8.7149 22.6863 -957.21198
10.4885 22.8727 -956.66199
11.7066 22.6217 -956.935
12.6716 22.451599 -956.75403
14.7347 22.591101 -956.20697
18.056801 22.553499 -957.01703
19.679001 22.7862 -957.138
22.0651 22.436899 -958.17603
-27.154699 26.854099 -997.97699
-27.1453 26.6777 -996.11798
-26.934401 26.9184 -993.61603
-26.771999 26.6749 -991.90698
-26.620399 26.476999 -990.078
-26.433901 26.3421 -988.99298
-26.119301 26.124701 -987.35699
-25.754601 26.4659 -986.23297
-25.436501 26.314699 -985.26398
-25.2026 26.1488 -984.12903
-24.813 25.9664 -983.21698
-24.540501 25.799 -982.12903
-23.540501 25.9715 -980.31598
-23.240499 25.774401 -979.21698
-22.9387 25.708599 -978.86499
-22.524799 25.523899 -977.896
-22.3379 25.434 -977.37903
-21.5264 25.752501 -976.75
-21.346001 25.666599 -976.19702
-21.139799 25.5576 -975.66498
-20.700399 25.373501 -974.67902
-20.2132 25.1917 -973.70502
-19.3972 25.496401 -973.03302
-18.5979 25.2764 -972.47302
-18.3967 25.201099 -972.05103
-18.1908 25.072599 -971.31097
-17.1171 24.679501 -969.479
-16.5986 25.044399 -969.16602
-13.7058 24.7521 -966.698
-13.2754 24.640499 -966.34601
-11.5068 24.652901 -965.005
-11.0079 24.528601 -964.74597
-10.1686 24.295401 -964.01801
-9.8406401 24.1614 -963.534
-9.0792198 24.5263 -963.39398
-8.7656298 24.404301 -962.85699
-8.25488 24.2766 -962.57898
-7.7473102 24.158899 -962.31299
-7.3682899 24.043699 -961.828
-5.9580102 24.2929 -961.56702
-5.6269498 24.1691 -960.99103
-4.5874 23.9114 -960.35602
-3.74054 24.286501 -960.26703
-0.67053199 24.104 -958.90802
-0.179077 23.9557 -958.505
0.810242 23.788 -958.73798
1.83832 23.500601 -957.828
3.5184901 23.7269 -957.59698
4.3035302 23.5627 -957.466
4.98804 23.421101 -957.14697
7.23352 23.5354 -957.54199
7.8457599 23.368099 -957.07098
8.7039204 23.236 -956.94598
10.7289 23.379499 -956.71002
11.8254 23.1637 -956.80902
15.3587 23.0296 -956.80603
16.8624 22.806601 -957.21399
18.7325 22.982401 -957.68402
22.3936 22.9508 -958.341
25.365601 23.0119 -959.26801
-27.051901 27.1092 -995.35999
-26.798201 27.433599 -993.55402
-26.733601 27.2946 -992.341
-26.5646 27.084801 -990.59601
-26.225401 26.847401 -989.07599
-26.091101 26.6996 -987.854
-25.2999 26.822399 -985.211
-25.0427 26.667 -984.10498
-24.7435 26.4986 -983.07703
-23.9028 26.684299 -981.08197
-23.463301 26.488899 -980.18701
-23.2927 26.4097 -979.664
-22.7943 26.228701 -978.841
-22.622499 26.1322 -978.29498
-22.0891 25.953501 -977.51099
-21.4263 26.177401 -975.84802
-20.9827 26.0723 -975.68597
-20.676201 25.915001 -974.47998
-20.0359 25.700701 -973.75702
-19.4834 25.572201 -973.75
-19.204599 25.965 -973.10797
-19.0842 25.884199 -972.44397
-18.479601 25.7005 -971.66803
-17.974501 25.564699 -971.435
-17.415001 25.3622 -970.61902
-16.2642 25.690599 -969.41498
-13.9927 25.372101 -966.95801
-13.7129 25.241501 -966.47998
-12.1204 25.3591 -965.75201
-11.7931 25.2696 -965.302
-10.8542 25.0105 -964.75201
-10.7864 24.9244 -963.862
-10.1311 24.776899 -963.85498
-9.5147696 24.6318 -963.776
-9.0809298 25.035601 -963.16101
-8.5682402 24.944401 -962.91901
-8.0562096 24.784401 -962.65302
-7.6701002 24.6884 -962.185
-7.0324101 24.542299 -962.10101
-6.5159898 24.9268 -961.59399
-5.9623399 24.823799 -961.37201
-4.7864399 24.5198 -960.96802
-4.3123798 24.409901 -960.51898
-3.05023 24.6464 -959.97198
-1.82239 24.374399 -959.49799
-1.1203001 24.208599 -959.41699
-0.411865 24.5975 -959.06
0.28595001 24.457199 -958.91998
0.87677002 24.332001 -958.56897
2.19611 24.0263 -958.15503
3.13818 23.8463 -958.24597
3.90253 24.2243 -957.87201
5.2568402 23.9084 -957.27899
6.15729 23.742201 -957.31799
7.8868999 23.931999 -956.888
8.8952599 23.7437 -956.94397
9.79352 23.567699 -956.80402
10.9327 23.8715 -956.77502
14.5051 23.741501 -956.91901
15.8253 23.518499 -957.14099
20.3743 23.263 -957.60101
20.920099 23.679899 -958.00598
-26.784401 27.889299 -997.96997
-26.729099 28.039101 -994.01001
-26.506701 27.882099 -993.099
-26.120399 27.445601 -989.65802
-25.9573 27.233601 -987.78802
-25.4877 27.6038 -986.84399
-25.0839 27.3228 -985.302
-24.894899 27.253599 -984.84399
-24.606001 27.0107 -983.04498
-24.184401 26.8389 -982.17999
-23.6882 27.1877 -981.16602
-23.536699 27.0898 -980.61499
-23.1805 26.9282 -979.57599
-22.9147 26.8216 -979.21698
-22.466101 26.660299 -978.289
-21.677 26.8449 -976.89899
-21.3158 26.7377 -976.59302
-20.689301 26.4771 -975.07501
-20.633101 26.3867 -974.34198
-19.8473 26.6604 -973.61298
-19.147301 26.4557 -972.95398
-19.039101 26.365601 -972.30103
-18.358601 26.171499 -971.60602
-17.7003 26.0369 -971.651
-17.0581 26.3571 -970.76001
-16.1292 26.105801 -969.28601
-13.5437 25.7236 -966.54797
-12.7451 25.514799 -965.79498
-11.5803 25.7705 -965.38898
-11.3716 25.680099 -964.71899
-10.4391 25.4265 -964.14203
-9.9618502 25.3102 -963.86401
-9.19629 25.677299 -963.77002
-8.9399405 25.5737 -963.14801
-8.5120201 25.4524 -962.77301
-7.8973999 25.312201 -962.64801
-7.3288002 25.1866 -962.487
-7.1037002 25.079 -961.74701
-6.2888198 25.448299 -961.67999
-5.2413301 25.1889 -961.112
-4.2937598 24.955999 -960.33002
-3.4112501 25.3144 -960.28802
-1.7334599 24.921301 -959.38397
-1.28253 24.780701 -958.92798
0.15856899 25.0084 -958.48401
1.0321701 24.8251 -958.547
2.31903 24.5632 -958.03802
3.20856 24.358299 -958.12
3.8328199 24.7624 -957.54901
4.8147602 24.5877 -957.67499
5.6594801 24.4125 -957.65503
7.2280898 24.0819 -957.263
8.2731895 24.393 -957.177
9.0795298 24.221201 -956.91699
10.0838 24.0371 -956.98602
14.9651 24.2054 -957.26599
16.133499 24.024599 -957.33002
17.128401 23.822001 -956.93799
17.582899 24.255501 -957.29901
18.942699 24.027901 -957.21198
23.5396 23.8822 -958.92499
-26.439301 28.6779 -995.45801
-26.2684 28.201599 -991.20001
-26.094601 28.049601 -990.104
-25.857599 27.821301 -988.36902
-25.4606 28.108801 -986.62
-25.0935 27.934 -985.75598
-24.923 27.7813 -984.54401
-24.552401 27.6194 -983.64001
-24.2258 27.4503 -982.633
-23.8153 27.752399 -981.50598
-23.535299 27.643 -981.16901
-23.142599 27.4751 -980.21802
-22.2621 27.110201 -978.40802
-21.9634 27.513901 -977.81799
-21.7778 27.4296 -977.28601
-21.1752 27.221399 -976.59698
-20.6248 27.0215 -975.76202
-20.465401 26.936001 -975.19598
-19.850599 26.7659 -974.41602
-18.965599 26.933901 -973.03003
-18.799 26.852301 -972.42798
-18.213699 26.646601 -971.64899
-17.381901 26.909401 -970.84198
-17.000999 26.817499 -970.62402
-16.6262 26.667601 -969.36102
-15.0613 26.2696 -968.88702
-12.8281 26.081499 -966.38599
-11.554 26.271299 -965.21899
-10.486 26.032101 -964.81702
-10.2733 25.930901 -964.19702
-9.7764301 25.802601 -963.92902
-9.3322802 26.218901 -963.33398
-8.7228403 26.0846 -963.24402
-8.2039804 25.9589 -962.979
-7.2462802 25.6985 -962.367
-5.8436899 25.348101 -961.29498
-5.0722699 25.722799 -961.11499
-4.7402301 25.6304 -960.52899
-4.18713 25.491501 -960.23901
-1.74927 25.4716 -959.14001
-0.86975098 25.2498 -959.29602
0.045776401 25.630699 -959.24701
1.20099 25.3668 -958.58801
1.74164 25.229799 -958.172
2.44592 25.1001 -957.99701
3.3247099 24.9091 -958.05499
4.24786 25.2372 -957.87201
4.90344 25.0877 -957.539
5.83148 24.9223 -957.62201
6.5394902 24.743601 -957.323
7.4177198 25.070299 -957.03802
8.2695303 24.902599 -956.92902
9.2303495 24.7155 -956.896
10.4052 24.532499 -957.16803
12.3632 24.6458 -956.72101
13.5235 24.4643 -956.84998
13.8387 24.9007 -957.03101
15.1394 24.695499 -957.27301
16.425301 24.5007 -957.35999
17.678801 24.8134 -957.04797
19.731001 24.5107 -958.02399
20.948601 24.2104 -957.716
-26.3638 29.259501 -995.90399
-26.2069 28.9167 -993.01801
-26.0938 28.6957 -991.198
-25.8283 28.4916 -989.58801
-25.3431 28.6483 -987.289
-24.896601 28.380899 -985.84198
-24.869101 28.327999 -985.146
-24.435499 28.106001 -983.58301
-23.7216 28.2999 -982.17798
-23.3466 28.1444 -981.23102
-23.0483 27.954599 -980.13202
-22.644699 27.794701 -979.17297
-22.319901 28.192499 -978.64099
-21.7173 27.9144 -977.16101
-20.9377 27.7188 -976.72699
-20.3792 27.503201 -975.92297
-20.3771 27.432899 -975.086
-20.1136 27.8416 -974.44397
-19.693199 27.6404 -973.39099
-19.153601 27.5273 -973.341
-18.968 27.445801 -972.79999
-18.0767 27.202499 -972.396
-18.072599 27.1436 -971.62799
-17.531401 27.005199 -971.39398
-15.8215 27.196699 -969.409
-15.1684 26.792999 -968.43903
-11.6042 26.898899 -965.81702
-11.4904 26.8127 -965.04901
-10.454 26.562099 -964.646
-9.7036695 26.3423 -963.789
-9.1379995 26.742701 -963.38202
-8.6722403 26.633499 -963.07703
-8.1554003 26.503099 -962.80103
-7.64996 26.374399 -962.52301
-7.2775898 26.256001 -962.05298
-6.67523 26.120701 -961.90399
-5.43787 26.3668 -961.41101
-4.83429 26.206301 -961.22302
-3.8484499 25.9851 -960.51501
-2.5378399 26.213301 -959.98297
-0.78106701 25.8064 -959.159
1.24719 25.8522 -958.38501
2.0497401 25.698601 -958.40601
2.7651401 25.564199 -958.203
3.5964999 25.8715 -957.93701
4.4514799 25.7255 -957.92297
5.2486 25.547701 -957.836
6.0089698 25.4055 -957.63397
6.83606 25.707399 -957.284
11.7327 25.321699 -957.07001
12.6661 25.1451 -956.888
15.087 25.2507 -956.83899
16.4107 25.0084 -957.07501
19.509199 25.018101 -957.34802
21.391701 24.7593 -957.88202
21.963301 25.172501 -958.328
23.385201 24.959499 -957.78101
-26.2241 29.807301 -996.47198
-26.0497 29.5368 -994.26898
-26.028099 29.2623 -991.716
-25.7444 29.663099 -991.26001
-25.6672 28.8888 -988.88202
-25.3769 29.2255 -987.67499
-24.6644 28.8013 -985.24103
-24.4552 28.6423 -984.05603
-24.0116 28.983 -982.987
-23.5574 28.788401 -982.20697
-23.235399 28.6346 -981.16803
-23.151199 28.5429 -980.51801
-22.7027 28.376801 -979.62799
-22.100201 28.67 -978.76099
-22.021099 28.5797 -978.08398
-21.6028 28.416201 -977.125
-20.9095 28.225201 -976.51703
-20.9037 28.1245 -975.75403
-20.2938 27.9296 -975.013
-19.9711 28.356899 -974.435
-19.4709 28.2321 -974.30603
-19.0625 28.060699 -973.21503
-18.728901 27.9491 -972.88202
-18.5401 27.8748 -972.34601
-18.073099 27.6772 -971.341
-17.4095 27.5117 -971.38202
-17.083401 27.9974 -970.81
-16.146099 27.8351 -970.34998
-16.239901 27.762899 -969.41998
-15.6429 27.5968 -969.44501
-14.4981 27.792299 -968.914
-12.4653 27.1273 -966.46698
-11.4678 27.4326 -965.75
-11.0939 27.318501 -965.409
-10.2892 27.094801 -964.638
-9.9639301 26.9765 -964.16302
-9.4970102 26.865601 -963.86603
-9.0338097 27.2624 -963.323
-8.62885 27.149401 -962.89398
-7.9155302 27.0056 -962.96198
-7.5451698 26.903799 -962.46503
-7.1709599 26.7822 -961.979
-6.0103102 26.506599 -961.63599
-5.2758198 26.882401 -961.44
-4.8846998 26.7799 -960.93597
-4.3346601 26.6399 -960.68903
-3.14886 26.852501 -960.01398
-1.95477 26.579201 -959.492
-0.72735602 26.3083 -959.021
0.234009 26.646601 -959.06403
0.78613299 26.5065 -958.69702
1.30835 26.3652 -958.284
2.1821301 26.1945 -958.35797
2.8121901 26.0278 -958.03802
3.14606 26.511 -958.31299
4.27563 26.224501 -957.47198
5.4618502 26.0284 -957.85901
6.0061598 25.903299 -957.39301
11.6877 25.8365 -956.69202
13.0865 25.6108 -957.20599
14.4376 25.9338 -957.24902
15.1528 25.739599 -956.604
16.615 25.494699 -956.94299
18.138201 25.8284 -956.94
22.508301 25.7216 -958.48199
-25.8801 30.181601 -996.16498
-25.5604 30.0893 -990.60101
-25.4622 29.9445 -989.38898
-25.1744 29.7061 -987.76099
-24.9086 29.5214 -986.76599
-24.741301 29.390499 -985.60699
-24.4398 29.227699 -984.58002
-23.914801 29.4741 -982.91199
-23.7307 29.3531 -982.42902
-23.371201 29.215 -981.48199
-22.9433 29.0263 -980.61401
-22.633499 28.849199 -979.52197
-22.198601 29.287001 -979.14502
-21.885201 29.098499 -978.034
-21.3543 28.9279 -977.25
-21.1194 28.823999 -976.81598
-20.867201 28.6441 -975.565
-20.1691 28.4524 -974.95398
-19.8461 28.858999 -974.38
-19.3876 28.7658 -974.19702
-18.782301 28.5693 -973.41101
-18.6803 28.4576 -972.75403
-18.494101 28.382601 -972.17999
-17.8727 28.1637 -971.422
-16.6724 28.296 -970.41998
-16.2726 28.2451 -969.92499
-12.415 28.2752 -967.026
-11.022 27.8368 -965.26898
-10.9138 27.760799 -964.50598
-10.2086 27.591499 -964.52802
-10.0037 27.517799 -963.88202
-9.3622398 27.3986 -963.83099
-8.7592201 27.7766 -963.49902
-7.9830899 27.5347 -962.64301
-6.8333702 27.288099 -962.25299
-5.8408799 27.5298 -961.43103
-5.2733798 27.398199 -961.20001
-4.7601299 27.2619 -960.89899
-4.3689599 27.149 -960.38898
-3.51703 26.9764 -960.54999
0.18725599 27.123199 -958.77197
0.99493402 26.9848 -958.75098
1.49683 26.8582 -958.30798
2.1807301 26.689899 -958.104
3.11255 27.0219 -958.03003
3.98248 26.8531 -958.07397
4.5856299 26.7066 -957.664
10.9468 26.552299 -956.867
11.7336 26.3554 -956.53601
13.127 26.160299 -956.98499
14.5632 26.485399 -957.10901
15.9965 26.2169 -957.50598
16.881701 26.0439 -957.026
18.923201 26.3046 -957.66803
20.424 26.010099 -957.85901
24.797501 25.9212 -958.67499
-25.7715 30.5627 -994.81201
-25.620701 30.9328 -993.52002
-25.5333 30.648199 -991.04797
-25.3328 30.506399 -990.03302
-25.0509 30.2579 -988.40399
-24.892 30.1108 -987.25201
-24.657 29.8899 -985.46698
-24.128401 30.228001 -984.591
-23.5424 29.905899 -982.479
-23.237 29.735201 -981.43597
-22.627399 29.4526 -980.07397
-21.775 29.6136 -977.96301
-21.6141 29.523899 -977.40198
-21.258699 29.419701 -977.16302
-20.5683 29.1591 -975.76398
-20.1409 29.053801 -975.59601
-19.850599 29.483 -974.94702
-19.2001 29.252199 -974.245
-19.2866 29.191099 -973.31799
-18.497299 28.975599 -972.77802
-17.744301 28.7714 -972.172
-16.7733 29.0313 -970.83801
-16.4252 28.9657 -970.54602
-16.1201 28.8085 -969.90198
-15.4957 28.608 -969.245
-14.8433 28.427601 -968.20801
-12.4547 28.2027 -966.03497
-12.058 28.617701 -965.45502
-10.9287 28.355499 -965.203
-10.962 28.279499 -964.23999
-9.9769297 28.142799 -964.65002
-9.6787701 28.016001 -964.13202
-9.2230797 28.3741 -963.60999
-8.64783 28.2568 -963.45801
-8.3685904 28.156601 -962.85797
-7.84375 28.015301 -962.62598
-7.27075 27.8808 -962.42603
-6.7516499 27.758101 -962.15601
-5.6041298 28.0142 -961.56201
-5.1616201 27.882 -961.12701
-4.7133799 27.763 -960.73901
-3.38342 27.9666 -960.29102
-2.86011 27.852501 -959.953
0.30468801 27.6437 -958.72198
1.05469 27.488899 -958.63397
2.4685099 27.672501 -958.06097
4.07898 27.387501 -957.927
10.2234 27.258801 -956.97101
11.175 27.0529 -956.85699
12.1078 26.867399 -956.755
14.4435 27.0026 -956.63202
15.8613 26.7929 -956.93402
17.505899 26.5539 -957.52802
20.7089 26.545601 -957.85199
22.1861 26.2873 -957.573
-25.522499 31.3265 -997.36401
-25.671 30.867201 -992.79303
-25.583 30.7244 -991.64697
-25.1987 31.0112 -989.96997
-24.985201 30.789499 -988.24799
-24.9009 30.7239 -987.68799
-24.5804 30.4993 -986.05402
-24.1929 30.8375 -984.94202
-23.7232 30.575001 -983.45203
-23.5881 30.4991 -982.901
-23.079201 30.236099 -981.46198
-22.9055 30.153799 -980.974
-22.434299 29.9554 -980.13202
-21.9377 30.307899 -979.05402
-21.642099 30.1954 -978.72101
-21.267401 30.038401 -977.68597
-21.1654 29.936501 -977.06897
-20.6185 29.752399 -976.26501
-20.0364 29.5609 -975.5
-19.0256 29.7722 -974.28302
-19.068899 29.7034 -973.38
-18.339899 29.5005 -972.79401
-18.2113 29.4184 -972.13098
-17.6373 29.2747 -972.13098
-17.564199 29.204599 -971.40997
-16.3034 29.4198 -970.50201
-15.8831 29.238199 -969.26202
-15.2086 29.1108 -969.37299
-13.7317 29.051901 -966.67401
-12.5672 28.8237 -966.57202
-10.7784 28.8302 -965.19299
-10.6485 28.7591 -964.45502
-10.0636 28.627001 -964.31897
-9.6708403 28.520901 -963.93903
-8.6557598 28.748501 -963.21503
-8.0581703 28.6222 -963.078
-7.7911401 28.4993 -962.48102
-7.2855802 28.374201 -962.18701
-5.6247602 28.498899 -961.29199
-5.0969801 28.357401 -961.026
-4.4706402 28.2351 -960.85602
0.032531701 28.273199 -959.255
1.30487 27.9981 -958.758
1.88379 27.8458 -958.41602
3.5957601 28.0411 -958.22498
4.30481 27.8958 -958.013
10.5587 27.75 -957.117
11.4047 27.613199 -956.92603
12.4689 27.399099 -956.93597
14.7769 27.510401 -956.76398
16.1129 27.319901 -956.94397
17.4583 27.0968 -957.12
19.6152 27.3596 -957.99298
21.2092 27.0457 -958.09399
-25.4254 31.8321 -997.237
-25.496901 31.520599 -994.05298
-25.449301 31.367599 -992.87799
-25.1141 31.609301 -990.51398
-24.9737 31.369499 -988.71899
-24.746201 31.2274 -987.66699
-24.5203 31.0432 -986.60699
-23.771799 31.1726 -983.89203
-23.571699 31.100201 -983.42297
-23.056101 30.821899 -981.992
-22.594299 30.596201 -980.40601
-22.3088 30.516899 -980.06097
-22.0828 30.3978 -979.63501
-21.4839 30.73 -978.74298
-21.5277 30.650999 -977.85303
-20.7285 30.370001 -976.68298
-20.346901 30.188499 -975.63702
-19.717699 29.999901 -974.92499
-18.871599 30.214701 -973.44702
