# .PCD v0.7 - Point Cloud Data file format
VERSION 0.7
FIELDS x y z
SIZE 4 4 4
TYPE F F F
COUNT 1 1 1
WIDTH 1596
HEIGHT 1
VIEWPOINT 0 0 0 1 0 0 0
POINTS 1596
DATA ascii
41.6814 -63.3241 -994.45801
42.033298 -63.083801 -994.91998
42.674702 -62.588799 -995.974
43.088699 -62.3204 -996.39697
43.618599 -61.9146 -997.341
44.0662 -61.676399 -997.61798
44.338699 -61.4641 -998.02399
44.5023 -61.285702 -998.53601
44.748001 -61.082199 -999.00201
44.948601 -60.884499 -999.53003
45.237999 -60.619801 -1000.01
45.500702 -60.399799 -1000.52
46.144798 -59.812698 -1001.99
46.363098 -59.607601 -1002.41
46.859699 -59.204201 -1003.17
47.283298 -58.8134 -1004.11
47.657902 -58.411598 -1005.14
47.829201 -58.1968 -1005.64
48.155499 -57.692699 -1007.13
48.436699 -57.1991 -1008.58
48.861099 -56.803101 -1009.49
48.9305 -56.4776 -1010.67
48.885399 -56.326302 -1011.29
49.188702 -55.977501 -1012.09
49.449902 -55.031601 -1015.17
49.4618 -54.444099 -1017.26
49.493801 -54.153801 -1018.19
49.243999 -53.196301 -1021.99
48.9431 -52.8437 -1023.56
11.4672 -75.883797 -982.88397
17.8633 -73.996399 -981.66101
20.039499 -73.080803 -982.73901
21.990101 -72.403198 -982.604
23.0334 -71.9645 -983.12201
24.4119 -71.440903 -983.35602
25.511299 -71.029099 -983.73102
26.5832 -70.559402 -984.07703
27.1749 -70.221397 -984.66302
28.144501 -69.810204 -984.92401
29.116301 -69.442703 -985.15698
29.769899 -69.130501 -985.53101
30.5135 -68.766296 -985.85303
31.5502 -68.3806 -985.98199
32.9883 -67.6688 -986.85999
33.633999 -67.328796 -987.30103
34.375401 -67.009903 -987.66498
35.113499 -66.6856 -987.961
35.680698 -66.404297 -988.33301
36.6115 -65.864197 -989.14203
36.931599 -65.629303 -989.68103
37.528 -65.3255 -990.00702
37.9846 -65.069199 -990.46002
38.394199 -64.780098 -990.99402
39.083599 -64.4673 -991.30298
39.8246 -63.962898 -992.30701
41.1474 -63.225399 -993.38
41.788502 -62.763802 -994.28998
42.063499 -62.533901 -994.79498
42.400299 -62.273701 -995.33398
42.873299 -62.0182 -995.729
43.220501 -61.7584 -996.19397
43.3223 -61.581501 -996.82202
43.841202 -61.316101 -997.06097
44.368698 -60.942699 -997.91101
44.6754 -60.712799 -998.31201
44.836399 -60.523399 -998.83801
45.3153 -60.0737 -999.85699
45.744598 -59.813702 -1000.23
46.053699 -59.578098 -1000.69
46.1819 -59.248699 -1001.86
46.468201 -59.048698 -1002.23
47.111301 -58.470402 -1003.51
47.3619 -58.256802 -1003.96
47.460602 -58.0811 -1004.55
47.827702 -57.833302 -1004.91
48.1646 -57.445301 -1005.91
48.133701 -57.287899 -1006.51
48.5965 -56.797901 -1007.78
48.755699 -56.608002 -1008.24
48.901699 -56.452202 -1008.73
49.479401 -55.695999 -1010.69
49.266701 -55.5863 -1011.41
49.6441 -55.070099 -1012.64
49.464901 -54.981499 -1013.34
49.724499 -54.278301 -1015.43
49.645401 -54.030899 -1016.55
49.748199 -53.576801 -1017.88
49.758801 -53.279999 -1018.9
13.3434 -74.8666 -981.88
15.238 -74.148102 -982.28699
19.386499 -72.830902 -981.995
20.745399 -72.2911 -982.32098
22.981501 -71.418297 -983.15503
24.5298 -70.813202 -983.28101
25.7143 -70.400703 -983.57599
27.0909 -69.874397 -983.66699
27.6616 -69.5606 -984.28802
28.8528 -69.112396 -984.36499
29.7917 -68.781403 -984.58502
30.205 -68.485802 -985.13599
30.931499 -68.151901 -985.492
31.5397 -67.835701 -985.97198
32.373501 -67.503304 -986.27698
33.211601 -67.100601 -986.62701
33.866798 -66.758102 -987.07001
35.070202 -66.144096 -987.927
35.8321 -65.821503 -988.14203
36.039001 -65.593102 -988.77002
36.557999 -65.333702 -989.10797
37.1245 -65.055 -989.43903
38.0508 -64.498299 -990.32501
38.7962 -64.188103 -990.61102
39.542099 -63.659 -991.66901
39.977001 -63.383701 -992.08502
40.626202 -63.1031 -992.302
41.0163 -62.6973 -993.38098
41.499298 -62.464298 -993.70001
41.889801 -62.212502 -994.117
42.1964 -61.981998 -994.62799
42.5989 -61.711899 -995.08698
42.942902 -61.4496 -995.57501
43.251801 -61.2099 -996.06702
43.697102 -60.819302 -997.08801
45.198898 -59.910198 -998.44397
45.290199 -59.7384 -999.078
45.504799 -59.500702 -999.61102
45.896198 -59.2658 -1000.02
46.1245 -59.044498 -1000.55
46.165798 -58.873901 -1001.15
46.7822 -58.437901 -1001.87
46.738701 -58.317299 -1002.5
47.143501 -57.940601 -1003.39
47.665501 -57.342701 -1004.95
48.318501 -56.8815 -1005.69
48.571201 -56.416599 -1007.15
48.766998 -55.9067 -1008.75
49.0452 -55.552502 -1009.77
49.616001 -55.099201 -1010.49
49.294601 -55.0271 -1011.29
49.659698 -54.660801 -1012
49.930698 -54.165001 -1013.44
49.9291 -53.847801 -1014.62
49.7845 -53.578899 -1015.84
49.993698 -52.986698 -1017.61
49.8241 -52.418499 -1019.9
15.9354 -73.473198 -981.854
18.315001 -72.765198 -981.547
20.0765 -72.129303 -981.58698
22.575899 -71.163498 -982.26001
23.393299 -70.808701 -982.85602
25.1241 -70.182198 -982.84601
27.303801 -69.298401 -983.51801
28.816799 -68.551102 -984.33899
29.787901 -68.225601 -984.53802
30.242901 -67.953697 -985.05402
31.551201 -67.489197 -984.94299
31.7717 -67.265701 -985.73798
32.410801 -66.9534 -986.211
33.269501 -66.555801 -986.513
33.944901 -66.2416 -986.93402
34.350498 -65.941902 -987.52698
35.2145 -65.5905 -987.72498
36.4445 -64.977501 -988.36298
36.597 -64.790199 -988.98499
37.474701 -64.450798 -989.09497
38.423302 -63.923401 -989.966
38.943401 -63.616199 -990.39203
39.138901 -63.421799 -991.09198
39.843102 -63.060001 -991.35699
40.041401 -62.881302 -991.97101
40.507301 -62.623501 -992.31201
40.983501 -62.3578 -992.64001
41.132301 -62.162899 -993.18903
41.735802 -61.877201 -993.42102
42.077599 -61.6632 -993.87903
42.472401 -61.377399 -994.31598
43.5387 -60.651199 -995.77698
43.889999 -60.4146 -996.17499
44.137501 -60.205898 -996.63397
44.145802 -60.0541 -997.29199
44.8605 -59.6255 -997.96802
45.5163 -59.154301 -998.80499
46.0163 -58.732601 -999.82202
47.047901 -57.744301 -1002.16
47.220798 -57.547298 -1002.6
47.537201 -57.187801 -1003.61
47.782001 -56.9846 -1004.1
47.9146 -56.757198 -1004.67
48.113201 -56.554699 -1005.15
48.5453 -56.166199 -1005.99
48.528702 -56.047901 -1006.57
48.982201 -55.648899 -1007.3
49.143501 -55.298599 -1008.38
49.5853 -54.716202 -1009.92
49.687901 -54.270901 -1011.47
12.7281 -74.118103 -980.758
16.561501 -72.737602 -981.57397
19.037201 -72.002998 -981.19299
19.9359 -71.604698 -981.75897
21.624701 -71.0411 -981.73798
23.0949 -70.481903 -981.88898
24.457899 -70.000099 -982.09003
25.8286 -69.481201 -982.27399
26.2085 -69.154999 -983.15002
27.254299 -68.745598 -983.51001
28.527901 -68.261902 -983.55603
29.1141 -67.962997 -984.04498
29.886999 -67.623199 -984.40698
30.5804 -67.297501 -984.758
31.4541 -66.946297 -985.00897
32.1353 -66.638199 -985.41302
32.556599 -66.329102 -986.01001
33.590599 -65.928101 -986.18298
34.332699 -65.571198 -986.552
34.8605 -65.290199 -987.05402
35.3946 -64.985199 -987.51099
36.0266 -64.674103 -987.82098
36.3382 -64.413803 -988.35303
37.101299 -64.129799 -988.48499
37.8787 -63.6376 -989.48401
38.603901 -63.304501 -989.73499
40.041698 -62.474098 -991.12201
40.354198 -62.248501 -991.63098
40.6675 -62.015499 -992.10999
40.891998 -61.818901 -992.625
41.1646 -61.605499 -993.07599
41.843899 -61.298199 -993.23297
42.122898 -61.084599 -993.74298
42.4893 -60.8353 -994.20203
42.860699 -60.586899 -994.68903
43.244301 -60.3307 -995.15002
44.1385 -59.6348 -996.53497
44.686798 -59.393398 -996.75201
44.507801 -59.296101 -997.50897
45.090099 -59.032101 -997.70398
45.256699 -58.825001 -998.23401
45.7635 -58.566399 -998.505
46.026501 -58.145699 -999.70801
46.6735 -57.715199 -1000.57
46.848099 -57.515499 -1001.04
47.0546 -57.319698 -1001.48
47.386501 -56.9617 -1002.37
47.789501 -56.7099 -1002.7
47.971401 -56.5243 -1003.19
48.335201 -56.133999 -1004.26
48.3647 -55.924099 -1004.9
48.750401 -55.709 -1005.23
48.9221 -55.381401 -1006.24
49.5173 -54.685699 -1008.09
49.955299 -54.268799 -1009
50.073799 -53.9795 -1010.09
50.1768 -53.780998 -1010.53
50.167801 -53.513199 -1011.59
50.3769 -53.176998 -1012.49
50.316101 -52.856201 -1013.71
50.614399 -52.495098 -1014.62
50.541401 -52.2505 -1015.7
50.486801 -51.837399 -1017.19
16.7267 -72.333801 -980.06201
17.620399 -71.934097 -980.85602
20.9326 -70.783699 -981.11798
22.255301 -70.314301 -981.31097
23.1796 -69.908096 -981.81702
24.9744 -69.290703 -981.74701
25.895901 -68.872498 -982.20801
26.4436 -68.546402 -982.97498
27.6868 -68.095703 -983.14697
28.3571 -67.7435 -983.65002
30.4963 -66.924599 -983.87
32.0648 -66.077698 -985.39301
32.686501 -65.772202 -985.83502
33.752399 -65.326202 -985.98602
34.5825 -64.974899 -986.26599
35.437698 -64.610497 -986.513
35.9077 -64.3172 -987.021
36.762798 -63.807598 -987.95398
37.196701 -63.542999 -988.34998
37.573601 -63.330299 -988.82599
38.1619 -63.022499 -989.16302
38.4608 -62.799999 -989.75897
39.203999 -62.4757 -990.02197
39.722301 -62.189499 -990.44299
40.052502 -61.952202 -991.01099
40.371799 -61.691101 -991.521
40.999599 -61.3885 -991.729
41.000599 -61.241699 -992.44098
41.737 -60.949799 -992.53497
41.9916 -60.725498 -993.01599
42.3279 -60.530701 -993.487
43.097698 -59.984699 -994.396
43.549999 -59.717499 -994.79498
44.855202 -58.825699 -996.51599
44.8881 -58.669102 -997.10901
45.646702 -58.184502 -997.83301
45.8815 -57.9711 -998.32001
46.037998 -57.764999 -998.922
46.293201 -57.553902 -999.43402
47.357399 -56.712399 -1001.21
47.674999 -56.3596 -1002.16
48.494099 -55.578602 -1004.16
49.1311 -54.960999 -1005.5
49.418999 -54.616699 -1006.35
49.641899 -54.428699 -1006.73
49.6035 -54.293201 -1007.36
50.048199 -53.550598 -1009.46
50.429699 -52.919899 -1011.28
50.451 -52.800201 -1011.77
50.6021 -52.424599 -1012.76
50.602402 -51.826698 -1015.03
50.665798 -51.3979 -1016.42
50.640099 -50.983501 -1017.97
50.559399 -50.675098 -1019.14
50.236 -50.323898 -1020.91
13.7948 -72.697601 -980.45898
15.8774 -71.970901 -980.82001
18.243799 -71.211304 -980.52502
20.1206 -70.592796 -980.48901
21.4044 -70.1399 -980.77399
22.0798 -69.751801 -981.461
23.8176 -69.208298 -981.383
26.117701 -68.278603 -982.00702
26.742399 -67.933296 -982.77899
28.119801 -67.401299 -982.776
29.3367 -66.9972 -982.87299
29.434401 -66.7892 -983.71198
30.5168 -66.3778 -983.83698
31.793301 -65.7603 -984.599
32.2994 -65.478104 -985.13202
33.096901 -65.131401 -985.466
34.021999 -64.747398 -985.711
34.625099 -64.441498 -986.16803
35.4263 -64.043503 -986.46503
35.9855 -63.7397 -986.88898
37.400501 -62.9799 -988.112
37.866501 -62.710098 -988.49799
38.2822 -62.472599 -988.99402
39.838299 -61.5966 -990.255
40.2449 -61.332298 -990.77002
41.059299 -60.8419 -991.60199
41.242199 -60.651299 -992.15503
42.080601 -60.179798 -992.85901
42.508099 -59.915199 -993.24597
42.956402 -59.6619 -993.63098
43.4879 -59.185799 -994.76501
43.886101 -58.929401 -995.20099
44.236301 -58.710201 -995.61902
44.5392 -58.487 -996.03699
44.806499 -58.273201 -996.46399
45.543598 -57.8386 -997.19598
46.239899 -57.183399 -998.76898
46.912498 -56.726501 -999.66998
47.185398 -56.5168 -1000.11
47.262501 -56.367298 -1000.69
47.752102 -55.9613 -1001.48
47.9081 -55.769699 -1001.94
48.172401 -55.581902 -1002.34
48.680401 -55.138199 -1003.27
48.893902 -54.960999 -1003.77
48.930099 -54.772701 -1004.37
49.150902 -54.5481 -1004.8
49.2253 -54.242901 -1005.87
49.589802 -53.910198 -1006.65
49.698299 -53.5854 -1007.75
50.023399 -53.367199 -1008.11
50.191299 -53.003201 -1009.18
50.229198 -52.840801 -1009.72
50.5662 -52.255402 -1011.53
50.594501 -51.751598 -1013.17
50.644001 -51.425999 -1014.28
50.6353 -50.8647 -1016.27
50.749199 -50.584801 -1017.17
50.442101 -50.005798 -1019.58
50.377899 -49.7421 -1020.59
50.02 -49.429699 -1022.22
50.007301 -49.2817 -1022.69
49.8582 -49.022701 -1023.83
49.3759 -48.521999 -1026.11
15.3013 -71.785599 -979.58301
18.2623 -70.630798 -980.60199
22.4739 -69.123596 -981.20697
23.6038 -68.658302 -981.51599
24.928499 -68.150101 -981.71802
26.16 -67.702202 -981.99597
27.2237 -67.253304 -982.302
28.302299 -66.847603 -982.56702
29.046 -66.504501 -983.03998
30.6805 -65.799103 -983.66101
31.3225 -65.478203 -983.99103
32.1646 -65.1409 -984.24701
32.6465 -64.843903 -984.789
34.635899 -63.902199 -986.078
35.2589 -63.519699 -986.49402
35.9473 -63.225101 -986.80701
36.239799 -63.013199 -987.39398
36.910999 -62.715199 -987.66602
37.511501 -62.406799 -987.94202
37.942001 -62.135601 -988.35901
38.457298 -61.853298 -988.77301
39.1516 -61.539299 -989.026
39.481098 -61.295502 -989.633
40.1091 -60.991199 -989.95898
40.217499 -60.807098 -990.69397
41.026901 -60.285099 -991.52899
41.558201 -60.048199 -991.80103
42.060501 -59.7981 -992.10101
42.266701 -59.585999 -992.61603
42.493301 -59.356998 -993.17999
43.012001 -59.079399 -993.51099
43.290298 -58.8605 -994.073
44.009899 -58.5084 -994.28198
44.050701 -58.324299 -995.00299
44.5667 -58.069199 -995.34198
44.890701 -57.856602 -995.77002
45.5107 -57.574699 -995.93799
45.586201 -57.436401 -996.52301
46.036701 -57.015202 -997.479
46.351898 -56.821098 -997.91498
46.473202 -56.632198 -998.56299
46.7192 -56.3815 -999.078
47.199001 -56.126499 -999.38599
47.632301 -55.719799 -1000.3
47.7672 -55.558498 -1000.79
48.169601 -55.211201 -1001.61
48.118999 -55.0425 -1002.28
48.346699 -54.840698 -1002.74
48.956799 -54.395901 -1003.57
48.999199 -54.185799 -1004.16
49.121101 -54.0336 -1004.67
49.409698 -53.689899 -1005.56
49.669399 -53.0476 -1007.59
50.095798 -52.810001 -1007.83
50.245499 -52.451199 -1008.93
49.947102 -52.229698 -1010.3
50.587299 -51.974998 -1010.27
50.1605 -51.900799 -1011.13
50.536301 -51.562901 -1011.85
50.734402 -51.202702 -1012.79
50.312801 -51.104599 -1013.77
50.680401 -50.759998 -1014.53
50.2001 -50.702301 -1015.48
50.367699 -50.391701 -1016.27
50.240101 -49.992199 -1017.91
50.3578 -49.5005 -1019.41
50.176201 -49.131302 -1020.98
50.070999 -48.757198 -1022.41
49.581299 -48.382401 -1024.34
49.478901 -48.2528 -1024.9301
49.3568 -47.984798 -1025.9
14.4043 -71.346603 -980.50403
19.6686 -69.773399 -979.65399
22.9671 -68.475403 -980.79602
24.168501 -67.998001 -981.09302
26.180901 -67.1231 -981.93799
27.368999 -66.68 -982.18799
28.393101 -66.273201 -982.46301
28.841 -65.987 -983.10999
29.9639 -65.568398 -983.21399
30.9706 -65.1968 -983.34802
31.2327 -64.973297 -984.02502
32.3531 -64.562302 -984.02802
32.9076 -64.235001 -984.53302
33.747898 -63.891399 -984.80603
33.992901 -63.666801 -985.56702
34.743 -63.2994 -985.92297
35.407001 -62.973099 -986.31201
35.999802 -62.6744 -986.70898
36.609001 -62.397999 -987.03497
37.405201 -61.906502 -987.914
39.269199 -61.004902 -988.836
39.4608 -60.7962 -989.54199
40.010201 -60.512001 -989.948
40.674301 -60.161701 -990.23297
40.822399 -59.968899 -990.88501
41.996201 -59.403301 -991.38
42.0952 -59.221199 -991.98297
42.6553 -58.9571 -992.26501
43.203999 -58.492401 -993.32898
44.344898 -57.930698 -994.06299
44.4007 -57.7612 -994.73798
45.058701 -57.345501 -995.62097
45.313 -57.119499 -996.07001
46.133801 -56.5019 -997.33502
46.563301 -56.262798 -997.66498
46.734699 -56.051601 -998.24103
46.978298 -55.822201 -998.737
47.222198 -55.601898 -999.25598
47.714401 -55.211601 -1000.09
47.839901 -55.0229 -1000.57
47.995201 -54.710098 -1001.58
48.354099 -54.475399 -1001.91
48.183998 -54.350201 -1002.72
48.894001 -53.716301 -1004.02
49.241798 -53.076199 -1005.98
49.848701 -52.674801 -1006.58
49.758701 -52.5233 -1007.25
49.932201 -52.0219 -1008.97
49.707699 -51.736599 -1010.26
50.471199 -51.051701 -1011.64
49.853901 -50.993198 -1012.76
50.386902 -50.4193 -1014.02
50.292801 -50.1534 -1015.15
50.5112 -49.7201 -1016.38
50.202099 -49.4744 -1017.71
50.367298 -49.010101 -1019.19
13.0389 -71.369797 -979.65503
14.6996 -70.705803 -980.37903
18.129999 -69.734497 -979.42999
19.802099 -69.181396 -979.55902
20.858 -68.735199 -980.12903
21.894199 -68.294197 -980.50201
23.440001 -67.778503 -980.45001
24.135401 -67.445 -981.07599
25.7834 -66.874298 -981.01703
26.709101 -66.486397 -981.50403
27.7397 -66.019402 -981.84003
28.525499 -65.674698 -982.30902
29.3311 -65.333 -982.69098
31.5574 -64.330101 -983.67999
32.198799 -63.9953 -984.07397
32.826302 -63.715199 -984.50201
33.723099 -63.337898 -984.73798
34.507801 -62.965199 -985.09698
34.949299 -62.684601 -985.65399
35.732201 -62.369202 -985.97198
36.424 -62.054798 -986.31097
37.3209 -61.5154 -987.15997
37.743698 -61.2994 -987.58002
38.8489 -60.699799 -988.27197
39.052898 -60.493801 -988.91602
39.8862 -60.1404 -989.11401
40.342999 -59.872101 -989.59497
40.9534 -59.351501 -990.73401
41.552299 -59.099098 -991.013
42.2416 -58.7915 -991.20001
43.120201 -58.1609 -992.651
43.783001 -57.854198 -992.888
43.936699 -57.651402 -993.539
44.347599 -57.4016 -993.99902
44.7253 -57.170601 -994.42798
44.895199 -56.957401 -995.021
45.2962 -56.722099 -995.33301
45.690899 -56.354099 -996.25
46.201801 -55.949799 -997.10999
46.615101 -55.7099 -997.46301
46.815399 -55.511902 -998
46.9538 -55.337299 -998.59998
47.3615 -55.139599 -998.95203
47.993099 -54.493599 -1000.25
47.889198 -54.054901 -1002.09
48.216 -53.509499 -1003.71
48.8694 -53.239201 -1003.77
48.696999 -52.938202 -1005.07
48.908901 -52.595901 -1005.96
49.246799 -52.064301 -1007.43
49.430801 -51.697701 -1008.55
49.884899 -51.165901 -1009.89
50.132401 -50.869301 -1010.7
50.383999 -50.5196 -1011.56
50.635201 -50.161499 -1012.53
50.4021 -50.046398 -1013.31
50.552101 -49.551102 -1014.77
50.256802 -49.210499 -1016.48
50.396198 -48.880299 -1017.4
50.197201 -48.455502 -1019.19
50.239201 -48.168098 -1020.1
49.829498 -47.723099 -1022.24
13.5388 -70.731003 -979.453
15.9878 -69.870796 -979.52301
18.073 -69.188499 -979.57501
21.1369 -68.112099 -979.85303
22.3486 -67.635902 -980.138
23.7271 -67.193497 -980.224
25.024401 -66.695999 -980.39001
25.9377 -66.273399 -980.85498
26.834101 -65.920898 -981.37402
28.2101 -65.427002 -981.48401
29.108999 -64.990303 -981.784
29.687099 -64.668701 -982.37402
30.342899 -64.351898 -982.78601
31.102699 -64.047897 -983.112
31.9076 -63.692001 -983.367
32.552299 -63.406101 -983.70203
33.293701 -63.068298 -984.06799
34.098598 -62.684799 -984.367
34.437199 -62.481499 -985.06598
35.353901 -62.087002 -985.271
35.785999 -61.785599 -985.83398
36.3046 -61.514198 -986.28101
37.377701 -60.964401 -987.03003
37.757999 -60.729698 -987.45502
38.195599 -60.466999 -987.87701
38.953899 -60.128601 -988.11499
39.512901 -59.832901 -988.487
41.073399 -59.000702 -989.89801
41.417301 -58.770302 -990.401
41.979099 -58.5126 -990.672
42.298901 -58.2612 -991.13501
42.756699 -58.045898 -991.45502
43.2234 -57.778801 -991.77802
43.766201 -57.5163 -992.07501
43.6367 -57.364799 -992.91498
44.091099 -57.080601 -993.32703
44.518101 -56.847698 -993.72498
44.745098 -56.645199 -994.26599
44.8675 -56.3937 -994.85101
45.080399 -56.242199 -995.336
45.540199 -55.9883 -995.59497
46.079102 -55.3592 -996.90601
46.469501 -55.135201 -997.38898
46.831902 -54.922901 -997.69397
47.291599 -54.605701 -998.69897
47.709999 -54.3577 -998.93298
47.2831 -54.2892 -999.93903
47.620899 -53.914501 -1000.74
47.721001 -53.729099 -1001.23
47.726501 -53.371899 -1002.5
48.1423 -52.947701 -1003.48
48.806301 -52.524899 -1004.17
49.131199 -52.016998 -1005.6
49.503799 -51.6339 -1006.45
49.468201 -51.512798 -1007.1
49.7864 -51.119301 -1008.1
50.048302 -50.9282 -1008.5
50.150799 -50.6035 -1009.51
50.422501 -50.280499 -1010.32
50.2061 -50.016701 -1011.57
50.544701 -49.651299 -1012.45
50.458302 -49.508499 -1013.12
50.514 -49.194599 -1014.18
50.4869 -48.802898 -1015.67
50.648602 -48.4659 -1016.53
50.290001 -47.664398 -1019.96
50.164501 -47.291199 -1021.39
21.5532 -67.4646 -979.56598
22.644501 -67.041801 -979.88202
24.181299 -66.526703 -979.84198
25.1085 -66.128799 -980.31598
27.573099 -65.212898 -980.75403
28.251499 -64.846397 -981.34003
29.3444 -64.421799 -981.54401
30.019699 -64.091202 -982.04797
30.8176 -63.758099 -982.35303
31.577 -63.430099 -982.70203
31.995899 -63.165298 -983.19202
32.796799 -62.845501 -983.453
34.0844 -62.177502 -984.28699
34.694401 -61.885502 -984.77301
35.520802 -61.502399 -985.07397
36.254299 -61.164299 -985.39899
36.588001 -60.946499 -985.98999
37.248501 -60.6138 -986.26898
37.723999 -60.340199 -986.677
38.5247 -59.848701 -987.62701
39.3867 -59.494598 -987.76599
39.819801 -59.256401 -988.30499
40.344601 -58.9762 -988.78699
40.704498 -58.7416 -989.33002
41.370098 -58.411098 -989.64001
41.705299 -58.2132 -990.12201
42.223598 -57.894699 -990.42401
42.652199 -57.503399 -991.41803
43.565102 -57.0322 -992.09698
43.658401 -56.828701 -992.71802
44.023899 -56.577202 -993.18298
44.461102 -56.346802 -993.586
44.626202 -56.120499 -994.17499
45.042702 -55.8839 -994.48401
45.131302 -55.7076 -995.03601
45.6357 -55.327702 -995.80499
45.6511 -55.159698 -996.36499
45.5989 -55.035301 -997.021
46.704899 -53.977798 -999.45697
47.489101 -53.4991 -1000.01
47.497501 -53.348099 -1000.59
48.061798 -52.7813 -1002.04
48.476898 -52.374401 -1003.04
48.861198 -51.972198 -1004.02
49.0368 -51.779301 -1004.46
49.397999 -51.4473 -1005.25
49.504799 -51.2598 -1005.74
49.735199 -50.940201 -1006.77
49.987499 -50.555599 -1007.82
50.188 -50.0732 -1009.38
50.576599 -49.2701 -1011.73
50.635502 -48.944199 -1012.87
50.602501 -48.245998 -1015.47
50.6357 -47.675301 -1017.53
50.290798 -46.872799 -1020.73
50.067902 -46.500801 -1022.33
49.690701 -45.928299 -1024.5699
11.4861 -70.2285 -979.04199
15.5193 -69.136398 -978.26801
17.433399 -68.393402 -978.638
18.9813 -67.8452 -978.96997
20.411501 -67.387802 -979.18903
21.854401 -66.841904 -979.341
25.501301 -65.491203 -979.97198
26.491301 -65.077301 -980.33099
27.194599 -64.754097 -980.95398
29.4154 -63.862 -981.45099
30.2374 -63.470001 -981.83197
30.7679 -63.210098 -982.33502
31.4659 -62.853901 -982.70001
33.066002 -62.234299 -983.16998
34.807201 -61.3013 -984.62299
36.277199 -60.601299 -985.30798
36.6539 -60.3895 -985.90698
38.080002 -59.743099 -986.45099
38.313702 -59.5452 -987.039
38.615799 -59.341999 -987.58398
40.1572 -58.6605 -988.01099
40.373798 -58.445301 -988.67401
40.9538 -58.138901 -989.02899
41.523899 -57.855598 -989.383
41.840599 -57.623501 -989.87903
42.411098 -57.189499 -990.784
42.699902 -56.992699 -991.20203
43.061001 -56.758701 -991.578
43.4552 -56.511799 -991.95203
43.6203 -56.307098 -992.52698
44.128799 -56.040199 -992.83301
44.091 -55.8862 -993.59601
44.555099 -55.658699 -993.90503
44.781898 -55.315399 -994.987
45.190399 -55.117901 -995.216
45.0242 -54.961899 -995.95398
45.439499 -54.6847 -996.17401
45.618301 -54.308102 -997.40302
46.174198 -53.828899 -998.367
46.6511 -53.586498 -998.68597
47.359299 -52.987202 -999.99597
47.5793 -52.821499 -1000.4
47.687698 -52.660999 -1000.91
48.257599 -52.230701 -1001.74
48.450802 -52.041801 -1002.29
48.855598 -51.633099 -1003.28
48.9622 -51.298901 -1004.41
49.003201 -51.144402 -1004.94
49.425201 -50.784302 -1005.72
49.895302 -50.383701 -1006.52
50.0242 -50.214901 -1007.04
50.230202 -49.833698 -1008.12
50.259201 -49.6777 -1008.66
50.510601 -49.087101 -1010.56
50.832001 -48.1008 -1013.7
50.777302 -47.822899 -1014.75
50.8811 -47.5308 -1015.61
50.832199 -47.086399 -1017.25
50.826801 -46.7948 -1018.34
49.091499 -45.033298 -1026.6
15.9896 -68.475098 -978.02502
18.8314 -67.382797 -979.15002
20.7794 -66.736702 -978.92902
22.5471 -66.185898 -978.77802
24.309299 -65.405403 -979.73602
25.3291 -64.999496 -980.05499
26.549999 -64.523697 -980.25897
27.7162 -64.093102 -980.51501
28.273701 -63.741402 -981.211
29.328899 -63.378399 -981.45801
30.601801 -62.9086 -981.46503
31.0569 -62.6362 -982.04602
31.8745 -62.278301 -982.33099
32.764999 -61.923599 -982.45502
33.3643 -61.625301 -982.85999
33.835098 -61.332802 -983.41101
34.3866 -61.055901 -983.914
35.847198 -60.376301 -984.76398
37.003201 -59.798801 -985.68201
37.614899 -59.509899 -986.06
38.784302 -58.9338 -986.62402
39.0616 -58.731899 -987.17401
39.7006 -58.419601 -987.44202
40.190701 -58.130699 -987.86102
40.434299 -57.920502 -988.47699
40.880199 -57.655602 -988.92603
41.307701 -57.376801 -989.35602
42.105301 -56.8988 -990.16199
42.597401 -56.531399 -991.02197
42.8241 -56.338799 -991.48999
43.269299 -56.105701 -991.79901
43.068699 -55.978699 -992.65698
43.249599 -55.5541 -993.94
44.272999 -54.813801 -995.08301
45.0453 -54.548599 -995.06
45.936298 -53.749599 -996.98199
46.4133 -53.487999 -997.32703
46.421398 -53.302101 -998.04401
46.7939 -53.070202 -998.44397
47.1399 -52.840599 -998.84497
47.666599 -52.314499 -1000.22
47.8587 -52.117199 -1000.69
48.3885 -51.570999 -1002.24
48.8923 -51.2617 -1002.5
48.8773 -51.134499 -1003.18
49.372898 -50.7225 -1003.95
49.4674 -50.555099 -1004.46
49.704102 -50.239101 -1005.38
50.020599 -49.707802 -1006.93
50.319099 -49.158798 -1008.52
50.594601 -48.8372 -1009.36
50.742901 -48.3689 -1010.81
50.928101 -48.0536 -1011.82
50.858299 -47.729 -1013.05
50.608898 -45.896599 -1019.81
50.497398 -45.6833 -1020.81
50.033401 -45.137798 -1023.16
16.525101 -67.774498 -977.784
18.510401 -67.0746 -977.93903
19.989901 -66.535004 -978.33398
22.5977 -65.574402 -978.73999
23.4291 -65.217697 -979.20599
25.9202 -64.3125 -979.59601
27.851 -63.502602 -980.36499
28.805201 -63.096699 -980.72101
29.5676 -62.737301 -981.20599
31.2118 -62.044399 -981.85901
31.7402 -61.758701 -982.31201
33.450001 -61.063999 -982.76703
35.118099 -60.343201 -983.43701
35.476898 -60.089699 -984.13501
36.206902 -59.754101 -984.50598
36.721901 -59.449001 -985.01801
37.207901 -59.205299 -985.48798
38.079201 -58.867001 -985.57202
38.1866 -58.668598 -986.23798
38.7188 -58.4062 -986.54102
39.5014 -58.0765 -986.66101
39.7019 -57.858299 -987.28302
40.2491 -57.584702 -987.60602
40.417801 -57.349201 -988.26501
40.945 -57.108299 -988.62201
40.983299 -56.922901 -989.35101
41.615101 -56.657299 -989.54303
41.8508 -56.173302 -991.26398
43.118099 -55.567902 -991.50598
42.625999 -55.4674 -992.68402
43.684299 -54.8857 -993.29498
43.895802 -54.676102 -993.86902
44.287998 -54.4454 -994.23199
44.703899 -54.196301 -994.56799
45.020302 -53.985699 -994.96198
45.127499 -53.832199 -995.48798
45.525299 -53.590099 -995.82397
45.849701 -53.384102 -996.22601
46.111099 -53.178501 -996.71698
46.662201 -52.732399 -997.73102
46.907001 -52.506302 -998.21997
47.126099 -52.301201 -998.73102
47.931198 -51.745399 -999.89899
48.854198 -50.748199 -1002.4
49.045399 -50.549198 -1002.92
49.160702 -50.394199 -1003.45
49.4776 -50.0182 -1004.34
49.682598 -49.854099 -1004.72
50.019299 -49.510502 -1005.59
50.295502 -49.114601 -1006.58
50.403801 -48.9445 -1007.14
50.429501 -48.617199 -1008.3
50.575699 -48.437901 -1008.73
50.757801 -48.1451 -1009.61
50.771301 -47.851601 -1010.67
51.340099 -47.082001 -1012.63
14.4281 -67.947899 -977.461
19.5291 -66.038399 -978.65601
21.2798 -65.472298 -978.60498
23.797701 -64.576302 -978.90399
24.9468 -64.160103 -979.12097
25.8321 -63.7528 -979.63202
26.9263 -63.368698 -979.86499
28.030899 -62.928398 -980.18298
29.1563 -62.4617 -980.40302
30.0938 -62.0947 -980.74103
30.447001 -61.796101 -981.45398
31.312 -61.478901 -981.70801
32.266201 -61.079102 -981.91498
33.776402 -60.446098 -982.59698
34.604 -60.0802 -982.896
35.776798 -59.486801 -983.87598
36.422798 -59.191101 -984.26599
36.750099 -58.902901 -984.883
37.474701 -58.582401 -985.12903
37.8992 -58.342499 -985.552
38.458302 -58.064999 -985.85303
38.511398 -57.909 -986.49799
39.1553 -57.620602 -986.69299
39.579201 -57.377899 -987.125
39.978298 -57.162498 -987.52899
40.847698 -56.493801 -989.06299
41.3596 -55.984299 -990.05701
42.1255 -55.5406 -990.74701
42.717602 -55.068298 -991.63501
43.340401 -54.769699 -991.88397
43.387699 -54.608299 -992.63098
44.108799 -54.133701 -993.57202
45.014 -53.457802 -994.85101
45.428398 -53.2449 -995.159
45.824501 -52.8647 -996.12201
46.028599 -52.693401 -996.65198
47.2178 -51.759899 -998.54999
47.448502 -51.587898 -998.98401
47.745201 -51.374802 -999.35498
48.0243 -51.0476 -1000.35
48.347599 -50.823101 -1000.71
48.5751 -50.618099 -1001.17
49.007999 -50.350899 -1001.51
49.0345 -50.1866 -1002.16
49.366699 -49.814999 -1003.16
49.6133 -49.318401 -1004.64
50.105999 -48.938999 -1005.41
50.027599 -48.798401 -1006.08
50.372898 -48.389702 -1007.05
50.480499 -48.217602 -1007.59
50.7813 -47.857601 -1008.45
51.398602 -46.716499 -1012.01
51.746601 -45.928799 -1014.47
51.790199 -45.143101 -1016.98
50.634201 -44.1203 -1021.94
17.062099 -66.472702 -977.448
18.6891 -65.916603 -977.83698
21.908899 -64.790604 -978.04498
22.883699 -64.393501 -978.48499
24.2582 -63.921001 -978.53003
24.9695 -63.598301 -979.08398
26.368 -63.112499 -979.12
27.3515 -62.7164 -979.47601
28.068501 -62.341801 -980.05103
29.161699 -61.908298 -980.32202
32.042599 -60.758598 -981.24597
32.8876 -60.393002 -981.52502
33.600899 -60.117401 -981.81403
33.8937 -59.887798 -982.48401
34.6642 -59.519402 -982.77399
35.480499 -59.196301 -983.02899
36.104801 -58.8908 -983.487
36.204201 -58.6712 -984.26398
37.165501 -58.114899 -985.15302
38.8941 -57.185398 -986.52899
39.195202 -56.959599 -987.00403
39.104801 -56.795101 -987.84003
39.853298 -56.217499 -988.76001
40.7668 -55.861801 -988.82898
41.021301 -55.623299 -989.36401
41.724998 -55.366299 -989.53802
41.844501 -55.176102 -990.133
42.163898 -54.955299 -990.552
42.789398 -54.5271 -991.46503
43.219002 -54.3125 -991.86401
43.978298 -53.778099 -992.81
44.842499 -53.1479 -994.22498
45.166401 -52.928699 -994.62799
45.564098 -52.677601 -994.896
45.761398 -52.521 -995.41498
46.041401 -52.297901 -995.82599
46.478298 -52.071301 -996.20001
46.781399 -51.806301 -996.68103
46.787201 -51.6567 -997.38898
47.583302 -51.159199 -998.13501
47.800301 -50.995899 -998.60901
47.841499 -50.8246 -999.17401
48.230499 -50.460201 -1000.03
48.414398 -50.249802 -1000.52
48.740398 -50.049 -1000.93
48.754299 -49.8741 -1001.59
49.199501 -49.621101 -1001.9
49.358398 -49.2938 -1003.06
49.7262 -49.0564 -1003.33
49.9174 -48.736099 -1004.28
50.131802 -48.553799 -1004.67
50.305801 -48.202202 -1005.74
50.5117 -47.820599 -1006.85
50.7752 -47.437199 -1007.9
51.613899 -46.869499 -1008.82
51.419998 -46.6436 -1010.17
51.7929 -46.1203 -1011.72
51.9095 -45.609402 -1013.27
52.089401 -45.453499 -1013.63
51.9958 -45.0481 -1015.18
14.6531 -66.661598 -977.52301
17.4018 -65.831299 -977.24402
19.146601 -65.226196 -977.534
22.335699 -64.130501 -977.70599
23.5555 -63.7187 -977.95099
25.407301 -62.9216 -978.68298
26.702999 -62.468201 -978.78601
27.4018 -62.151901 -979.38702
28.734301 -61.6432 -979.51898
29.884199 -61.202 -979.82501
30.892099 -60.813301 -980.242
31.641701 -60.452999 -980.66699
32.0979 -60.174 -981.21899
33.044701 -59.836498 -981.38397
33.485001 -59.602001 -981.82397
35.195099 -58.691299 -983.08301
36.325001 -58.120499 -983.88898
37.091702 -57.604599 -984.85999
37.551899 -57.355499 -985.19897
38.687 -56.656799 -986.33197
39.393299 -56.134201 -987.31299
39.8195 -55.844398 -987.80902
40.3074 -55.608501 -988.24402
40.9599 -55.283798 -988.56
41.036098 -55.097801 -989.21698
41.459499 -54.880402 -989.63
42.293999 -54.402699 -990.33301
42.919998 -53.980499 -991.24298
43.331799 -53.7383 -991.65802
44.507099 -52.969101 -993.02399
44.696201 -52.791401 -993.59497
45.252499 -52.379299 -994.44897
45.815102 -51.966 -995.24597
46.122601 -51.766499 -995.66101
46.646801 -51.330101 -996.68903
47.270401 -50.8209 -997.633
47.5541 -50.617298 -998.09698
48.893902 -49.4762 -1000.66
49.036999 -49.271702 -1001.24
49.2365 -49.061798 -1001.75
49.452301 -48.858601 -1002.23
49.681 -48.5401 -1003.23
50.319302 -47.9291 -1004.45
50.7421 -47.5723 -1005.36
51.1236 -47.186798 -1006.47
51.4659 -46.707401 -1007.95
51.934601 -45.820702 -1010.33
52.1824 -45.467999 -1011.31
52.2528 -45.2901 -1011.84
52.242199 -44.4538 -1014.87
52.086102 -43.8862 -1017.15
51.7145 -43.120499 -1020.17
18.112801 -65.1586 -976.74701
19.903799 -64.525803 -976.93597
21.3083 -64.013901 -977.25299
22.1626 -63.641998 -977.79401
23.322201 -63.2005 -978.03998
24.3657 -62.759399 -978.36401
25.4536 -62.376801 -978.57098
27.031401 -61.827301 -978.52899
28.816299 -61.093399 -979.60699
30.8909 -60.251499 -980.22803
31.6709 -59.9403 -980.55701
32.501202 -59.571899 -980.79102
33.081902 -59.2995 -981.19397
33.949299 -58.767799 -982.091
35.809601 -57.709702 -983.93201
37.556999 -56.642399 -985.58197
37.956402 -56.404499 -985.98901
38.6479 -56.1124 -986.15503
38.885101 -55.873001 -986.76001
39.419899 -55.615398 -987.14801
40.473099 -55.068802 -988.01501
40.8577 -54.8032 -988.51099
41.202702 -54.569302 -988.98798
42.118 -54.077301 -989.70398
42.316002 -53.881302 -990.19702
42.622398 -53.696999 -990.68201
43.420502 -53.202301 -991.48901
43.642399 -52.9981 -992.09399
44.349998 -52.690498 -992.29602
44.376099 -52.4869 -993.02399
44.871601 -52.243099 -993.34698
45.7355 -51.616901 -994.55701
45.8307 -51.4459 -995.13098
46.749599 -50.952999 -995.76801
46.819401 -50.773201 -996.487
47.6591 -50.263802 -997.33099
47.794102 -50.0751 -997.86102
48.001301 -49.873001 -998.297
48.3671 -49.518398 -999.11298
49.045502 -48.780102 -1001.12
49.378799 -48.537701 -1001.52
49.365501 -48.3871 -1002.21
50.050301 -47.7164 -1003.46
50.506699 -47.537102 -1003.73
50.68 -47.366299 -1004.22
51.3508 -46.7896 -1005.63
51.411999 -46.430099 -1006.83
51.788799 -45.919498 -1008.16
52.102402 -45.2994 -1010.07
52.1959 -44.787701 -1011.78
52.378101 -44.327301 -1013.15
52.2565 -44.076599 -1014.22
52.286499 -43.790798 -1015.25
52.34 -43.302502 -1016.82
52.0868 -43.088799 -1018.01
13.204 -66.070198 -976.74402
15.7768 -65.274803 -976.776
20.417 -63.850601 -976.51001
22.6458 -62.951698 -977.38098
23.998699 -62.4972 -977.52197
25.354099 -61.9823 -977.56201
26.3286 -61.5765 -978.01599
27.5611 -61.1651 -978.30499
28.807301 -60.768902 -978.45099
29.4363 -60.403301 -979.159
30.442699 -60.017899 -979.43701
31.261 -59.625301 -979.77899
32.562801 -59.009399 -980.565
33.290401 -58.556099 -981.51501
33.709301 -58.328899 -981.93903
33.980701 -58.122398 -982.48297
34.3876 -57.861599 -982.96997
36.162601 -56.851002 -984.13202
36.632099 -56.583401 -984.59198
37.085098 -56.346901 -985.02002
37.522202 -56.0784 -985.44
38.126202 -55.8279 -985.68201
38.658901 -55.569199 -986.039
39.067799 -55.316898 -986.50702
39.707401 -55.0182 -986.80402
39.9846 -54.806198 -987.461
40.764599 -54.458801 -987.67999
41.075401 -54.210098 -988.23999
41.415001 -54.006401 -988.71503
42.363201 -53.478001 -989.39502
42.646301 -53.277901 -989.86102
43.239399 -52.8526 -990.81403
43.8853 -52.407398 -991.79602
44.287399 -52.165298 -992.24402
44.491798 -51.934601 -992.80603
44.718102 -51.701199 -993.354
45.219398 -51.4533 -993.58801
45.352402 -51.274399 -994.12701
45.884499 -51.0602 -994.30298
46.488602 -50.634602 -995.15802
47.794899 -49.698399 -997.09399
47.764 -49.535301 -997.78003
48.051498 -49.309101 -998.14697
48.331299 -48.983101 -999.01501
48.718399 -48.7673 -999.28302
48.700001 -48.622299 -999.94202
49.753399 -47.739498 -1001.75
50.004299 -47.531898 -1002.2
50.658001 -46.985699 -1003.65
50.827702 -46.818199 -1004.11
51.137402 -46.591702 -1004.46
51.416302 -46.061401 -1006.09
51.7985 -45.7076 -1006.95
51.737701 -45.554298 -1007.54
51.7416 -45.285702 -1008.57
52.0872 -44.9328 -1009.35
52.120499 -44.595501 -1010.51
52.415001 -43.9361 -1012.5
52.173 -42.8172 -1016.71
52.0499 -42.565701 -1017.88
14.0979 -65.375099 -976.13397
17.2106 -64.459801 -975.84003
18.5278 -63.916599 -976.47803
20.184999 -63.312199 -976.69702
21.3915 -62.859299 -977.08099
23.255699 -62.282799 -976.88599
25.8454 -61.374599 -977.401
28.960199 -60.1945 -978.32098
31.116699 -59.129101 -979.685
31.5818 -58.859402 -980.21399
32.008801 -58.646702 -980.638
32.556599 -58.412399 -980.97101
33.212502 -57.932598 -981.87799
33.818901 -57.612801 -982.22998
35.1917 -56.920101 -982.97101
35.547798 -56.649502 -983.58398
36.292801 -56.321701 -983.86298
36.836102 -56.035599 -984.29797
37.363998 -55.7645 -984.68903
38.1483 -55.293201 -985.54602
39.115002 -54.965302 -985.56702
39.6339 -54.5443 -986.78101
40.303398 -54.236801 -987.09998
41.0159 -53.723598 -988.20099
41.557999 -53.445 -988.50897
41.895901 -53.226101 -989.008
42.272301 -52.993801 -989.46399
42.712502 -52.7528 -989.81201
43.678799 -52.253601 -990.45099
44.0909 -51.843498 -991.54401
44.846802 -51.153301 -993.12201
45.291401 -50.943501 -993.41302
45.493198 -50.737598 -993.90399
45.833099 -50.5144 -994.237
46.043301 -50.341801 -994.69299
46.4841 -50.104099 -995.03699
46.769699 -49.872101 -995.49701
47.332001 -49.4361 -996.60999
48.426201 -48.444199 -998.81403
48.738499 -48.2491 -999.15002
48.970798 -48.024399 -999.59698
48.899399 -47.9011 -1000.3
49.960999 -47.180199 -1001.47
50.005199 -47.026501 -1002.19
50.256599 -46.815201 -1002.62
51.046001 -46.269299 -1003.82
51.268002 -46.057499 -1004.19
50.9907 -45.965 -1005.01
51.709702 -45.696701 -1004.97
51.102798 -45.620998 -1006.13
51.881302 -44.8792 -1007.68
51.8316 -44.5867 -1008.75
51.567402 -44.3489 -1010.13
52.0966 -43.957901 -1010.97
52.1884 -43.767799 -1011.45
52.293999 -43.433102 -1012.4
52.130199 -43.0746 -1013.88
52.297798 -42.577999 -1015.29
52.138901 -41.91 -1018.02
51.8428 -41.6763 -1019.2
18.983999 -63.300499 -976.13397
20.926901 -62.657101 -976.13098
21.7605 -62.224701 -976.84399
24.693501 -61.2598 -977.29303
26.183701 -60.797501 -977.18903
28.2132 -59.997002 -977.72601
28.762699 -59.683701 -978.315
29.303301 -59.373199 -978.90302
30.0091 -59.031399 -979.27197
30.8479 -58.6889 -979.57501
31.439199 -58.2957 -980.664
32.081799 -57.939701 -980.90503
33.307098 -57.312599 -981.54498
34.154301 -56.7813 -982.68103
35.047901 -56.408001 -982.93597
35.7015 -56.122898 -983.34601
36.481602 -55.7673 -983.64697
36.9011 -55.533001 -984.14697
37.675598 -55.209099 -984.336
37.901199 -55.004002 -984.92999
38.2267 -54.773602 -985.401
38.9716 -54.482498 -985.59802
39.1786 -54.263199 -986.20599
40.0327 -53.915199 -986.35999
40.8232 -53.425201 -987.41498
41.0751 -53.198502 -988.04199
42.066002 -52.7024 -988.74597
42.420399 -52.4403 -989.276
42.870998 -52.181999 -989.565
43.3652 -51.948502 -989.89203
43.673801 -51.7127 -990.35303
43.831402 -51.516201 -990.93903
44.400501 -51.064602 -991.90302
45.118401 -50.579201 -992.77197
45.6045 -50.1982 -993.69598
45.7677 -50.0228 -994.18103
46.943298 -49.331501 -995.24902
47.021999 -49.107498 -995.935
47.796101 -48.631599 -996.72803
48.0555 -48.150299 -998.40802
48.690399 -47.728802 -999.06201
49.168201 -47.2971 -999.95502
49.4921 -47.112801 -1000.39
50.191299 -46.316399 -1002.53
50.472 -46.1213 -1002.84
50.969501 -45.764801 -1003.58
51.0354 -45.069 -1005.97
51.444302 -44.686298 -1006.79
51.697701 -44.236801 -1008.16
51.8979 -44.045399 -1008.55
52.088402 -43.723 -1009.52
52.087502 -43.222301 -1011.31
52.1106 -42.539101 -1013.74
52.070099 -41.361198 -1017.84
51.215302 -40.241699 -1022.85
14.8514 -64.069603 -975.83801
16.843901 -63.4072 -976.10498
19.4806 -62.6422 -975.69098
23.9769 -61.0592 -976.66498
24.9652 -60.645901 -977.02698
27.070499 -59.865398 -977.40399
28.0273 -59.475601 -977.63202
28.394199 -59.215099 -978.28601
28.766899 -58.9422 -978.96301
30.264299 -58.328201 -979.565
30.764 -57.974098 -980.00201
31.3431 -57.6959 -980.38098
32.004501 -57.3876 -980.71399
32.434799 -57.1185 -981.20599
33.193501 -56.7896 -981.46399
33.637199 -56.550201 -982.05499
34.623798 -56.168098 -982.21802
35.442699 -55.8279 -982.50598
36.417301 -55.2897 -983.599
36.845798 -55.015301 -984.09601
37.342098 -54.766899 -984.49103
39.139801 -53.771099 -986.14697
40.007599 -53.409901 -986.26801
40.4492 -53.125099 -986.77301
40.668999 -52.934898 -987.44
42.671799 -51.869499 -988.948
43.1782 -51.597198 -989.22101
43.205101 -51.4487 -989.87097
43.750198 -51.181999 -990.10602
43.728901 -50.9995 -990.84003
44.255199 -50.7365 -991.17401
45.0709 -50.222 -991.99799
45.070801 -50.070999 -992.68799
46.2743 -49.240398 -994.28003
46.625 -49.020401 -994.677
46.902599 -48.812698 -995.15302
47.256699 -48.558601 -995.58899
47.355 -48.373901 -996.22498
48.034199 -47.9119 -997.06097
48.27 -47.727901 -997.48798
48.503502 -47.519402 -997.88599
48.6077 -47.390099 -998.39203
48.998402 -47 -999.32001
49.757 -46.331402 -1000.81
50.453999 -45.730301 -1002.17
50.6791 -45.554699 -1002.53
50.797401 -45.263199 -1003.53
50.9049 -44.925301 -1004.65
51.521198 -44.646999 -1004.75
51.426601 -44.342098 -1006.11
51.650101 -43.853298 -1007.59
51.935501 -43.528801 -1008.41
51.9851 -43.2034 -1009.46
52.141998 -43.0285 -1009.9
52.0238 -42.899399 -1010.59
52.245399 -42.698601 -1011
52.3363 -42.133301 -1012.97
52.118 -41.236801 -1016.28
52.237099 -41.065201 -1016.7
51.921799 -40.610901 -1018.74
51.6418 -40.029499 -1020.98
11.9207 -64.401802 -976.026
17.447701 -62.696899 -975.58801
20.1096 -61.914799 -975.34802
21.511999 -61.458401 -975.99701
23.0135 -60.9282 -976.23199
24.234301 -60.450699 -976.40997
25.239599 -60.062801 -976.724
25.745001 -59.791401 -977.22198
26.789 -59.417198 -977.34399
27.328699 -59.1227 -977.87201
27.8592 -58.853699 -978.32202
28.632299 -58.504601 -978.60303
29.8867 -57.7752 -979.52899
30.628201 -57.456902 -979.91602
31.465401 -57.1106 -980.15198
32.064602 -56.848301 -980.60797
32.439602 -56.627602 -981.091
32.9785 -56.331402 -981.56299
34.0368 -55.941101 -981.64203
35.052299 -55.5527 -981.78302
35.407299 -55.316399 -982.46002
35.961899 -55.0541 -982.91498
36.646198 -54.697498 -983.31201
37.1819 -54.452599 -983.73199
37.508499 -54.208199 -984.26801
38.110699 -53.927898 -984.56201
38.594799 -53.690102 -984.91199
39.255501 -53.3899 -985.15302
39.3965 -53.172501 -985.82202
40.216301 -52.848099 -985.99402
40.5173 -52.615101 -986.62903
41.0872 -52.338501 -986.97101
41.471699 -52.047901 -987.49701
42.27 -51.594799 -988.40601
42.7155 -51.352001 -988.75403
42.9716 -51.162601 -989.19397
43.312099 -50.921299 -989.58301
43.889301 -50.630699 -989.81
43.870399 -50.4743 -990.57898
44.1982 -50.217999 -991.08899
44.939701 -49.945499 -991.242
45.1703 -49.7094 -991.80402
45.6483 -49.311401 -992.79901
46.018299 -49.0681 -993.12598
46.4063 -48.713299 -994.06403
46.766602 -48.4846 -994.44501
47.013699 -48.271999 -994.93903
47.3699 -48.0247 -995.37701
47.456699 -47.852402 -996.00702
47.7495 -47.614201 -996.492
48.7085 -46.8456 -998.18903
48.924 -46.653801 -998.62701
50.045399 -45.776798 -1000.5
50.164398 -45.611801 -1001.11
50.335602 -45.400902 -1001.58
50.672001 -45.042702 -1002.42
50.901699 -44.701199 -1003.28
50.977501 -44.555698 -1003.83
51.373199 -43.9949 -1005.42
51.818802 -43.763599 -1005.66
51.701302 -43.4785 -1006.86
52.157799 -42.834301 -1008.62
52.310398 -42.179501 -1010.83
52.3102 -41.8871 -1011.9
52.391998 -41.622398 -1012.8
52.416 -41.166199 -1014.31
52.1068 -40.187302 -1018.09
51.907501 -39.3447 -1021.21
13.2281 -63.604401 -975.10999
16.330999 -62.650101 -974.75201
20.894699 -61.224899 -975.10999
21.2556 -60.884602 -976.17401
23.0035 -60.347401 -976.09497
24.2682 -59.929001 -976.15399
24.9039 -59.580002 -976.63599
25.5569 -59.307301 -976.97601
27.1821 -58.6367 -977.50897
27.6042 -58.337898 -978.05798
29.398899 -57.548698 -978.76398
30.321199 -57.1656 -979.05402
30.805799 -56.876999 -979.66498
31.8036 -56.5257 -979.78101
32.212601 -56.186199 -980.43597
34.217701 -55.400002 -980.69
34.2631 -55.279999 -981.66901
34.630699 -55.0858 -982.28998
37.243301 -53.863201 -983.58801
37.7481 -53.626099 -983.97699
38.021999 -53.376499 -984.534
39.095501 -53.007599 -984.46899
39.573601 -52.753601 -984.927
39.8395 -52.5364 -985.57898
40.944801 -51.955799 -986.276
41.529099 -51.486698 -987.34302
42.000599 -51.251099 -987.72498
42.3116 -51.0224 -988.19501
42.623699 -50.811199 -988.62201
43.012798 -50.572899 -988.97198
43.281799 -50.379601 -989.46698
43.690102 -50.134201 -989.84399
44.2103 -49.870499 -990.17798
44.5341 -49.631302 -990.67401
44.670502 -49.437698 -991.31403
44.9972 -49.209301 -991.82397
45.425098 -48.949699 -992.17401
46.050301 -48.5425 -992.97803
46.185398 -48.359501 -993.48499
47.240299 -47.7043 -994.633
47.425701 -47.464401 -995.19702
47.9739 -47.033501 -996.19
48.215698 -46.8475 -996.65601
48.596401 -46.479 -997.56799
48.790298 -46.283501 -997.98297
49.127399 -46.065399 -998.31403
49.220501 -45.8936 -998.96198
49.549 -45.6576 -999.43799
49.7481 -45.478901 -999.97198
50.2565 -45.033001 -1000.9
50.481602 -44.8409 -1001.32
50.688599 -44.6553 -1001.74
50.865799 -44.3475 -1002.71
51.445202 -43.929699 -1003.38
51.020802 -43.8587 -1004.34
51.656601 -43.3951 -1005.06
51.669201 -43.238602 -1005.67
51.988701 -42.893002 -1006.54
52.204899 -42.724602 -1006.9
52.192902 -42.2981 -1008.5
52.272598 -41.970699 -1009.58
52.498001 -41.602402 -1010.57
52.506401 -40.299702 -1015.2
52.264 -40.035702 -1016.43
52.339699 -39.601898 -1017.78
19.722401 -61.133499 -974.54199
20.5334 -60.7136 -975.32202
22.318001 -60.137699 -975.21399
24.1418 -59.396801 -975.91699
24.4184 -59.1777 -976.61499
25.3841 -58.806198 -976.64099
25.9077 -58.5266 -977.12598
27.7272 -57.7113 -977.73798
28.416 -57.380798 -978.32501
29.393999 -56.979401 -978.64801
29.9198 -56.710499 -979.255
31.1481 -56.304501 -979.28601
31.7791 -55.978901 -979.742
32.6241 -55.644402 -980.13
33.337799 -55.264301 -980.66101
35.320702 -54.585999 -980.98602
36.028599 -54.299999 -981.37201
36.4832 -54.004501 -981.94
36.950001 -53.705002 -982.43298
37.355999 -53.462799 -982.82098
37.845901 -53.195202 -983.10699
38.118698 -52.974499 -983.591
39.960098 -52.130199 -984.85199
40.671398 -51.818501 -985.08002
40.850399 -51.587799 -985.69397
41.386299 -51.290001 -986.08197
41.967701 -50.698502 -987.63702
42.539902 -50.449299 -987.89301
42.581501 -50.258099 -988.52698
43.151199 -50.0275 -988.745
43.352901 -49.842602 -989.27301
43.998501 -49.531601 -989.47998
44.3018 -49.327499 -989.96301
44.584801 -49.076599 -990.53198
44.911098 -48.8461 -991.01202
45.069199 -48.6553 -991.62903
45.520199 -48.420601 -991.98199
45.780499 -48.205399 -992.43799
45.932701 -48.025398 -992.935
46.4203 -47.812401 -993.17603
46.738098 -47.596001 -993.56
47.448299 -46.941399 -995.06403
47.9091 -46.692402 -995.409
48.241299 -46.304699 -996.508
48.363701 -46.1478 -997.02502
48.945499 -45.740299 -997.75702
49.204201 -45.534199 -998.13599
49.797798 -45.108002 -999.13202
50.032299 -44.889198 -999.62097
50.716999 -44.260201 -1001.03
50.735199 -44.126499 -1001.6
51.0518 -43.789799 -1002.44
51.378101 -43.437 -1003.31
52.012901 -42.518398 -1005.83
52.260201 -42.052502 -1007.25
52.174 -41.927799 -1007.83
52.394001 -41.418201 -1009.38
52.3428 -40.982101 -1011.11
52.639801 -40.624401 -1011.89
52.557598 -40.5201 -1012.44
52.609402 -40.358101 -1012.88
17.2467 -61.338799 -974.729
20.8395 -60.094601 -974.88599
21.813999 -59.692402 -975.31201
22.6147 -59.353401 -975.73901
23.3943 -59.018101 -976.02899
24.337999 -58.644901 -976.18402
24.8372 -58.3204 -976.69897
25.5529 -57.982601 -977.16699
26.9069 -57.534302 -977.203
27.3839 -57.221901 -977.90601
28.7302 -56.685902 -978.05402
29.714199 -56.427399 -978.31299
30.6537 -56.024601 -978.65302
31.1203 -55.7686 -979.22803
33.0494 -54.999599 -980.02502
34.325901 -54.544498 -979.94501
34.724098 -54.3577 -980.51001
35.469398 -54.033001 -980.77802
36.036598 -53.705002 -981.28198
36.618999 -53.354801 -981.72498
37.197102 -53.131302 -982.16998
37.913601 -52.820599 -982.47699
38.062401 -52.598499 -983.06897
39.229198 -52.061401 -983.84802
39.957298 -51.733101 -983.99799
40.018902 -51.560001 -984.698
40.807098 -51.241402 -984.87701
41.254101 -50.980999 -985.31299
41.658199 -50.734001 -985.841
42.0131 -50.4729 -986.31201
41.966099 -50.279999 -986.97699
42.7817 -49.694 -988.27002
43.070702 -49.521099 -988.68597
43.515598 -49.2621 -989.02197
43.9981 -49.031502 -989.35797
44.345901 -48.758301 -989.81299
44.699699 -48.5345 -990.31403
45.171799 -48.113098 -991.44501
45.417198 -47.855999 -991.92798
46.773998 -47.0406 -993.39502
47.016701 -46.8312 -993.87402
47.286999 -46.608101 -994.34998
47.838902 -46.166302 -995.33301
48.067699 -45.944401 -995.87097
48.419998 -45.7402 -996.23901
48.415699 -45.588299 -996.84399
49.0313 -45.173901 -997.526
49.3643 -44.9594 -997.93103
49.425301 -44.8116 -998.61603
49.868599 -44.564201 -998.95801
50.027599 -44.382401 -999.48798
50.387699 -44.1222 -999.86401
50.649899 -43.749901 -1000.94
50.579601 -43.6077 -1001.57
51.081902 -43.2407 -1002.25
51.391201 -42.903 -1003.17
51.3339 -42.771801 -1003.84
51.7682 -42.541401 -1004.1
51.748199 -42.1912 -1005.36
52.126598 -41.688702 -1006.69
52.416599 -41.1894 -1008.07
52.474998 -40.717602 -1009.78
52.5942 -40.236301 -1011.29
52.8694 -39.794102 -1012.53
52.854198 -39.483398 -1013.61
52.769001 -39.014999 -1015.25
52.5746 -38.774101 -1016.44
52.4286 -38.286999 -1018.37
16.319599 -61.305401 -973.854
17.5518 -60.665401 -974.39801
19.443199 -60.0779 -974.41901
20.652901 -59.588402 -974.66199
21.4879 -59.2519 -975.091
22.166599 -58.8741 -975.53802
23.2791 -58.424099 -975.677
25.125299 -57.7187 -976.31799
25.761101 -57.402302 -976.87701
27.6922 -56.661499 -977.53802
29.0455 -56.1366 -977.89203
29.7798 -55.860298 -978.203
30.286301 -55.5326 -978.862
