# .PCD v0.7 - Point Cloud Data file format
VERSION 0.7
FIELDS x y z
SIZE 4 4 4
TYPE F F F
COUNT 1 1 1
WIDTH 1664
HEIGHT 1
VIEWPOINT 0 0 0 1 0 0 0
POINTS 1664
DATA ascii
-6.4869399 6.5721402 -961.86499
-6.2789302 6.5550499 -961.63098
-5.0379 6.4155998 -961.32599
-4.5384498 6.4288301 -961.24103
-3.4002099 6.3433299 -961.05402
-2.0437 6.2581601 -960.31598
-1.99316 6.3232398 -959.49902
-0.93682897 6.2117801 -960.13098
-0.79846197 6.2455702 -959.53699
0.447815 6.16432 -959.65503
0.57983398 6.1628299 -958.99799
1.5067101 6.1117601 -959.43799
1.8156101 6.1117401 -959.01501
2.43103 6.0718799 -959.03699
3.0229499 6.0150499 -959.021
3.38257 6.02422 -958.66901
4.0432701 5.9694099 -958.84003
4.5671401 5.9446402 -958.77399
4.9513502 5.9405999 -958.55499
5.4468999 5.93362 -958.46399
5.9997602 5.9102101 -958.41803
6.4664898 5.8844299 -958.29602
7.5184302 5.85464 -958.13599
8.2283297 5.8056598 -958.29999
8.7158203 5.7855501 -958.19299
9.22614 5.75034 -958.14502
10.7465 5.6749001 -958.08899
11.1948 5.6809101 -957.93298
11.8779 5.6480699 -958.125
13.0592 5.5766001 -958.23999
13.4921 5.55302 -958.08502
14.0063 5.5428801 -958.021
14.6534 5.5173302 -958.21002
15.2903 5.4911699 -958.40399
15.7468 5.4633498 -958.34998
16.260799 5.46558 -958.37097
16.7507 5.4645801 -958.341
17.488199 5.4131298 -958.66101
17.922701 5.40557 -958.52802
18.515699 5.3744302 -958.63202
19.773001 5.3417702 -958.95099
20.3666 5.3099899 -959.09399
20.9575 5.2731199 -959.27802
21.564301 5.2470198 -959.492
22.0112 5.2371998 -959.46002
22.6716 5.2175102 -959.72498
23.195101 5.21104 -959.79401
23.9217 5.1816401 -960.11499
24.543501 5.16676 -960.33002
25.0793 5.1391802 -960.39697
25.7791 5.1364102 -960.70898
26.3458 5.09623 -960.88202
27.011499 5.0651598 -961.216
27.536501 5.06564 -961.388
28.178499 5.0711498 -961.68799
28.8132 5.0132699 -961.95697
29.544701 4.9988198 -962.37097
30.1884 4.9936199 -962.67401
30.7472 4.9779501 -962.86603
31.4328 4.9759402 -963.20697
32.198399 4.9369898 -963.70801
32.886501 4.9302802 -964.11499
33.589401 4.8909798 -964.59601
34.169601 4.8551898 -964.91699
34.9076 4.84407 -965.427
35.672901 4.82546 -965.98199
36.347698 4.8197598 -966.44299
36.9827 4.82938 -966.84802
37.724201 4.8192902 -967.35602
38.589699 4.7849898 -967.93201
39.2668 4.7925901 -968.508
39.999802 4.7865901 -969.198
41.346802 4.7834301 -970.38098
-29.665899 8.3144798 -989.14001
-29.502701 8.3227901 -987.71802
-29.176701 8.2363997 -986.71301
-27.9799 8.67696 -984.133
-27.312 8.6009998 -982.46301
-25.302401 8.40096 -978.89502
-24.0226 8.2726297 -977.00897
-23.620199 8.2547503 -976.41803
-23.2726 8.22122 -975.80298
-22.9366 8.1871901 -975.10999
-22.030899 8.0890598 -974.14301
-20.691299 8.0164604 -972.57397
-19.886801 7.96527 -971.50403
-19.0912 7.90418 -970.59302
-18.4788 7.84235 -970.42102
-17.614901 7.7945299 -969.53601
-16.8144 7.7403598 -968.52197
-16.2223 7.6879201 -968.28699
-15.8512 7.6496701 -967.789
-15.4227 7.6491499 -967.38599
-14.9573 7.6041198 -967.10602
-14.5754 7.5718298 -966.69202
-14.0617 7.5279398 -966.43103
-13.689 7.5190101 -965.95099
-12.9614 7.4555602 -966.04401
-12.204 7.4299898 -965.091
-11.7136 7.3764601 -964.76599
-11.2393 7.3463998 -964.46503
-10.5187 7.3101401 -964.56897
-10.4319 7.2820101 -963.85602
-9.8143301 7.25525 -963.763
-9.4703398 7.2249799 -963.35901
-8.3403301 7.2038202 -963.01001
-7.4769902 7.1711998 -962.41302
-6.9005699 7.0697598 -962.22601
-3.9713099 6.9485698 -961.14502
-2.3831799 6.8201098 -960.65302
-1.9129 6.8063698 -960.43597
-0.68463099 6.7776299 -959.65698
-0.00128174 6.73067 -959.80402
0.398987 6.7083998 -959.55798
1.42676 6.6539202 -959.28302
1.7539099 6.6483202 -958.92902
2.5626199 6.56815 -959.185
2.92029 6.5684299 -958.83398
3.45123 6.55723 -958.72699
4.5718398 6.4801602 -958.73401
4.99646 6.4752698 -958.57898
5.6024199 6.4495502 -958.64301
6.16187 6.4098902 -958.625
6.49365 6.39711 -958.289
8.1665602 6.3459902 -958.15802
9.7183199 6.2582402 -958.07001
10.2616 6.25595 -958.08002
10.8 6.2249599 -958.11102
11.3579 6.1976199 -958.12402
11.9563 6.1519198 -958.21997
12.5637 6.1382098 -958.29102
13.0258 6.1154699 -958.16199
13.5367 6.0992098 -958.10999
14.2729 6.0816998 -958.37
14.6942 6.0566201 -958.245
15.285 6.0306501 -958.35199
15.736 6.0205202 -958.33197
16.259501 5.9969001 -958.33002
16.813601 5.9794002 -958.40002
17.499599 5.93223 -958.65503
18.1133 5.9104199 -958.77002
18.6113 5.9025302 -958.755
19.3123 5.8789301 -959.00299
19.883101 5.8615398 -959.065
20.991899 5.8221998 -959.28101
21.5494 5.8227501 -959.44598
22.1042 5.7726002 -959.58502
22.753401 5.7575102 -959.78497
23.194401 5.7410998 -959.742
23.8333 5.7410002 -959.953
24.464399 5.7105899 -960.16901
25.1394 5.6807199 -960.46198
25.741199 5.6491899 -960.64398
26.4149 5.62953 -960.95801
26.938 5.61765 -961.08197
27.554899 5.6091399 -961.36298
28.16 5.5811801 -961.61499
28.898701 5.53443 -962.05402
29.503799 5.5271201 -962.30402
30.265301 5.51719 -962.75897
30.891199 5.4964299 -963.03003
31.5802 5.4903698 -963.383
32.153599 5.49401 -963.60699
32.783298 5.4861798 -963.95502
33.504002 5.4435802 -964.43903
34.187099 5.4239602 -964.901
34.871399 5.4203 -965.36499
35.656399 5.3931499 -965.94
36.3521 5.3584099 -966.43201
37.123001 5.3612299 -967.01599
37.77 5.3789201 -967.41803
38.557999 5.3557601 -968.03101
40.2505 5.2961998 -969.57501
40.915798 5.2750902 -970.146
41.417999 5.30795 -970.51202
-28.9799 9.3185301 -987.13397
-28.733 8.7621603 -985.84802
-28.1453 9.1978703 -985.37097
-27.739 9.1883001 -983.16101
-27.268999 9.1128302 -982.62701
-26.900299 8.5777397 -981.797
-26.4664 9.0326595 -981.10797
-26.168699 8.9826698 -980.271
-25.7598 8.9489698 -979.51898
-24.8195 8.8604002 -978.31702
-24.5205 8.8237495 -977.47699
-23.269699 8.72332 -975.76501
-22.9221 8.6803398 -975.13
-22.535101 8.6734695 -974.51398
-22.0959 8.6196203 -974.03998
-21.578199 8.5788698 -973.61401
-21.154699 8.5860205 -973.034
-20.7542 8.51579 -972.44702
-20.1747 8.4770098 -972.172
-19.721399 8.4427004 -971.72302
-19.340099 8.40658 -971.23999
-18.953501 8.3959599 -970.79797
-18.447599 8.3372202 -970.47998
-17.659401 8.2882204 -969.45697
-16.683399 8.2192698 -968.716
-16.317101 8.20224 -968.14301
-15.6506 8.1521502 -968.052
-15.3066 8.1142998 -967.56403
-14.9844 8.0886097 -967.04602
-14.4291 8.0590897 -966.901
-14.0133 8.0578203 -966.49597
-13.487 8.0125599 -966.26898
-12.0903 7.9068198 -965.24701
-11.2454 7.8928699 -964.43903
-10.6077 7.8291202 -964.42297
-10.2068 7.8109798 -964.17999
-9.5060997 7.6878901 -964.17297
-8.8622398 7.7304702 -963.30798
-8.3444796 7.75635 -962.95599
-7.45575 7.6275201 -962.36902
-4.60217 7.4882798 -961.11499
-4.0695801 6.9509902 -960.10602
-2.4819901 7.3400698 -960.50098
-1.84662 7.32967 -959.63898
-0.89855999 7.2539601 -960.10901
-0.74597198 7.2505398 -959.53802
-0.0166016 7.2053199 -959.73401
0.450073 7.1663699 -959.58398
1.0189199 7.1441898 -959.54303
1.50415 7.1385298 -959.37598
2.6673601 7.0716701 -959.31
3.0697601 7.0803099 -959.01501
3.48383 7.0492601 -958.76398
4.1261601 7.0183301 -958.87402
4.5551801 6.9938402 -958.69098
5.6481299 6.9591498 -958.69299
6.1500902 6.9082899 -958.59399
6.6107798 6.9084101 -958.43597
8.2059298 6.8295002 -958.20697
8.8392296 6.7895598 -958.29999
9.3181801 6.7572198 -958.21997
10.8978 6.6935201 -958.21802
11.3482 6.6917 -958.091
11.9402 6.6542001 -958.15698
12.5048 6.6324 -958.16901
13.0242 6.6160302 -958.12299
13.5906 6.5799899 -958.133
14.2881 6.5554399 -958.36102
14.73 6.5443902 -958.263
15.3704 6.4935498 -958.44501
15.8541 6.4881701 -958.45898
16.394199 6.46703 -958.479
16.8909 6.4581099 -958.479
17.369801 6.4623199 -958.42603
17.973 6.4224701 -958.53198
18.587299 6.40728 -958.68201
19.3395 6.3977098 -958.987
19.8836 6.3665199 -959.03998
20.481001 6.3522 -959.19098
21.039301 6.3218498 -959.32202
21.6243 6.30405 -959.50098
22.025499 6.2959399 -959.40802
22.8053 6.2306199 -959.85498
23.3613 6.22717 -959.96899
23.905899 6.1847701 -960.052
24.624599 6.16745 -960.38397
25.0909 6.1594701 -960.35498
25.8293 6.1508999 -960.71899
27.059999 6.1054201 -961.229
27.6168 6.0875602 -961.435
28.210699 6.0876999 -961.67999
29.004299 6.0471802 -962.18402
29.5063 6.0307202 -962.28802
30.2626 6.0227699 -962.72601
30.8964 6.0176201 -963.00201
31.544399 6.0116801 -963.29303
32.2994 5.9778099 -963.784
33.5975 5.9514599 -964.56201
34.171501 5.9320798 -964.87201
34.9366 5.9040499 -965.427
35.750702 5.88903 -966.047
36.343399 5.89397 -966.39899
37.715599 5.88902 -967.34302
38.593399 5.8602901 -968.09601
39.493698 5.8557901 -968.92297
40.837101 5.8214502 -970.04303
-29.520599 9.8726301 -987.979
-28.568001 9.7760801 -986.25
-28.101 9.73843 -985.46002
-27.978701 9.7035799 -984.26398
-27.617201 9.6585703 -983.39697
-26.710899 9.56812 -982.15503
-26.047899 9.4882298 -980.45898
-25.547899 9.4467201 -979.85901
-25.2957 9.4090004 -978.97803
-24.844999 9.3796196 -978.29602
-24.398899 9.3181496 -977.66199
-23.9517 9.3145599 -977.17603
-23.6987 9.27701 -976.31097
-23.311501 9.2402096 -975.77197
-22.873899 9.1831102 -975.24701
-21.876801 9.1022301 -974.38
-21.559099 9.0565596 -973.59998
-21.08 9.0481596 -973.159
-20.700399 9.0150204 -972.54102
-20.1371 8.9651899 -972.20898
-19.7899 8.9523401 -971.62402
-19.3057 8.9212999 -971.28003
-18.980101 8.8775501 -970.75201
-18.508101 8.8398199 -970.34399
-18.090401 8.8156996 -969.89301
-17.1105 8.7521095 -969.15002
-16.168301 8.6939201 -968.35901
-15.7106 8.6584501 -967.95502
-15.4235 8.6242905 -967.36798
-14.946 8.5991402 -967.07202
-14.3696 8.5363598 -966.96698
-13.9082 8.5189304 -966.64099
-13.0774 8.4680595 -965.84698
-12.5479 8.4398298 -965.59698
-12.1906 8.41537 -965.10797
-11.6694 8.3797398 -964.80798
-11.1008 8.3270998 -964.63
-10.5871 8.2957602 -964.47803
-10.2194 8.2834501 -964.099
-9.6809101 8.2349596 -963.88202
-8.8886099 8.2199001 -963.203
-7.9264498 8.1457901 -962.76599
-6.6950698 8.0526695 -962.49597
-6.2031898 8.0602398 -962.33899
-5.7727098 8.0080996 -962.24103
-4.6628399 7.99578 -960.987
-3.6803601 7.8894901 -961.539
-2.6716299 7.8608999 -960.20697
-2.1487401 7.81811 -960.05402
-1.75537 7.7972002 -959.73199
-0.84326202 7.7457399 -959.38501
0.482788 7.6834002 -959.599
1.02545 7.6547198 -959.51801
1.5531 7.61867 -959.39502
2.4361601 7.5904498 -958.95599
2.9976201 7.5644898 -958.89502
3.6096799 7.5364599 -958.927
4.5880098 7.4844499 -958.69702
5.0682998 7.4791799 -958.60999
5.5898399 7.43571 -958.56097
6.18958 7.4099698 -958.604
6.65308 7.4009299 -958.47601
7.2460299 7.3593702 -958.49701
8.1842699 7.2979598 -958.14697
8.8366699 7.2635398 -958.24701
9.35602 7.2326198 -958.25598
10.3299 7.2094102 -958.13
10.8472 7.19419 -958.10101
11.3036 7.17558 -957.99701
12.4944 7.13169 -958.12598
13.0297 7.1030998 -958.10101
13.5308 7.0657301 -958.03998
14.2023 7.0580702 -958.20099
14.6796 7.0448599 -958.15601
15.2985 7.0074501 -958.30499
15.8557 6.99158 -958.42401
16.440399 6.9507999 -958.53003
16.9084 6.95123 -958.474
17.5233 6.9387698 -958.60699
18.0184 6.9341998 -958.57703
18.6423 6.9206901 -958.73602
19.280199 6.8569198 -958.88898
19.9007 6.8417802 -959.04797
20.5364 6.82026 -959.25098
20.921 6.79913 -959.14801
21.537399 6.78723 -959.36298
22.1022 6.7497201 -959.479
22.797001 6.7112899 -959.81299
24.613899 6.6993299 -960.32397
25.0793 6.6802301 -960.30402
25.860001 6.6652699 -960.75702
26.304399 6.6434202 -960.758
27.0905 6.6257601 -961.23999
27.6635 6.6020999 -961.48999
28.278 6.5698299 -961.75299
29.0009 6.5441399 -962.14398
29.5539 6.5191302 -962.32599
30.218 6.5190201 -962.63501
30.9175 6.5169902 -962.995
31.4897 6.5033002 -963.20502
32.2836 6.4808202 -963.75897
32.947601 6.4843702 -964.15698
34.269299 6.4402099 -964.99402
34.857601 6.4194102 -965.30402
35.6553 6.3851399 -965.91302
36.402199 6.3647499 -966.45898
37.163601 6.36129 -967.03601
37.963001 6.3661699 -967.68103
38.769501 6.3547502 -968.33698
39.503899 6.3460102 -968.93701
40.263401 6.3386202 -969.60199
40.939499 6.35465 -970.185
41.426899 6.39746 -970.5
-29.454 10.3882 -988.07202
-28.8095 10.3029 -987.54901
-28.018 10.2291 -984.22198
-27.527 10.136 -983.59802
-27.0935 10.1014 -982.95599
-25.886499 9.9665699 -980.73199
-25.609301 9.9376602 -979.79303
-25.261 9.9057798 -979.01599
-24.841999 9.8593798 -978.32001
-24.4291 9.8176203 -977.64697
-23.6577 9.76441 -976.38
-23.2314 9.7213802 -975.896
-22.7957 9.6907597 -975.35797
-22.435699 9.64608 -974.70099
-22.048 9.6103697 -974.10797
-21.3118 9.5545301 -974.01898
-21.058701 9.5098 -973.21399
-20.733999 9.5103798 -972.48199
-20.1768 9.4583397 -972.15302
-19.893299 9.4416704 -971.48401
-19.3346 9.3999701 -971.23199
-19.0208 9.37321 -970.68903
-18.552799 9.3374004 -970.30298
-18.108801 9.3071003 -969.84998
-17.121599 9.2400198 -969.12799
-16.6882 9.21136 -968.69098
-16.0986 9.1593103 -968.46002
-15.728 9.1326199 -967.91199
-15.3789 9.11485 -967.43402
-14.8673 9.05937 -967.16199
-14.4713 9.0556002 -966.80798
-14.0271 9.0116796 -966.45099
-12.5339 8.9159603 -965.57501
-12.0861 8.8932104 -965.23297
-11.5797 8.8537302 -964.95898
-11.1086 8.7802 -964.61298
-10.5251 8.75208 -964.49701
-9.9384203 8.7134399 -963.505
-8.9001503 8.6804199 -963.13202
-8.3044996 8.6446505 -963.01001
-7.5525498 8.6219902 -962.16101
-6.93964 8.6073704 -962.11798
-5.05762 8.4755602 -962.14801
-2.0504799 8.2907696 -960.16602
-0.79925501 8.2481203 -959.40503
0.374084 8.1527901 -959.41699
1.63574 8.0989199 -959.52002
1.77167 8.0909004 -958.86401
2.60919 8.05021 -959.18701
3.112 8.0246201 -959.01501
3.53619 8.0225496 -958.77399
4.4510498 7.99301 -958.45898
5.0221601 7.9376898 -958.52301
5.5609102 7.8948798 -958.5
7.0468798 7.8421302 -958.18701
7.7520099 7.7941599 -958.35999
8.2986498 7.76724 -958.28101
8.8892202 7.7501101 -958.31
10.8641 7.6628599 -958.11798
13.1169 7.5654402 -958.21198
13.5612 7.5399098 -958.03003
14.1565 7.5159302 -958.12402
14.6636 7.5237799 -958.11401
15.2622 7.5005002 -958.245
15.7242 7.4594998 -958.20697
16.34 7.4136701 -958.37097
17.0261 7.3974299 -958.60901
17.494499 7.38938 -958.54797
18.067499 7.3912001 -958.60602
18.632601 7.35851 -958.68402
19.3267 7.3305402 -958.927
19.922501 7.30441 -959.04901
21.5511 7.2582002 -959.36401
22.0912 7.2407799 -959.48199
22.8307 7.2067199 -959.84497
23.410299 7.1754599 -959.98199
23.9195 7.17101 -960.00897
24.544701 7.1825199 -960.20898
25.182899 7.1430702 -960.42603
25.875099 7.1194401 -960.76001
27.138399 7.0901899 -961.27802
27.6654 7.0741501 -961.45398
28.135599 7.0627599 -961.51703
28.922701 7.03439 -962.021
29.685499 6.9903598 -962.47601
30.262199 7.01473 -962.66803
31.6224 6.9930601 -963.37701
32.311501 6.9557199 -963.784
32.913101 6.9621301 -964.10303
33.669498 6.9375701 -964.63501
34.276402 6.9054699 -964.992
34.980701 6.8828802 -965.46802
35.674999 6.9070101 -965.93201
36.466599 6.8934598 -966.53101
37.225399 6.8642998 -967.10303
37.9473 6.85531 -967.63098
39.510399 6.8035302 -968.948
39.615601 7.3394399 -969.08002
41.531799 6.8779802 -970.67102
-29.8179 10.9954 -991
-29.715 10.9826 -989.46698
-28.771 10.8211 -987.69299
-28.451799 10.7588 -986.57898
-28.116301 10.7363 -985.565
-27.8871 10.7064 -984.47699
-27.4037 10.6671 -983.81
-26.973801 10.6191 -983.16699
-26.842199 10.6046 -981.96301
-26.403299 10.5406 -981.28003
-25.9792 10.5111 -980.60901
-25.494101 10.458 -979.96399
-25.133699 10.3927 -979.21997
-24.844101 10.3811 -978.31897
-24.120001 10.3324 -978.12097
-24.0009 10.2958 -977.06299
-23.584999 10.2522 -976.54901
-23.188299 10.2388 -975.95599
-22.6336 10.1757 -975.617
-22.3743 10.1675 -974.81201
-21.4002 10.0697 -973.85498
-21.0721 10.0555 -973.20697
-20.638399 10.0126 -972.646
-20.180099 9.9587402 -972.146
-19.638901 9.9174004 -971.86902
-19.2213 9.9050303 -971.39398
-18.9713 9.8803902 -970.75403
-18.5126 9.8382502 -970.33502
-17.9272 9.7758598 -970.117
-16.998501 9.7280798 -969.31702
-16.7255 9.70644 -968.63
-16.130301 9.6461601 -968.40302
-15.7108 9.6392202 -967.95801
-15.3682 9.6215897 -967.42902
-14.7415 9.5446501 -967.34399
-14.3551 9.54111 -966.97601
-13.8973 9.5162201 -966.64398
-12.9363 9.4261599 -966.05902
-12.0443 9.3754702 -965.284
-11.6085 9.3769102 -964.87598
-11.1988 9.3038597 -964.47699
-10.5802 9.2776899 -964.41803
-10.321 9.2891502 -963.86298
-9.8001699 9.2126102 -963.66803
-8.3835402 9.1575804 -962.87598
-7.7823501 9.11166 -962.94897
-7.2287002 9.0167503 -962.61499
-6.6026602 9.0312204 -961.69202
-4.9293799 8.9609098 -961.33197
-3.6558199 8.87356 -960.586
-2.4464099 8.75916 -960.44501
-0.87139899 8.7341805 -960.05103
-0.82073998 8.7570601 -959.34302
0.51532 8.6303596 -959.59497
1.6236 8.5815697 -959.47302
1.90295 8.6004896 -959.01703
2.5559101 8.5565996 -959.086
3.17133 8.5190201 -959.065
3.51794 8.4996595 -958.72302
5.6581402 8.3847399 -958.61102
6.1293898 8.3414497 -958.50299
6.6099901 8.34867 -958.35999
7.7055101 8.2855701 -958.27301
8.3112202 8.2567501 -958.255
8.7005596 8.2456102 -958.01099
9.8921499 8.1818304 -958.18799
10.3505 8.17381 -958.11603
10.9236 8.1459303 -958.15997
12.1174 8.0767097 -958.31702
13.124 8.0608101 -958.203
14.2493 8.0129995 -958.20502
14.7897 7.9790001 -958.25
15.297 7.9685302 -958.25403
15.8376 7.9425802 -958.34198
17.051201 7.90172 -958.59698
17.4795 7.8860202 -958.508
18.216 7.8436499 -958.80603
19.1649 7.8213401 -958.66498
19.890699 7.7740598 -958.95001
20.431 7.78619 -959.04602
21.0406 7.7609401 -959.25
21.508499 7.7520499 -959.255
22.1105 7.7432499 -959.461
22.7337 7.7149 -959.67603
23.389999 7.68678 -959.91101
23.9867 7.67909 -960.06598
25.302601 7.6189799 -960.54602
25.8668 7.61092 -960.70898
26.5543 7.5782099 -961.04901
27.1793 7.58395 -961.328
29.008699 7.5383101 -962.10699
30.3179 7.4950199 -962.73602
30.991301 7.5183702 -963.06
31.707899 7.4788399 -963.46802
32.349899 7.4495301 -963.81897
33.611 7.4303899 -964.53601
34.2943 7.40803 -964.98602
35.003399 7.4191499 -965.47198
36.4627 7.3775702 -966.51501
37.284302 7.3508701 -967.185
37.949902 7.3520398 -967.62402
38.718102 7.3481798 -968.24902
40.393398 7.3312802 -969.77899
41.020199 7.3521099 -970.28699
-28.4105 11.3089 -986.69397
-28.087799 11.2677 -985.71198
-27.7535 11.2453 -984.76703
-27.4802 11.2216 -983.77399
-27.160999 11.1735 -982.94501
-26.7729 11.1186 -982.13202
-26.309401 11.08 -981.49298
-25.914801 11.0337 -980.703
-25.5131 10.9961 -979.98798
-25.1973 10.9732 -979.13397
-24.5975 10.882 -978.72699
-24.282499 10.8339 -977.91199
-23.938 10.8039 -977.20697
-23.402399 10.7607 -976.84497
-23.141399 10.7445 -976.05499
-22.715 10.694 -975.50702
-22.171499 10.6818 -975.13202
-21.3981 10.586 -973.88098
-20.9545 10.5569 -973.35303
-20.5065 10.4974 -972.85699
-19.9368 10.4666 -972.53302
-19.8193 10.4729 -971.57703
-19.190001 10.4111 -971.44598
-18.8484 10.3949 -970.92102
-18.4151 10.3581 -970.51202
-17.890699 10.2993 -970.18103
-17.6033 10.2769 -969.51599
-17.0938 10.2393 -969.151
-16.567699 10.182 -968.86298
-16.014601 10.1632 -968.54102
-15.6802 10.1394 -967.98199
-15.3408 10.112 -967.50299
-14.6811 10.0756 -967.43903
-13.7917 10.0015 -966.79303
-13.0785 9.9801903 -965.83301
-11.919 9.8720102 -965.45898
-11.3701 9.8239698 -965.21997
-10.8826 9.7834902 -964.93799
-10.543 9.8072996 -964.47101
-10.2546 9.7805996 -963.95099
-9.6486197 9.7425804 -963.87402
-8.8001699 9.6884899 -963.35199
-8.0624399 9.6053696 -963.37201
-7.2192998 9.6293097 -962.73602
-6.1147499 9.5401096 -962.35602
-5.6041899 9.5378199 -961.31403
-3.94592 9.4269896 -961.04199
-2.75702 9.34023 -959.95697
-2.2425499 9.3318195 -959.828
-1.69824 9.30334 -959.75
0.162292 9.1626997 -959.88397
0.57604998 9.1356297 -959.66901
0.996521 9.1359396 -959.414
1.52502 9.1119204 -959.33197
2.03491 9.0817299 -959.17798
2.59424 9.0326405 -959.104
3.19946 9.0150204 -959.09198
3.5481601 8.9991102 -958.72601
4.2130699 8.9474201 -958.85699
4.6318998 8.9359303 -958.672
5.1273198 8.9011698 -958.62
5.6779799 8.8795204 -958.63397
6.1348901 8.8695803 -958.44098
7.0396099 8.8369398 -958.11798
8.2779503 8.78757 -958.18799
9.3875103 9.2692604 -958.06702
9.82794 8.7280998 -958.05798
10.5242 8.6663399 -958.29102
10.9162 8.6659603 -958.12
12.2892 8.63731 -957.75702
13.3326 8.57376 -958.396
14.2164 8.5467196 -958.12799
15.3256 8.4844599 -958.24701
15.8786 8.4798698 -958.34497
16.2985 8.4643698 -958.23401
17.0201 8.4278097 -958.53802
17.5308 8.3989897 -958.52301
18.083799 8.3930397 -958.58301
18.709499 8.36057 -958.72601
19.3015 8.3513298 -958.81897
19.947399 8.3171396 -959.01703
20.5854 8.2788897 -959.23401
21.1161 8.2681303 -959.33099
22.1334 8.2350197 -959.461
22.887199 8.2128096 -959.85699
23.413601 8.1979303 -959.92999
24.048401 8.16113 -960.14099
24.7775 8.1500702 -960.49799
25.299 8.1495705 -960.54199
25.888201 8.1231403 -960.72198
26.572599 8.0920296 -961.047
27.8221 8.0606499 -961.62
28.3785 8.0524397 -961.81097
29.048 8.0385904 -962.13501
29.632299 8.0198603 -962.35498
30.224701 8.0272102 -962.56799
30.870701 8.0028601 -962.86798
32.377602 7.9566598 -963.84497
33.113602 7.9401102 -964.33502
34.430099 7.89816 -965.172
35.7509 7.8969998 -966.01398
36.418999 7.8944998 -966.44299
38.861401 7.9014101 -968.45001
39.633202 7.8744102 -969.10303
40.955799 7.85992 -970.21399
-28.9102 11.413 -989.25598
-28.919901 11.9344 -987.64697
-28.4221 11.8551 -986.75098
-27.9055 11.8148 -986.04498
-27.699301 11.7888 -984.88599
-27.259501 11.7279 -984.17999
-27.1143 11.7119 -983.08502
-26.7651 11.6788 -982.21802
-26.4091 11.6166 -981.35101
-25.189501 11.491 -979.159
-24.7904 11.4339 -978.46997
-24.233999 11.3895 -978.00299
-23.9923 11.3642 -977.13397
-23.4856 11.3188 -976.71198
-22.9512 11.257 -976.35498
-22.6392 11.2312 -975.65002
-22.2337 11.2073 -975.03699
-21.8314 11.1657 -974.46399
-21.425699 11.1227 -973.87402
-20.8929 11.0674 -973.45203
-20.349701 11.0279 -973.07001
-20.1082 11.0152 -972.28699
-19.577101 10.9692 -971.95502
-19.2715 10.933 -971.29102
-18.767 10.9202 -971.04303
-18.4389 10.8859 -970.44702
-17.968599 10.8354 -970.06799
-17.4361 10.8044 -969.75897
-16.775801 10.7344 -969.63
-16.683201 10.7197 -968.66199
-16.123699 10.6852 -968.38
-15.4838 10.6251 -968.27002
-15.1123 10.6062 -967.81799
-14.7648 10.5893 -967.30499
-14.3511 10.5515 -966.93298
-13.8739 10.5456 -966.62299
-13.43 10.5211 -966.263
-13.0878 10.4822 -965.755
-12.0034 10.4106 -965.29401
-11.6041 10.3949 -964.81897
-11.1275 10.3573 -964.56799
-10.4284 10.3214 -964.59998
-10.1506 10.2888 -964.09497
-9.1374502 10.2422 -963.73901
-8.0563402 10.1885 -962.43799
-6.9587402 10.0952 -962.97101
-3.53333 9.9105501 -960.67102
-0.93896502 9.7631903 -959.88397
-0.72851598 9.7657404 -959.40503
0.123169 9.6841097 -959.77301
0.51843297 9.6691399 -959.53302
1.7979701 9.61866 -959.63501
2.8345301 9.5528603 -959.35602
3.1849999 9.5566902 -959.013
4.1973901 9.5060997 -958.77899
4.5631099 9.51511 -958.51001
5.1602201 9.4777899 -958.58197
5.61694 9.4393301 -958.43298
6.1162701 9.4135799 -958.33801
6.8054199 9.3806 -958.46997
7.6544199 9.8970299 -957.88599
8.7834501 9.3115702 -957.98401
9.8967304 9.2541504 -958.02399
10.4445 9.2260303 -958.078
10.9254 9.2092304 -957.99701
11.5175 9.18435 -958.07898
12.0001 9.1812696 -957.96503
12.4649 9.1423197 -957.86499
13.1823 9.1127996 -958.099
13.688 9.0996399 -958.013
14.2631 9.0669899 -958.06097
14.7955 9.0569296 -958.08698
15.3401 9.0472002 -958.14398
15.902 9.0066099 -958.25897
16.409201 8.9977303 -958.276
16.901899 8.9819002 -958.23199
17.601601 8.9342804 -958.5
18.1824 8.9327002 -958.56799
18.784401 8.9066801 -958.70001
19.413099 8.8756704 -958.84399
19.950701 8.8677197 -958.86798
20.395 8.8673201 -958.84998
21.038799 8.8255796 -959.11902
21.6341 8.7966204 -959.31897
22.2286 8.7868204 -959.51001
22.823299 8.78232 -959.677
23.500601 8.7599897 -959.95398
24.066401 8.7403002 -960.06897
24.5858 8.7271204 -960.15198
25.3857 8.6981602 -960.59399
25.880699 8.6920204 -960.63898
26.5177 8.6642504 -960.92902
27.2258 8.6177101 -961.33301
27.8027 8.6165304 -961.55902
28.4053 8.5989103 -961.81
29.044201 8.5608702 -962.10999
29.6812 8.5498505 -962.39801
30.3631 8.5593395 -962.75201
30.919201 8.5369196 -962.94098
32.341099 8.4920301 -963.75702
33.072899 8.4826298 -964.24402
34.266701 8.4522104 -964.91901
35.012001 8.4437904 -965.45099
35.801498 8.4230099 -966.04999
37.9333 8.4054003 -967.604
38.8027 8.4067297 -968.362
40.317902 8.97299 -969.68799
-29.114901 12.5989 -989.12299
-28.762899 12.5435 -987.95502
-28.444901 12.4451 -986.841
-28.032801 12.4268 -985.94501
-27.685499 12.3848 -985.00897
-27.314699 12.325 -984.15503
-26.872499 12.2795 -983.48199
-26.638 12.2437 -982.427
-26.374001 12.1906 -981.48102
-25.7218 12.126 -981.18903
-25.323099 12.104 -980.36902
-24.947001 12.0492 -979.60797
-24.5944 12.0121 -978.83002
-24.2953 11.9778 -977.94501
-23.720699 11.9149 -977.60699
-23.4067 11.8827 -976.84003
-22.8878 11.8547 -976.495
-22.5488 11.8148 -975.78198
-22.1884 11.7823 -975.12299
-21.8839 11.7579 -974.37903
-21.437 11.72 -973.85498
-20.9512 11.6559 -973.38702
-20.502701 11.6284 -972.84698
-20.048201 11.5868 -972.34698
-19.538601 11.542 -972.05402
-19.140499 11.4952 -971.53601
-18.578199 11.4693 -971.30499
-18.379801 11.4303 -970.53601
-17.8727 11.4103 -970.20898
-17.5786 11.406 -969.52502
-17.148899 11.3646 -969.04498
-16.687099 11.3124 -968.64301
-16.212299 11.2849 -968.23798
-15.6075 11.2445 -968.08002
-15.2042 11.1941 -967.65802
-14.7791 11.1874 -967.26001
-14.2693 11.1516 -967.03802
-13.793 11.1093 -966.74298
-13.3801 11.0782 -966.32898
-12.5254 10.995 -965.51898
-11.8419 10.9819 -965.47803
-11.4861 10.9562 -964.97101
-11.1393 10.9367 -964.52197
-10.5086 10.9043 -964.45898
-10.2 10.8536 -964.005
-9.4152803 10.806 -964.16699
-9.00842 10.793 -963.86298
-8.2006197 10.7028 -963.02899
-6.5208702 10.8057 -962.617
-5.2300401 10.6087 -960.90399
-4.7985201 10.5542 -962.33301
-4.34973 10.5464 -961.27399
-3.8889799 10.5259 -961.02802
-3.16467 10.447 -961.12097
-3.21802 10.4943 -960.17401
-2.2554901 10.448 -960.578
-1.87 10.3987 -960.22198
-0.76916498 10.3057 -960.01099
-0.68133497 10.329 -959.31598
0.155334 10.2747 -959.70398
0.92517102 10.2293 -959.10602
1.6645499 10.1799 -959.27899
1.91144 10.1905 -958.76501
2.6709001 10.1079 -958.98999
3.0415001 10.127 -958.62299
3.6623499 10.0909 -958.65503
4.1210299 10.0496 -958.50897
4.5570102 10.0627 -958.29303
5.1118202 10.0049 -958.341
5.6148701 9.9523296 -958.28802
6.15558 9.9481401 -958.21802
6.7175899 9.9479904 -958.21399
8.91992 9.8408899 -958.01501
9.3930101 9.8309898 -957.91699
9.8924599 9.8042803 -957.89099
10.3004 9.75774 -957.74799
10.8201 9.7628298 -957.71198
11.3736 9.7340202 -957.74103
11.9062 9.7102699 -957.71802
12.6232 9.6659298 -957.95099
13.1554 9.6562796 -957.91901
13.671 9.6319799 -957.86603
14.7999 9.6041803 -957.966
15.2914 9.59688 -957.95398
15.8987 9.5577202 -958.11401
16.486601 9.5264196 -958.245
16.944599 9.5115805 -958.15399
17.4977 9.4744501 -958.22998
18.1514 9.4660902 -958.41498
18.6901 9.4524498 -958.43903
19.9342 9.3972902 -958.716
20.491899 9.3761702 -958.836
21.1374 9.3554497 -959.10303
22.228901 9.3354101 -959.34601
22.889601 9.3249502 -959.59198
23.409401 9.2914495 -959.65802
24.025 9.2837496 -959.85901
24.612101 9.2607098 -960.01001
25.248699 9.24471 -960.23401
25.9547 9.2318001 -960.55798
26.530199 9.2048302 -960.76898
27.114 9.2003899 -960.995
27.7293 9.2025099 -961.27002
29.682301 9.1520395 -962.255
30.376699 9.1224804 -962.63397
31.0042 9.0967197 -962.94598
31.7244 9.0797195 -963.38599
32.395302 9.0845604 -963.76501
33.141499 9.09338 -964.28497
33.8466 9.0570602 -964.78003
34.418598 9.0242205 -965.10699
35.046101 9.0432701 -965.47803
35.784 9.0216799 -966.01001
36.584099 9.0103598 -966.646
37.3535 8.9941597 -967.237
38.102501 8.9562397 -967.81897
38.919102 8.9358702 -968.52698
39.669102 8.9467001 -969.16602
-29.4447 12.6612 -990.30902
-28.9909 13.1356 -989.40802
-28.281799 13.026 -987.21198
-27.9744 13.0233 -986.11298
-27.502399 12.9277 -985.38397
-27.2286 12.9 -984.35199
-26.624701 12.8084 -982.58502
-26.1341 12.7537 -981.948
-25.575899 12.6957 -981.43201
-25.3827 12.6761 -980.35199
-24.8543 12.6075 -979.80603
-24.6516 12.6064 -978.70099
-24.0954 12.5225 -978.28198
-23.6215 12.4839 -977.79102
-22.9814 12.4016 -976.37598
-22.515699 12.3954 -975.89801
-22.1231 12.3305 -975.26202
-21.818701 12.311 -974.51202
-21.240299 12.2589 -974.172
-20.8234 12.2119 -973.60797
-20.4454 12.1803 -972.91101
-19.9452 12.1584 -972.51801
-19.6152 12.1352 -971.92999
-19.099501 12.0945 -971.59601
-18.760599 12.0375 -971.04401
-17.8234 11.9714 -970.26801
-17.380899 11.939 -969.85602
-16.9391 11.8959 -969.38898
-16.5369 11.8733 -968.85797
-16.084999 11.84 -968.40399
-15.4722 11.7826 -968.28998
-15.1942 11.7724 -967.64099
-14.7508 11.7496 -967.28998
-14.3123 11.7107 -966.97699
-13.7571 11.6672 -966.80701
-13.4282 11.65 -966.21698
-12.95 11.6064 -965.93701
-12.4899 11.5527 -965.58002
-11.4733 11.4807 -964.99597
-10.3541 11.412 -964.62
-10.3611 11.4652 -963.68799
-9.1992798 11.3472 -964.45203
-9.11975 11.3769 -963.66302
-9.02808 11.4097 -962.84698
-7.99719 11.3162 -963.29602
-7.9525099 11.3587 -962.44702
-7.0122099 11.2612 -962.75598
-6.7040401 11.2567 -962.25598
-5.6079702 11.1559 -961.92798
-5.4500699 11.1473 -961.31799
-4.8340502 11.0951 -961.289
-4.4486699 11.0711 -960.979
-2.9705801 10.9458 -961.26001
-2.19275 10.932 -960.53802
-1.90497 10.9177 -960.04401
-1.73523 10.923 -959.414
-0.71020502 10.8544 -959.164
0.26605201 10.7744 -959.73999
0.60296601 10.7702 -959.39203
1.51068 10.7403 -958.95001
2.59479 10.6987 -958.75897
3.12708 10.6756 -958.62402
3.64325 10.6797 -958.547
4.1632099 10.6171 -958.46198
5.164 10.5593 -958.34003
5.6430702 10.5272 -958.22198
6.1235399 10.5217 -958.08197
6.6602201 10.5025 -958.01398
8.8777504 10.4082 -957.909
9.4006996 10.355 -957.88
10.2805 10.3556 -957.633
10.9083 10.3446 -957.78003
11.4471 10.2908 -957.78101
11.9977 10.2339 -957.823
12.5671 10.2242 -957.79498
12.998 10.2284 -957.62598
13.718 10.2336 -957.85101
14.2646 10.1604 -957.87402
14.8094 10.1457 -957.89301
15.3483 10.1238 -957.93597
15.9262 10.1035 -958.08801
16.3927 10.092 -958.07202
16.950199 10.0604 -958.12701
17.516199 10.0514 -958.19098
18.1658 10.0176 -958.362
18.6887 10.0032 -958.375
19.371799 9.9616299 -958.604
19.8887 9.9320097 -958.61902
20.500299 9.9157 -958.789
21.065399 9.9257898 -958.89899
21.58 9.9021997 -958.979
22.1271 9.9146996 -959.12701
22.8529 9.8533201 -959.46503
23.2827 9.8527899 -959.396
23.9265 9.8435497 -959.62402
24.575701 9.8226204 -959.86401
25.262899 9.7964201 -960.146
25.943899 9.7693796 -960.43201
27.112101 9.7484303 -960.86902
27.6833 9.7343798 -961.078
28.4126 9.7126303 -961.50897
29.026199 9.6986504 -961.79797
29.576099 9.6961098 -961.966
30.326799 9.6517096 -962.42401
30.9727 9.6794701 -962.71698
31.7857 9.6321297 -963.25598
32.465302 9.6405497 -963.65698
33.077801 9.6363697 -963.99902
33.672901 9.6261797 -964.35498
34.344601 9.6149702 -964.83899
35.184601 9.5702896 -965.54901
37.350601 9.5915499 -967.19702
38.082001 9.5774097 -967.79901
39.003799 9.5620804 -968.64001
39.811501 9.5758104 -969.34003
40.4856 9.5706301 -969.91101
-29.0324 13.7931 -991.289
-28.860399 13.7447 -989.76703
-28.507299 13.6487 -988.66199
-27.8409 13.5708 -986.39301
-27.532301 13.5579 -985.383
-27.216101 13.4516 -984.47101
-26.6047 13.4069 -982.64398
-26.1712 13.3222 -981.935
-25.273399 13.2201 -980.53699
-24.9708 13.188 -979.68201
-24.4603 13.1575 -979.06702
-24.018499 13.1129 -978.44501
-23.701599 13.0714 -977.69897
-23.434 13.0527 -976.85999
-22.995501 13.0152 -976.35101
-21.740499 12.8868 -974.64801
-20.762501 12.7934 -973.70898
-20.303499 12.7281 -973.18201
-19.9084 12.7298 -972.58899
-19.5341 12.6743 -972.04401
-19.0291 12.6444 -971.70502
-18.734301 12.6222 -971.09998
-18.1957 12.5856 -970.81598
-17.7264 12.5334 -970.401
-17.417 12.5251 -969.81
-16.9639 12.4746 -969.323
-16.444401 12.424 -968.99103
-15.9011 12.3717 -968.70502
-15.5018 12.3581 -968.21301
-15.0788 12.3189 -967.85498
-14.5035 12.2926 -967.67798
-14.296 12.2898 -966.98102
-13.3637 12.2224 -966.31897
-12.6935 12.1576 -966.27301
-11.5894 12.0878 -965.763
-11.3967 12.0764 -965.03998
-11.0212 12.0808 -964.55603
-9.5996704 11.9637 -963.76801
-9.2401695 11.9485 -963.354
-8.0134897 11.854 -963.16901
-7.0798998 11.7647 -962.552
-6.7647099 11.7399 -962.03601
-6.4868798 11.7389 -961.492
-5.6374502 11.6449 -961.75403
-5.70538 11.6901 -960.85602
-3.04462 11.5499 -960.16602
-2.06287 11.4818 -960.58899
-1.09113 11.4226 -960.18597
-0.74786401 11.4106 -959.84698
-0.59704602 11.4435 -959.263
0.26141399 11.3762 -959.65399
0.97119099 11.3671 -959.005
1.70728 11.3226 -959.159
1.94873 11.3297 -958.67297
2.67627 11.2808 -958.77802
3.9755199 11.2289 -958.15399
5.0809898 11.1536 -958.138
6.1012602 11.098 -957.98499
9.35291 10.9225 -957.70502
10.2551 10.8778 -957.47498
10.8293 10.8491 -957.526
11.3561 10.8261 -957.47302
11.9522 10.8005 -957.59998
12.5316 10.7921 -957.58301
13.4919 10.7189 -957.37903
14.282 10.7043 -957.73901
14.7574 10.6844 -957.65302
15.7822 10.6634 -957.72998
16.453899 10.6207 -957.98499
17.934299 10.6088 -957.875
18.688 10.5619 -958.224
19.968399 10.5108 -958.57202
20.3799 10.5205 -958.487
21.386299 10.4878 -958.60498
22.266701 10.4413 -959.21802
22.6236 10.4366 -959.03302
23.955099 10.3803 -959.63
24.5942 10.3431 -959.84601
25.1514 10.3715 -959.927
25.8258 10.3678 -960.21997
26.4807 10.3157 -960.513
27.049 10.3276 -960.72302
27.684601 10.3169 -961.02399
28.3689 10.3137 -961.40002
29.0338 10.2805 -961.71198
29.644699 10.2552 -961.97198
30.197599 10.3162 -962.12299
31.0443 10.2786 -962.70502
31.747299 10.2293 -963.12598
32.308102 10.2248 -963.34003
33.055099 10.1963 -963.85602
34.379101 10.1595 -964.72601
35.0369 10.1532 -965.14801
35.839401 10.156 -965.79303
36.593899 10.1475 -966.39502
37.461498 10.1147 -967.16302
38.1488 10.1188 -967.71698
-28.446501 14.2121 -988.80902
-28.222401 13.6353 -987.45203
-27.6861 14.0864 -986.78302
-26.872999 13.447 -983.63098
-26.259501 13.9086 -983.23401
-25.281799 13.7985 -980.57397
-24.660601 13.7183 -980.21503
-24.3424 13.6978 -979.30603
-24.0217 13.6561 -978.495
-23.304701 13.5603 -977.08502
-22.948099 13.5356 -976.49402
-22.496799 13.4823 -975.935
-22.0975 13.4561 -975.32202
-21.724501 13.3965 -974.69501
-21.0728 13.3551 -974.46503
-20.281 13.3118 -973.229
-19.7927 13.2613 -972.784
-19.5823 13.2346 -972.00702
-18.909599 13.1749 -971.914
-18.584499 13.14 -971.33502
-18.269899 13.1054 -970.71899
-17.6744 13.079 -970.51099
-17.432699 13.0622 -969.758
-16.9529 13.0132 -969.32599
-16.490499 12.9851 -968.91901
-16.0303 12.9309 -968.49597
-15.5374 12.8992 -968.15002
-14.8983 12.8453 -968.04901
-14.7316 12.8516 -967.27899
-12.8239 12.7219 -965.97198
-12.3453 12.6663 -965.604
-11.9742 12.6543 -965.08502
-11.537 12.622 -964.69202
-10.9761 12.5671 -964.45398
-10.5377 12.5331 -964.14301
-10.0654 12.5089 -963.90698
-9.5139198 12.4652 -963.80298
-9.06635 12.4311 -963.495
-7.8264799 12.3356 -962.45599
-7.1124902 12.2907 -962.39099
-6.4217501 12.1993 -961.60199
-2.3731101 12.0711 -960.10101
-2.1007099 12.0678 -959.63501
-1.39307 12.0202 -959.75403
-0.890625 12.0019 -959.58698
-0.56298798 11.9773 -959.17499
-0.032897901 11.9264 -959.16602
0.53857398 11.9039 -959.10699
0.91577101 11.8949 -958.78302
1.60101 11.8244 -958.91199
2.0595701 11.7987 -958.651
3.1295199 11.7141 -958.422
3.3967299 11.6754 -957.94098
4.53687 11.6301 -957.93799
5.05548 11.6069 -957.90503
5.69098 11.5718 -957.99701
6.1171298 11.561 -957.784
7.1277499 11.5226 -957.55603
7.79352 11.4971 -957.65503
8.7301598 11.4517 -957.36298
9.3497295 11.4372 -957.414
9.7472496 11.4296 -957.23602
10.4205 11.3861 -957.45398
10.8065 11.3417 -957.23401
11.388 11.3443 -957.29602
11.9603 11.3146 -957.315
12.3995 11.2978 -957.18597
13.0381 11.2838 -957.28998
13.6964 11.2484 -957.41699
14.0997 11.2145 -957.24799
14.6888 11.1838 -957.32098
15.2133 11.1752 -957.35699
15.7601 11.1746 -957.42102
16.363001 11.1492 -957.56403
16.9464 11.1249 -957.672
17.399799 11.1213 -957.59399
18.0518 11.1078 -957.755
18.517599 11.102 -957.68103
19.222799 11.0676 -957.94897
19.921499 11.0352 -958.21198
20.3873 11.0281 -958.18701
20.935699 10.999 -958.28601
21.4559 10.9555 -958.41498
22.1166 10.9503 -958.66199
23.970301 10.9102 -959.27502
24.574301 10.8912 -959.47302
25.2523 10.8694 -959.76703
25.891001 10.8715 -959.99298
26.369801 10.8677 -960.04401
27.212601 10.8195 -960.66699
27.8337 10.8108 -961.01599
28.875299 10.7854 -961.29102
30.5854 10.7982 -961.966
31.189301 10.8315 -962.17297
32.8661 10.7465 -963.55603
34.144402 11.2196 -964.138
35.1022 10.6822 -965.159
35.822399 10.6665 -965.685
36.492599 10.6759 -966.13098
38.005199 10.665 -967.34003
38.760399 11.1358 -967.90302
39.3283 11.1852 -968.25201
-28.609699 14.2946 -990.32001
-28.386801 14.7395 -989.06201
-28.049601 14.665 -987.82703
-27.5658 14.5872 -985.52301
-27.1462 14.5436 -984.74902
-26.8953 14.4686 -983.729
-25.940201 14.3827 -982.44397
-25.582899 14.3474 -981.57501
-24.8123 14.2457 -979.98297
-23.9133 14.1483 -978.69598
-23.176201 14.0637 -977.34302
-22.8599 14.0383 -976.63702
-22.3416 13.9777 -976.20502
-21.983299 13.9373 -975.539
-21.7251 13.9291 -974.73798
-20.687099 13.8399 -973.84497
-19.843399 13.7691 -972.70398
-19.391701 13.7196 -972.28998
-18.889601 13.6548 -971.94702
-18.142099 13.6015 -970.90601
-17.698299 13.5709 -970.44299
-17.3237 13.5365 -969.89398
-16.9158 13.5156 -969.349
-16.4632 13.4874 -968.91101
-15.9246 13.4438 -968.57599
-15.3685 13.3896 -968.30103
-14.613 13.3162 -967.34497
-14.1859 13.2825 -966.96899
-13.8416 13.2678 -966.43298
-13.2803 13.2242 -966.19397
-12.7817 13.1909 -965.90302
-11.7803 13.111 -965.284
-11.4571 13.0875 -964.71503
-11.0081 13.0851 -964.33801
-10.4243 13.0108 -964.23401
-10.0391 13.0108 -963.86401
-9.5495596 12.987 -963.68597
-9.1593599 12.9844 -963.32397
-8.7806396 12.9466 -962.896
-8.1265297 12.8813 -962.89099
-8.1069899 12.9173 -961.96899
-6.7990699 12.8426 -961.84998
-3.2973001 12.5825 -960.51801
-2.9000199 12.5685 -960.16199
-2.4005101 12.523 -959.94098
-1.867 12.4969 -959.784
-1.41882 12.4756 -959.51398
-0.70324701 12.4138 -959.64301
-0.471497 12.4025 -959.13599
0.000549316 12.3675 -958.98602
0.98095697 12.3451 -958.67798
2.5058 12.2558 -958.25201
3.02002 12.2175 -958.10699
3.5809901 12.1862 -958.04999
4.0796499 12.1943 -957.92603
4.52075 12.1738 -957.75897
5.4465899 12.1139 -957.50201
6.0264301 12.0864 -957.52502
7.7361498 12.0077 -957.45502
8.2376699 11.9944 -957.32001
8.6526499 11.9907 -957.10303
9.65137 11.9333 -956.992
10.5145 11.8825 -957.45099
10.8556 11.8754 -957.19299
11.2411 11.8551 -956.979
11.9916 11.8153 -957.24298
12.2509 11.83 -956.82599
12.9976 11.7819 -957.09302
13.5727 11.7694 -957.11401
14.0848 11.75 -957.08801
14.683 11.711 -957.18701
15.2599 11.6782 -957.30603
15.6716 11.6916 -957.18103
16.3323 11.6526 -957.40698
16.839199 11.6523 -957.39398
17.494801 11.5952 -957.60498
17.9459 11.6123 -957.48401
18.6022 11.5718 -957.68201
19.2339 11.5541 -957.84497
19.8002 11.5509 -957.90698
20.3423 11.5407 -957.98499
20.9244 11.5025 -958.15002
21.499599 11.4844 -958.31799
22.0399 11.456 -958.42297
22.7076 11.4302 -958.68903
23.281401 11.4266 -958.83099
23.8752 11.413 -958.979
24.463499 11.3915 -959.12799
25.122101 11.3694 -959.362
25.7276 11.3495 -959.57098
26.3652 11.3063 -959.86603
26.941299 11.2939 -960.07001
27.482901 11.3031 -960.23401
28.163799 11.2715 -960.62701
28.7621 11.2806 -960.84003
29.3162 11.2562 -961.01099
30.104601 11.2054 -961.539
31.538601 11.1769 -962.401
32.373299 11.1603 -963.06702
33.506699 11.2185 -963.72498
35.6241 11.1895 -965.31201
36.300999 11.2064 -965.79797
37.114601 11.1885 -966.47498
37.908001 11.152 -967.14203
-27.9412 15.2315 -988.117
-27.857201 15.1555 -986.69397
-26.9855 15.0498 -985.08197
-26.4951 14.9665 -984.46802
-26.1945 14.4211 -983.414
-25.122999 14.8106 -980.95001
-24.8799 14.76 -979.95898
-24.4021 14.7254 -979.29199
-23.919701 14.6729 -978.74103
-23.729 14.6358 -977.78101
-23.1551 14.5912 -977.401
-22.679399 14.5412 -976.93103
-22.087099 14.4467 -975.35999
-21.5452 14.4102 -975.01703
-21.039499 13.8707 -974.54999
-20.7159 14.3127 -973.849
-20.380501 14.2726 -973.09802
-19.857201 14.2461 -972.703
-19.4496 14.2167 -972.20203
-19.030899 14.1713 -971.70203
-18.646099 14.1497 -971.211
-18.1992 14.1143 -970.75
-17.7899 14.0825 -970.22198
-17.3104 14.0305 -969.82001
-16.4118 13.959 -968.85498
-15.892 13.9177 -968.49103
-15.5886 13.8918 -967.823
-15.0328 13.8423 -967.63898
-14.7111 13.8097 -967.078
-14.1104 13.7601 -966.96802
-13.2741 13.7198 -966.11902
-12.883 13.6975 -965.68799
-11.8989 13.6385 -965.04401
-11.4415 13.6344 -964.66699
-11.0569 13.6013 -964.23199
-10.4456 13.5534 -964.16498
-10.0844 13.5154 -963.78802
-9.3010302 13.4534 -963.09198
-8.6633301 13.4143 -962.98499
-7.84302 13.3763 -962.20203
-6.6216998 13.2875 -961.97101
-6.2404799 13.287 -961.56097
-5.8073101 13.2614 -961.263
-5.4475098 13.2178 -960.88397
-4.4741802 13.1389 -960.50201
-4.0109301 13.1079 -960.27002
-2.90851 13.0151 -960.02197
-2.3940401 13.0223 -959.81
-1.74854 12.9647 -959.82202
-1.45752 12.9661 -959.32397
-0.84942597 12.9361 -959.31702
-0.00250244 12.8628 -958.888
0.435913 12.8632 -958.65198
0.936768 12.8229 -958.51001
1.57129 12.7928 -958.573
2.42609 12.7571 -958.021
3.1281099 12.7047 -958.14203
3.5341201 12.6949 -957.85303
4.07581 12.6511 -957.83698
4.55933 12.6513 -957.71399
5.0528598 12.6235 -957.64001
5.4812598 12.6183 -957.43402
5.9333501 12.5678 -957.26001
6.9807701 12.5415 -957.11902
7.7746601 12.478 -957.40302
8.2396898 12.4738 -957.22498
8.61835 12.4754 -956.97101
9.4807701 12.4104 -957.37402
9.69098 12.4113 -956.92603
10.3423 12.3941 -957.104
10.8541 12.3532 -957.07001
11.3224 12.3603 -956.974
12.1254 12.2985 -957.32599
12.2274 12.313 -956.71503
13.0172 12.265 -957.005
13.5502 12.2358 -956.97601
13.9579 12.2385 -956.79498
14.6849 12.19 -957.08698
15.715 12.1541 -957.14001
16.3253 12.126 -957.29901
16.841299 12.1269 -957.29901
17.452801 12.0961 -957.43103
17.8274 12.094 -957.20398
18.5641 12.0772 -957.50897
19.283899 12.0381 -957.77399
19.6982 12.0261 -957.66101
20.261999 12.0192 -957.78003
20.9464 11.984 -958.06799
21.389799 11.9744 -958.06
21.9249 11.9701 -958.14099
22.5951 11.9349 -958.40399
23.8724 11.918 -958.84601
24.472 11.9007 -959.02802
25.010099 11.884 -959.10303
25.6996 11.8588 -959.40002
26.349501 11.8294 -959.70801
26.9886 11.8007 -959.987
27.532 11.79 -960.18402
28.180201 11.776 -960.50201
28.8016 11.7788 -960.76801
29.4142 11.7574 -961.04797
30.063801 11.7364 -961.34998
30.749399 11.7536 -961.68799
31.517799 11.7225 -962.19098
32.754101 11.7133 -962.828
33.460701 11.7061 -963.32703
34.185902 11.7052 -963.84998
34.817299 11.6949 -964.30298
35.592098 11.6748 -964.92999
-28.569599 15.8248 -990.80298
-27.684099 15.6155 -987.03802
-27.324499 15.6062 -986.10101
-26.8841 15.5315 -985.30798
-26.153299 15.4784 -983.64502
-26.0452 15.404 -982.35797
-25.4727 15.3639 -981.85999
-24.970699 15.2732 -981.245
-24.7477 15.2394 -980.19299
-24.157499 15.179 -979.72601
-23.9429 15.1668 -978.71503
-23.159401 15.0522 -977.45001
-22.8016 15.0386 -976.797
-22.477501 14.9944 -976.065
-21.9625 14.92 -975.638
-21.4205 14.9037 -975.22998
-21.1269 14.8767 -974.40698
-20.693399 14.8381 -973.83301
-20.3458 14.7949 -973.11603
-19.7957 14.7444 -972.75201
-19.3794 14.6954 -972.18597
-18.9244 14.667 -971.73401
-18.634899 14.6145 -971.086
-18.180401 14.5743 -970.651
-17.7798 14.5493 -970.10498
-17.315599 14.5159 -969.70099
-16.3929 14.4278 -968.80499
-15.8699 14.392 -968.448
-15.3857 14.3337 -968.07599
-15.0184 14.3294 -967.60797
-14.6549 14.3143 -967.11102
-14.1271 14.2562 -966.94299
-13.7465 14.2451 -966.47198
-13.2997 14.2323 -966.05103
-12.313 14.1632 -965.44397
-11.9368 14.1275 -964.974
-11.3577 14.074 -964.73102
-10.9734 14.0179 -964.271
-10.553 13.9833 -963.84198
-10.1113 13.9394 -963.54999
-9.6140099 13.8881 -963.39301
-8.6073599 13.8317 -962.89502
-8.1923199 13.8204 -962.53101
-7.2455401 13.7639 -961.92798
-6.8449101 13.745 -961.49701
-6.33215 13.7296 -961.26801
-5.8603501 13.7021 -961.03802
-5.2537799 13.6421 -961.04797
-4.8698702 13.6333 -960.71198
-4.5419898 13.6132 -960.29901
-4.0160499 13.5808 -960.13702
-3.4564199 13.5525 -960.02802
-2.4031999 13.478 -959.711
-2.01196 13.4557 -959.32397
-1.2545201 13.402 -959.54199
-0.99352998 13.4052 -959.01501
-0.43042001 13.3724 -958.97101
0.072753899 13.3208 -958.862
0.584961 13.3224 -958.77002
0.91589397 13.3073 -958.37201
2.4691801 13.2143 -957.98297
3.14856 13.186 -958.06299
3.6124899 13.1581 -957.88702
4.0639601 13.1538 -957.69299
4.60144 13.1147 -957.66602
4.9692998 13.115 -957.41302
5.4120498 13.0945 -957.24597
6.0878901 13.0508 -957.38599
6.6342201 13.0233 -957.34601
7.06458 13.0023 -957.11499
7.62994 12.9883 -957.073
8.1292696 12.9526 -956.96198
8.6140699 12.944 -956.84497
9.3786602 12.8944 -957.12402
9.7321796 12.8785 -956.896
10.3395 12.8447 -957.02002
10.7988 12.8455 -956.914
12.0314 12.7861 -957.10303
12.2386 13.2831 -956.56201
13.4793 12.7186 -956.79401
14.1189 12.7014 -956.909
14.6586 12.6903 -956.94702
15.1284 13.1748 -956.81799
15.7283 12.6329 -957.073
16.3221 12.6182 -957.18701
16.764601 12.6152 -957.08099
17.376301 12.582 -957.23401
17.963499 12.5742 -957.30798
18.555 12.5261 -957.40601
19.171101 12.52 -957.53302
19.7826 12.5043 -957.68298
20.297899 12.4868 -957.71899
20.836 12.4616 -957.80402
21.41 12.4492 -957.974
21.9667 12.4541 -958.09399
22.563801 12.4333 -958.263
23.1649 12.3977 -958.43903
23.7728 12.3735 -958.617
24.415199 12.3695 -958.83502
25.066999 12.3392 -959.06403
25.678301 12.3292 -959.27899
26.2957 12.3078 -959.505
26.9496 12.289 -959.836
27.504 12.2799 -960.02301
28.151899 12.2719 -960.34802
28.797701 12.2361 -960.65601
29.4174 12.2534 -960.93298
30.087601 12.2304 -961.24103
30.6581 12.227 -961.43701
31.400101 12.2127 -961.88599
32.1917 12.196 -962.41101
32.821999 12.1915 -962.77197
33.469299 12.1858 -963.17999
34.069199 12.1806 -963.539
34.702301 12.1625 -963.94299
35.529099 12.1536 -964.60797
37.673801 12.168 -966.263
-28.191299 16.311001 -989.802
-27.7981 15.6998 -988.505
-27.136801 16.134899 -986.53998
-26.9739 16.108299 -985.28198
-26.743799 16.045601 -984.25098
-26.1971 15.9797 -983.659
-25.7013 15.9178 -982.97302
-25.342501 15.8572 -982.159
-24.856199 15.8005 -981.47699
-24.5161 15.7609 -980.60498
-24.0896 15.7088 -979.909
-23.508801 15.6223 -978.177
-23.120399 15.5965 -977.52502
-22.7159 15.5447 -976.979
-22.455799 15.5298 -976.10101
-21.868999 15.4612 -975.742
-21.552099 15.466 -974.97198
-21.0842 15.4052 -974.37799
-20.6525 15.3518 -973.77698
-20.2017 15.2732 -973.15802
-19.7251 15.2358 -972.69598
-19.4508 15.2189 -971.95599
-19.0411 15.1651 -971.40399
-18.4674 15.1145 -971.23401
-18.188499 15.0872 -970.54498
-17.706499 15.0752 -970.15601
-16.648001 14.9578 -969.49597
-16.409201 14.9755 -968.73499
-15.8856 14.915 -968.41803
-15.5073 14.8759 -967.87799
-14.6346 14.8271 -967.06799
-14.1323 14.7737 -966.83801
-13.8583 14.7544 -966.17902
-13.2446 14.6778 -965.99799
-12.338 14.5994 -965.24799
-11.8684 14.5748 -964.86298
-11.0116 14.5193 -964.03101
-10.5482 14.5004 -963.70502
-10.0567 14.4497 -963.48297
-9.66364 14.4444 -963.15503
-9.2177696 14.3913 -962.84601
-8.24786 14.3398 -962.31598
-6.7783799 14.2336 -961.487
-6.198 14.1938 -961.367
-5.9609399 14.1821 -960.79498
-4.88696 14.1219 -960.57202
-4.4926801 14.0831 -960.25299
-3.9749801 14.0496 -960.09399
-3.5257001 14.0517 -959.84003
-2.9967699 14.029 -959.64697
-2.4563601 13.9832 -959.51599
-1.96027 13.9554 -959.297
-1.26062 13.9014 -959.401
-1.02271 13.891 -958.86603
-0.488464 13.8708 -958.776
0.077819802 13.8361 -958.784
0.53338599 13.8255 -958.59302
0.99359101 13.8018 -958.37598
2.0813601 13.7424 -958.20898
2.60583 13.7145 -958.07703
3.0374801 13.6759 -957.81403
3.5927701 13.662 -957.72998
4.1044302 13.611 -957.664
4.4909701 13.6224 -957.41302
5.0928302 13.5915 -957.50201
5.54456 13.5829 -957.34497
6.51263 13.5243 -957.07898
7.7150898 13.4613 -957.12
11.2554 13.317 -956.71997
12.0035 13.266 -957.013
13.1118 13.2351 -956.99103
13.4672 13.2268 -956.70697
14.6734 13.1965 -956.89099
15.699 13.1641 -956.94299
16.1945 13.1439 -956.93799
16.764799 13.1087 -957.01703
17.3339 13.0818 -957.09399
17.934999 13.064 -957.21198
18.4645 13.0362 -957.20898
19.144699 13.0009 -957.41901
19.684799 13.0281 -957.43701
20.271799 12.9799 -957.59698
20.9002 12.9763 -957.81299
21.434799 12.9566 -957.91901
22.580299 12.9241 -958.20697
23.1898 12.9123 -958.39301
23.894199 12.8821 -958.672
24.3846 12.8675 -958.69098
25.0427 12.8581 -958.92297
25.741301 12.8457 -959.25201
26.300501 12.8311 -959.40802
26.885 12.8105 -959.62701
