# .PCD v0.7 - Point Cloud Data file format
VERSION 0.7
FIELDS x y z
SIZE 4 4 4
TYPE F F F
COUNT 1 1 1
WIDTH 1693
HEIGHT 1
VIEWPOINT 0 0 0 1 0 0 0
POINTS 1693
DATA ascii
36.2672 4.4734201 -1036.4
35.571201 4.55722 -1037.22
33.984299 4.8055701 -1037.76
33.8293 5.0755601 -1038.64
30.7955 5.91397 -1040.45
48.006802 -21.632 -985.48901
50.728001 -19.569901 -989.95203
51.253399 -18.164 -992.11603
51.843102 -17.0308 -993.45801
52.023399 -16.697399 -994.38501
52.476002 -15.3636 -996.46002
52.824501 -14.8192 -998.00403
53.044701 -13.8239 -999.28302
53.098099 -13.5594 -1000.18
53.220901 -12.7683 -1001.03
53.414101 -12.5323 -1001.56
53.424301 -11.5017 -1003.45
53.6623 -11.1476 -1004.45
53.382702 -10.6685 -1004.71
53.343399 -10.3563 -1005.71
53.769798 -9.2037401 -1007.27
53.511902 -9.1450796 -1007.76
53.151402 -9.0888996 -1008.19
53.1269 -8.25842 -1009.01
53.249802 -8.09793 -1009.53
53.386501 -7.8835802 -1010.08
53.195099 -7.6536598 -1011.04
52.6497 -6.8689899 -1011.97
52.731899 -6.651 -1012.59
52.3367 -5.7315402 -1013.89
52.285198 -5.5689402 -1014.45
51.832802 -5.5772099 -1014.93
51.610802 -4.9357901 -1015.26
51.3246 -4.8190899 -1015.83
51.533798 -4.5770602 -1016.51
51.389198 -3.8663599 -1016.95
51.046799 -3.7928801 -1017.49
50.6479 -3.76755 -1017.99
50.4478 -3.6386099 -1018.52
50.498402 -3.4534299 -1019.11
50.262199 -2.8638599 -1019.49
49.941299 -2.78455 -1020.04
49.589401 -2.70016 -1020.55
49.4193 -2.0806601 -1021.03
48.999401 -2.0223999 -1021.61
48.4035 -1.36099 -1022.71
48.169399 -1.25705 -1023.3
47.616299 -0.57611102 -1024.29
47.456699 -0.418457 -1024.9399
46.973099 0.148132 -1025.33
46.148701 0.28863499 -1026.58
45.784901 0.94900501 -1027.05
45.400101 1.07028 -1027.76
44.253502 1.7243 -1028.8199
43.736 1.7746 -1029.4301
43.346901 1.90659 -1030.03
42.948898 2.55405 -1030.55
42.180401 2.55936 -1031.14
40.220901 3.2590301 -1033.02
39.076 4.0336599 -1034.46
36.7285 4.3424401 -1035.63
36.240799 4.9544702 -1036.22
35.248699 4.8902602 -1036.99
34.235401 5.3735399 -1037.62
30.415501 6.3485398 -1040.22
27.893999 6.5802302 -1040.97
24.341299 6.6239901 -1041.98
48.328701 -20.847401 -985.771
49.1609 -20.111601 -987.51202
50.6604 -18.201799 -990.57501
51.0075 -17.716 -991.88098
51.619598 -16.7064 -992.763
52.4011 -14.9173 -996.297
52.634701 -14.0887 -997.16302
53.024899 -13.6557 -998.23999
53.0378 -13.3688 -999.138
53.226299 -13.0454 -1000.08
53.3983 -12.4193 -1000.46
53.469898 -11.3316 -1002.31
53.136501 -11.1528 -1003.24
53.354401 -10.928 -1003.77
53.731899 -9.8671303 -1005.12
53.595798 -9.60672 -1006.12
53.649101 -8.5444002 -1007.61
53.288502 -7.63306 -1008.76
53.367699 -7.4683199 -1009.3
52.8228 -7.3432899 -1010.23
53.091599 -7.1091299 -1010.83
53.128399 -6.3709102 -1011.19
52.588699 -6.0097699 -1012.83
52.563301 -5.8232999 -1013.4
52.411701 -5.2094402 -1013.58
52.456402 -5.0276499 -1014.17
52.1068 -4.9341102 -1014.72
51.573002 -4.2237201 -1015.64
51.394199 -4.0724802 -1016.29
50.9175 -3.34604 -1017.32
50.931801 -3.18436 -1017.9
50.5952 -3.11288 -1018.41
50.171101 -2.4117999 -1019.32
49.814301 -2.3652301 -1019.86
49.600498 -2.22891 -1020.42
49.007301 -1.6023901 -1021.47
48.911999 -0.94192499 -1021.98
48.429298 -0.88461298 -1022.56
48.215801 -0.76962298 -1023.18
47.785 -0.189026 -1023.58
47.468102 -0.108948 -1024.11
46.2803 0.67218 -1025.6801
46.4445 0.940979 -1026.46
45.067001 1.5252399 -1027.48
44.619598 1.61917 -1028.16
44.063801 2.24875 -1028.61
44.16 2.5204799 -1029.35
42.936699 2.33517 -1029.78
42.751202 3.0621901 -1030.3199
42.023399 3.0511501 -1030.9399
41.462601 3.13272 -1031.61
41.180901 3.8452101 -1032.21
40.458401 3.9113801 -1032.9301
39.7117 3.93295 -1033.66
38.521099 4.3559299 -1034.1899
35.319 5.3880601 -1036.86
34.008999 5.74191 -1037.46
34.214699 6.1219201 -1038.4399
31.959999 6.4186401 -1039.1899
30.430901 6.8938599 -1040.0699
27.9772 7.1872902 -1040.96
25.8566 7.7346802 -1042.13
47.6945 -21.308701 -984.86298
48.7971 -20.482901 -986.64398
50.184299 -18.730499 -989.26801
50.5756 -17.692699 -990.38501
51.301701 -17.094 -991.81
51.653702 -16.0646 -993.07599
51.937 -15.6883 -994.01599
52.1409 -14.9272 -994.77802
52.383999 -14.4493 -996.15503
52.659199 -13.6248 -997.03198
52.965 -13.2308 -998.08698
53.060299 -12.2164 -999.77301
53.357601 -11.9757 -1000.31
53.441601 -11.6599 -1001.29
53.3517 -10.8921 -1002.13
53.514999 -10.6677 -1002.68
53.462502 -9.5800505 -1004.43
53.5443 -9.3922701 -1004.92
53.5471 -9.0739698 -1005.92
53.5047 -8.3360901 -1006.2
53.6017 -7.9946299 -1007.35
53.492401 -7.88412 -1007.84
53.308102 -6.8162198 -1009.49
53.094501 -6.7226 -1009.99
53.334301 -6.4808002 -1010.65
53.059502 -5.51898 -1012.05
52.803799 -5.44803 -1012.54
53.0742 -5.1817899 -1013.19
52.6478 -4.4838901 -1013.95
52.223801 -4.2294898 -1015.08
51.826 -3.7175 -1015.43
51.018902 -3.5079701 -1016.67
50.915501 -2.8891001 -1017.15
50.546001 -2.6503899 -1018.24
50.250801 -2.1474299 -1018.61
49.933201 -1.88345 -1019.75
49.646702 -1.3089 -1020.14
49.341202 -1.21185 -1020.74
49.062099 -1.12305 -1021.33
48.532001 -0.35412601 -1022.43
48.220001 -0.25921601 -1023.01
47.641201 0.283081 -1023.37
47.5891 0.47286999 -1023.96
47.110199 0.52477998 -1024.49
46.5952 1.3396 -1025.5699
46.080101 1.39227 -1026.1899
45.678001 2.0590799 -1026.67
45.236099 2.14642 -1027.35
44.627602 2.18997 -1027.96
43.4939 2.85583 -1029.04
43.119499 2.9426301 -1029.66
42.257099 3.7068501 -1030.8199
41.519402 3.69577 -1031.4399
40.232101 4.3298001 -1032.71
39.066502 4.2277799 -1033.37
39.5466 4.8449101 -1033.33
38.890499 4.9279799 -1034.03
38.792999 5.1398902 -1034.74
38.137798 5.5707402 -1035.16
34.232899 6.3661799 -1037.33
34.261101 6.7155199 -1038.27
31.9806 6.9844098 -1039.05
29.2633 7.1083102 -1039.63
28.3298 7.8986802 -1040.86
46.753101 -21.537901 -982.875
48.417702 -20.283199 -985.63898
48.7094 -19.308901 -986.664
50.007999 -18.353201 -988.65002
51.2794 -16.5923 -991.65002
51.436298 -15.7982 -992.41498
51.7766 -15.4177 -993.422
52.491001 -14.0907 -995.60101
52.878502 -12.9268 -997.44202
52.881901 -12.6895 -998.39801
52.960899 -11.8802 -999.13098
53.2859 -11.494 -1000.13
53.095001 -10.4056 -1001.9
53.111099 -10.1248 -1002.92
53.4193 -9.8699303 -1003.48
53.509499 -8.9914904 -1004.16
53.450401 -8.7058096 -1005.11
53.478901 -8.2031603 -1006.77
53.748402 -7.2979999 -1007.58
53.632198 -7.1820698 -1008.07
53.455002 -7.1117902 -1008.5
53.555302 -6.0707402 -1009.85
53.5784 -5.8668499 -1010.42
53.319698 -5.1027498 -1011.3
53.143002 -5.0086699 -1011.82
53.098801 -4.8659101 -1012.38
53.0438 -4.5208998 -1013.45
52.393799 -4.0964699 -1013.68
52.385399 -3.9056101 -1014.26
52.2658 -3.76685 -1014.85
52.057598 -3.18436 -1015.27
51.5938 -3.1168201 -1015.83
51.463299 -2.50418 -1016.33
50.9361 -2.4577899 -1016.95
50.903301 -2.27631 -1017.59
50.1591 -1.73309 -1018.43
50.086899 -1.5486799 -1019.01
49.961399 -1.40601 -1019.59
49.560902 -0.82846099 -1019.94
49.264599 -0.52099597 -1021.21
48.9333 0.110229 -1021.65
48.720001 0.24456801 -1022.31
48.1777 0.26565599 -1022.83
47.307899 0.95126301 -1023.72
47.140598 1.11261 -1024.33
46.733898 1.1574399 -1024.92
46.307701 1.82944 -1025.34
45.860699 1.87851 -1025.98
44.469601 2.70526 -1027.77
44.2043 3.3896201 -1028.26
43.423302 3.37274 -1028.84
42.8521 3.39886 -1029.4301
42.845901 3.6515801 -1030.14
41.886398 4.0493498 -1030.6
41.6422 4.2175298 -1031.3199
40.2327 4.78864 -1032.58
39.160099 5.15414 -1033.1
38.913799 5.3313599 -1033.83
38.8353 5.5217299 -1034.49
38.081501 5.9934702 -1035
37.088299 6.4948401 -1035.5699
34.615799 6.9934702 -1037
34.047199 7.2266798 -1038.01
29.9736 7.9435401 -1039.63
27.5438 8.2670298 -1040.67
47.436501 -20.410299 -984.06702
50.336498 -16.945601 -989.66498
50.9324 -16.3773 -990.99298
51.433498 -15.5196 -991.85699
51.805199 -14.9976 -993.302
52.108299 -14.0314 -994.5
52.464401 -13.666 -995.45398
52.630501 -12.8129 -996.26599
52.8568 -12.4401 -997.28699
53.084499 -11.9725 -998.72699
53.2481 -10.98 -999.953
53.410198 -9.7358398 -1001.77
53.6945 -9.4905996 -1002.35
53.551498 -9.2230797 -1003.26
53.7411 -8.4222097 -1003.9
53.7243 -7.8168898 -1005.91
53.666599 -6.83429 -1007.31
53.918098 -6.5809598 -1007.87
53.628101 -6.3712502 -1008.78
53.602402 -6.2418799 -1009.32
53.589199 -5.5162001 -1009.64
53.5056 -5.37988 -1010.19
53.123901 -4.1885099 -1012.77
52.509701 -3.4691501 -1014.13
52.5145 -3.2293999 -1014.7
51.910999 -2.6068101 -1015.69
51.433701 -1.87863 -1016.82
50.6203 -1.92389 -1017.35
50.4011 -1.79529 -1017.91
50.512299 -1.06354 -1018.34
50.095798 -1.01529 -1018.84
49.861599 -0.935516 -1019.39
49.394699 -0.36794999 -1019.75
49.3964 -0.12750199 -1020.41
49.002899 -0.092651397 -1020.99
48.745602 0.614685 -1021.45
48.612499 0.79925501 -1022.1
47.756802 0.69384801 -1022.56
47.925701 0.97506702 -1023.24
46.764702 1.7496901 -1024.75
46.053101 2.5211799 -1025.8199
45.341099 2.5267601 -1026.41
44.650002 3.31479 -1027.65
43.599098 3.9098799 -1028.73
42.907299 3.90732 -1029.29
42.245098 4.4152198 -1029.75
41.963001 4.5380201 -1030.47
41.431801 5.07938 -1030.99
40.927101 5.19064 -1031.74
40.224499 5.2075801 -1032.42
39.273899 5.6526198 -1032.96
39.962799 6.09442 -1033.83
39.165001 6.0843501 -1034.38
38.0406 6.5514202 -1034.88
36.524799 6.8763099 -1035.35
36.0424 7.02988 -1036.21
33.563999 7.4053302 -1037.29
29.7635 8.4451599 -1039.39
47.670898 -19.7173 -984.367
49.8666 -17.015699 -988.19202
50.972401 -15.4671 -990.74402
51.432999 -15.0479 -991.711
52.151299 -13.5179 -994.34698
52.583302 -12.3165 -996.07898
52.721401 -11.9644 -997.099
52.684601 -11.7234 -998.02002
53.23 -11.2585 -999.04901
53.114399 -10.4311 -999.66302
53.540401 -10.009 -1000.72
53.796398 -9.0880098 -1001.53
53.708599 -8.8273602 -1002.51
53.802898 -8.5389404 -1003.45
53.965801 -8.2019701 -1004.43
53.972801 -7.5443101 -1004.7
53.824799 -7.2389798 -1005.71
54.258701 -6.9324999 -1006.39
53.905701 -6.20749 -1007.16
53.9608 -6.03757 -1007.68
53.657902 -5.8225698 -1008.61
53.5163 -5.0597501 -1009.47
53.469501 -4.7690401 -1010.58
53.304901 -4.1496902 -1011
53.220001 -4.00739 -1011.55
53.033401 -3.81424 -1012.6
53 -2.9814799 -1013.53
52.3629 -2.1960101 -1014.97
51.9902 -2.1444399 -1015.53
51.8265 -1.50296 -1015.99
51.390099 -1.41132 -1016.56
51.027699 -1.3070101 -1017.18
50.1521 -0.50051898 -1018.67
49.444901 0.44543499 -1020.24
49.212799 0.58016998 -1020.86
48.4333 1.27997 -1021.88
48.160801 1.40179 -1022.47
47.8018 1.49121 -1023.05
47.370998 2.0882599 -1023.39
47.039902 2.1963501 -1023.94
46.742699 2.3038001 -1024.5699
46.220501 2.3452101 -1025.14
46.025299 3.05463 -1025.66
45.493198 3.1254001 -1026.29
45.180199 3.2376399 -1026.98
44.855999 3.6333599 -1026.77
44.8773 3.8766201 -1027.55
44.114101 3.8489101 -1028.13
43.557701 4.37744 -1028.5699
42.396198 4.9032602 -1029.65
42.175701 5.0882602 -1030.37
41.408901 5.53122 -1030.86
39.5154 6.2810102 -1032.84
40.1614 6.6990099 -1033.6899
38.8437 7.0891099 -1034.1
37.77 6.9946899 -1034.7
35.803001 7.54773 -1035.9399
35.407001 7.6905799 -1036.72
34.340401 8.2465496 -1037.28
27.820101 8.8761301 -1040.5
25.3223 9.3197002 -1041.7
47.078098 -19.6947 -983.28302
49.529499 -16.799 -987.53302
50.476002 -15.9903 -989.42297
51.0923 -14.7795 -991.02899
51.443699 -14.4011 -992.00098
51.833599 -14.0058 -993.013
51.988602 -13.0495 -994.15302
52.3867 -12.6433 -995.12799
52.687099 -11.3881 -996.87299
53.325699 -10.2675 -998.06897
53.150101 -10.5438 -999.242
53.874298 -9.5693398 -999.987
53.662498 -9.3351402 -1000.96
53.9487 -8.2484102 -1002.31
53.968899 -7.9525099 -1003.23
54.267502 -6.7576299 -1005.08
53.796902 -6.7164898 -1005.53
54.0457 -6.4751301 -1006.15
53.613499 -5.7972102 -1006.94
53.635399 -5.6594501 -1007.45
53.624001 -4.8891602 -1008.3
53.756302 -4.6760898 -1008.85
53.656601 -4.5541401 -1009.37
53.3923 -4.2948899 -1010.42
53.167198 -3.93097 -1010.24
53.178902 -3.5754399 -1011.4
52.909199 -3.50616 -1011.9
52.9799 -2.85794 -1012.31
52.812 -2.5833399 -1013.33
52.320301 -1.8805799 -1014.19
52.4678 -1.66434 -1014.87
51.769001 -1.70111 -1015.29
51.429199 -0.88958699 -1016.34
51.169102 -0.79052699 -1016.95
50.3536 -0.062103301 -1017.86
50.131802 0.076141402 -1018.48
49.075298 0.88995397 -1020
49.089901 1.09094 -1020.65
48.696899 1.1721801 -1021.26
48.129601 1.7340699 -1021.64
48.049198 1.93091 -1022.28
47.5975 1.96552 -1022.81
47.434799 2.6404099 -1023.22
47.404499 2.87006 -1023.87
46.436298 2.73734 -1024.34
46.229 2.8852799 -1024.97
45.981201 3.5396399 -1025.47
45.401402 4.2697101 -1026.76
44.782902 4.3303199 -1027.38
43.477699 4.7936702 -1028.42
43.010899 4.8677702 -1029.03
41.939701 5.4436302 -1030.17
41.402199 6.0556002 -1030.6899
40.431599 6.02179 -1031.35
39.188999 6.7308002 -1032.65
38.722599 6.8138399 -1033.34
38.269901 7.5163298 -1033.9301
37.917301 7.6272302 -1034.64
36.631901 7.4794898 -1035.1899
35.718102 8.1038198 -1035.74
35.451401 8.2847605 -1036.53
34.141499 8.8263903 -1037.22
32.787998 8.7864103 -1038.15
49.967201 -15.766 -988.73901
50.649799 -15.1583 -990.07599
51.270599 -14.0612 -991.35999
51.5252 -13.6824 -992.31897
52.261501 -12.2385 -994.46301
52.7743 -11.1247 -995.63202
53.212502 -10.5815 -997.14099
53.577099 -9.9342003 -999.00201
53.756001 -8.9114399 -1000.22
53.612999 -8.7913504 -1000.7
53.938202 -8.39044 -1001.83
53.7626 -7.7849102 -1002.07
53.865299 -7.47366 -1003.03
53.905602 -7.1614699 -1003.99
53.925701 -6.3528399 -1004.86
53.743301 -6.2481699 -1005.38
54.027199 -5.9897199 -1006
54.2481 -5.3099999 -1006.43
53.828201 -5.1200299 -1007.36
53.585098 -4.3083801 -1008.7
53.476299 -4.1682701 -1009.18
53.7057 -3.4727199 -1009.66
53.285801 -3.42365 -1010.11
53.277599 -3.09882 -1011.28
52.795601 -2.5455899 -1011.59
52.727501 -2.4306901 -1012.1
52.645401 -2.30072 -1012.6
52.661999 -2.1014099 -1013.15
52.462502 -2.0184901 -1013.66
51.9935 -1.28088 -1014.58
52.060101 -1.08444 -1015.2
51.6455 -0.256042 -1016.21
51.161701 -0.21109 -1016.7
50.903301 -0.11853 -1017.31
50.4398 0.46759 -1017.59
50.2855 0.67474401 -1018.27
49.361 0.780487 -1019.4
49.0443 1.40811 -1019.82
48.818401 1.54977 -1020.44
48.5709 1.66934 -1021.06
47.9011 2.4082601 -1022.07
47.9221 2.6359301 -1022.74
46.832199 3.16891 -1023.6
46.991199 3.40994 -1024.3
45.955799 3.74213 -1024.64
45.8237 3.94064 -1025.3199
45.033298 4.3551898 -1025.76
44.7761 4.5406799 -1026.5
44.705101 4.7522302 -1027.23
43.738499 5.1314702 -1027.63
43.541 5.3095999 -1028.3
42.767502 6.0316501 -1029.4399
41.647301 5.90765 -1029.96
40.9706 6.49506 -1030.45
40.3311 6.8175702 -1031.99
39.350601 7.0724502 -1031.63
38.871799 7.1962299 -1032.4399
37.4142 7.8667598 -1033.7
37.732399 8.2267199 -1034.53
36.6208 8.0922203 -1035.0601
35.732101 8.9481802 -1036.42
33.075802 9.4131203 -1037.98
31.065599 9.6797504 -1038.75
48.349899 -17.2798 -985.10199
48.827202 -16.764299 -986.37299
49.997299 -15.3441 -988.19598
50.668201 -14.0556 -989.76801
51.114498 -13.5273 -991.15002
51.451801 -13.1631 -992.14001
52.075001 -11.9459 -993.34198
52.2612 -11.5467 -994.62402
53.360001 -10.0219 -996.89502
53.686501 -9.5432701 -998.32397
53.611599 -9.4337502 -998.73499
53.439602 -8.6253099 -999.474
53.6982 -8.2493896 -1000.55
54.016499 -7.8389301 -1001.64
53.979 -7.0826101 -1002.43
53.877102 -6.9785199 -1002.88
54.1633 -6.1394701 -1003.77
54.197601 -5.7992902 -1004.8
53.898102 -5.1176801 -1005.66
53.766399 -4.7233901 -1007.21
53.691299 -4.6021099 -1007.65
54.0023 -3.87866 -1008.13
53.579102 -3.6874101 -1009.08
53.512299 -3.03333 -1009.46
53.193699 -2.77811 -1010.55
52.612099 -1.9581 -1011.93
52.567902 -1.78845 -1012.42
52.493999 -1.6351 -1012.95
52.004101 -0.71255499 -1014.41
52.186001 -0.48800701 -1015.06
51.726101 -0.41250601 -1015.58
51.569302 0.286255 -1016.01
51.176998 0.33447301 -1016.5
51.1077 0.49996901 -1017.1
50.791698 1.10941 -1017.42
50.4478 1.22562 -1018.03
49.687599 1.25613 -1018.59
49.152199 1.99924 -1019.67
48.930801 2.1351299 -1020.29
48.513 2.19806 -1020.88
48.322399 2.86374 -1021.37
47.863201 2.8919101 -1021.93
47.736599 3.05264 -1022.54
47.132 3.5072 -1022.86
47.210899 3.7446899 -1023.54
46.5602 3.7536299 -1024.0699
45.959202 4.1735802 -1024.47
45.889999 4.4031401 -1025.1801
44.938801 5.0540199 -1026.38
44.3069 5.0721102 -1027.01
43.6577 5.8568401 -1028.16
43.0723 5.9025602 -1028.74
42.635899 6.5149498 -1029.21
42.049999 6.5841098 -1029.88
39.9855 7.0114398 -1030.9
38.579201 7.7205501 -1032.1899
38.0644 7.8660302 -1033.01
36.341 8.5819397 -1034.91
35.863998 8.6886301 -1035.59
35.270599 9.3168602 -1036.11
33.672501 9.7079201 -1036.66
32.751202 9.7662697 -1037.6801
50.045898 -14.7673 -988.04498
51.155602 -12.9636 -990.974
51.331299 -12.6181 -991.92102
52.427399 -11.2759 -993.49597
52.926498 -10.7513 -994.91699
53.333302 -10.3494 -995.94299
53.604301 -9.4056702 -996.78302
53.397999 -9.2073097 -997.63898
53.8354 -8.6471596 -999.09998
54.1451 -7.7720599 -999.995
53.981701 -7.5233498 -1000.98
53.4291 -6.9377098 -1001.7
53.775398 -6.5668302 -1002.72
54.2216 -6.2265301 -1003.3
54.074501 -5.0830402 -1004.01
54.293499 -5.3383498 -1004.7
53.769699 -4.7274199 -1005.5
53.0938 -4.6386399 -1006.44
53.7169 -4.2941298 -1007.08
53.460602 -3.6777301 -1007.35
53.539902 -3.5172999 -1007.87
53.517502 -3.33566 -1008.38
53.257 -2.2151201 -1010.41
52.865002 -2.17978 -1010.89
52.6576 -1.35254 -1011.75
52.461102 -1.25192 -1012.22
52.6399 -1.03879 -1012.82
52.6022 -0.87872303 -1013.36
52.174801 -0.26696801 -1013.67
51.798801 -0.222046 -1014.18
51.878899 -0.0099487295 -1014.81
51.593899 0.087493896 -1015.39
51.312302 0.91665602 -1016.34
50.748901 0.92868 -1016.81
50.517601 1.7467 -1017.78
50.5732 2.0016201 -1018.51
49.2658 1.83749 -1018.96
48.8983 2.6085801 -1020.12
48.598999 2.72293 -1020.76
47.797001 3.33621 -1021.76
47.5317 3.4399099 -1022.36
47.195702 3.9706099 -1022.77
46.9319 4.1002798 -1023.36
46.381001 4.5837698 -1023.75
46.325901 4.7599502 -1024.42
45.100899 5.3766198 -1025.48
45.150501 5.6477699 -1026.28
44.585098 5.69345 -1026.91
43.6436 6.1528001 -1027.25
42.653702 6.29636 -1028.49
41.7355 6.78687 -1028.89
41.6898 7.0496502 -1029.61
41.281898 7.1603699 -1030.3199
40.52 7.76373 -1030.86
38.622898 8.2705698 -1032.04
38.314098 8.4876099 -1032.91
37.665798 8.5451002 -1033.61
36.701698 9.2923603 -1034.8101
35.7257 9.9547396 -1035.92
34.011501 10.2575 -1036.61
33.054798 10.3839 -1037.54
31.9688 10.8118 -1038.41
49.848 -14.2573 -987.81897
50.375 -13.7191 -989.13501
51.7117 -11.9762 -991.75098
52.664101 -10.6682 -993.349
52.935101 -10.193 -994.72198
52.908298 -9.9524498 -995.66101
53.663799 -8.9021902 -996.65698
53.6539 -7.8954802 -998.30798
53.497299 -7.65839 -999.20398
53.5812 -7.3419199 -1000.23
53.7579 -6.67487 -1000.65
53.541901 -6.48276 -1001.61
53.787399 -6.1066298 -1002.59
53.763199 -5.9695702 -1003.05
53.833801 -5.3692598 -1003.41
54.061501 -4.9675899 -1004.5
53.744598 -4.2157001 -1005.35
53.350601 -3.19382 -1007.16
53.482498 -2.85794 -1008.21
53.459202 -2.5070801 -1009.29
52.9786 -1.93353 -1009.58
52.9799 -1.7663 -1010.17
53.0508 -1.5686001 -1010.77
52.680199 -0.615906 -1012.11
52.5261 -0.51730299 -1012.64
51.909199 0.37374899 -1014.04
51.9547 0.59808302 -1014.66
51.507 0.64306599 -1015.19
51.479401 0.79556298 -1015.81
51.275398 1.4491301 -1016.18
51.060699 1.56973 -1016.71
51.066002 1.74686 -1017.27
50.681198 2.2844801 -1017.64
50.1661 2.31387 -1018.2
48.886299 3.06989 -1019.96
48.376701 3.5652499 -1020.4
48.105 3.6833501 -1021.05
47.4179 4.3218098 -1022.06
44.968498 6.1359901 -1026.08
44.059399 6.0747099 -1026.64
43.277699 6.8446398 -1027.74
42.866402 6.92874 -1028.37
42.3326 7.59518 -1028.8199
41.652 7.5945401 -1029.4301
41.0844 7.6833501 -1030.11
39.463799 8.2668505 -1031.3199
39.1968 8.9957895 -1031.99
38.4114 9.0399504 -1032.71
37.081001 9.61658 -1033.78
36.401798 9.6575899 -1034.41
36.145901 9.8381701 -1035.16
35.655201 10.4147 -1035.72
34.451401 10.8432 -1036.54
33.1049 10.8564 -1036.16
31.860399 10.4637 -1037.17
31.5371 11.1874 -1038.17
19.2924 12.5453 -1041.8199
48.3358 -15.4872 -984.979
50.499802 -12.8338 -987.92999
50.5308 -12.6392 -988.71198
52.473099 -10.2676 -993.15698
52.889999 -9.7362404 -994.56403
52.843399 -9.0017405 -995.35901
53.453999 -8.5156298 -996.45801
53.4963 -8.22159 -997.37799
53.307301 -8.1505404 -997.77197
53.4575 -7.2370601 -999.07098
53.787998 -6.98489 -999.63898
53.6497 -6.2600999 -1000.49
53.537701 -6.00208 -1001.46
54.104698 -5.6952801 -1002.06
53.617599 -5.0047002 -1002.8
53.907501 -4.4860501 -1004.34
53.432301 -3.28494 -1006.75
53.583401 -2.5501699 -1007.56
53.081799 -2.4675601 -1007.94
53.176998 -2.23944 -1008.54
52.9258 -1.38501 -1009.4
52.864498 -1.2388 -1009.98
52.7756 -1.10428 -1010.53
52.692001 -0.92675799 -1011.06
52.7043 -0.047271699 -1011.96
52.489601 0.034515399 -1012.48
52.1591 0.110107 -1012.94
52.291599 0.29861501 -1013.53
51.841999 0.89422601 -1013.87
51.480999 0.94784498 -1014.41
51.659698 1.22012 -1015.06
51.197701 1.92609 -1016.04
50.966202 2.19733 -1017.11
50.461899 2.68134 -1017.44
50.318001 2.8178699 -1018.01
49.7635 3.2732799 -1018.48
49.196701 3.34445 -1019.12
48.620399 3.42294 -1019.72
48.132198 4.1458998 -1020.91
47.938099 4.29742 -1021.53
47.3629 4.8173199 -1021.87
47.0168 5.0996099 -1023.07
46.534199 5.18365 -1023.62
45.9505 5.7313499 -1024.01
45.501499 6.6372099 -1025.24
44.410099 6.5253901 -1025.78
44.589298 6.8095102 -1026.59
43.569599 7.5246601 -1027.65
42.891399 7.53339 -1028.2
41.5826 8.1384001 -1029.29
40.968601 8.1964703 -1029.9399
40.4874 8.31427 -1030.71
40.141998 9.0240202 -1031.29
39.046101 9.4487305 -1031.8
38.3447 9.4859304 -1032.49
37.8866 9.6136198 -1033.14
35.856098 10.6314 -1034.72
35.802898 10.8899 -1035.64
32.0839 11.449 -1036.88
30.7253 11.4869 -1037.9301
46.2714 -17.0902 -981.401
47.824699 -15.3119 -983.95502
48.841999 -14.5349 -985.72601
50.858002 -12.3752 -989.19397
51.313702 -11.3966 -990.40802
51.599201 -10.9869 -991.39099
52.1819 -9.9838896 -992.63501
52.913898 -9.2456398 -994.42902
53.174599 -8.2758503 -995.79401
53.334 -7.81879 -997.21997
53.562599 -7.0205102 -998.03101
53.474098 -6.9405799 -998.45898
54.035301 -6.4460101 -999.55701
53.577 -5.9205599 -999.83099
53.9986 -5.4860201 -1000.93
53.702 -5.2987399 -1001.81
53.688499 -4.6012301 -1002.19
53.406601 -4.4128098 -1003.16
53.740799 -4.0029602 -1004.17
53.685501 -3.8841901 -1004.66
53.439499 -3.02618 -1005.6
53.141399 -2.11865 -1006.9
53.363201 -1.72159 -1007.89
53.2924 -1.4428999 -1008.9
53.073502 -0.606659 -1009.85
52.833302 -0.33142099 -1010.92
52.1852 0.31726101 -1011.76
52.222 0.52121001 -1012.32
51.740101 1.56348 -1014.3
51.561699 1.6673599 -1014.88
51.460098 1.82742 -1015.5
51.123699 2.49435 -1016.49
50.8297 3.0566399 -1016.85
50.491299 3.30124 -1017.95
49.556301 3.9108 -1019.01
48.890598 3.9251101 -1019.55
48.5868 4.5630202 -1020.05
47.712898 4.54459 -1020.67
47.812302 4.7489901 -1021.35
47.360401 5.3649602 -1021.74
47.087502 5.4798298 -1022.28
47.2784 5.73453 -1022.96
45.984501 6.3190298 -1023.87
44.374199 7.3177199 -1026.37
43.203098 7.9596601 -1027.38
42.423 7.9271202 -1027.9301
42.369099 8.1581097 -1028.66
41.411098 8.6480398 -1029.09
40.648102 8.63272 -1029.71
39.6348 9.3535805 -1031.03
38.9529 10.1559 -1032.33
38.495602 10.2164 -1032.9399
37.935902 10.3293 -1033.64
36.789398 10.6346 -1034.12
36.044201 11.1469 -1034.64
35.1982 11.1909 -1035.35
33.462799 11.5539 -1036.09
31.058599 12.1977 -1037.9
29.629299 12.689 -1038.77
48.5569 -14.1881 -985.10602
49.155499 -13.1193 -986.30701
50.747101 -11.935 -988.97498
50.9174 -11.6425 -989.86102
51.6194 -10.5265 -991.263
52.571499 -9.052 -993.79498
52.798401 -8.2248201 -994.67102
53.215302 -7.6794701 -996.146
53.465099 -7.3324599 -997.11401
53.414902 -6.5724502 -997.83197
53.581402 -6.38867 -998.32898
53.4468 -5.1248202 -1000.65
53.399799 -4.8398099 -1001.64
53.050598 -4.0677199 -1002.49
53.6036 -3.4467499 -1004
53.5154 -2.6238999 -1004.93
53.5075 -2.4365799 -1005.45
53.394199 -2.1316199 -1006.51
53.2906 -1.17212 -1007.76
52.816601 -1.19159 -1008.09
53.551102 -0.793549 -1008.82
52.9268 -0.117706 -1009.66
53.0854 0.112 -1010.27
52.7896 0.195862 -1010.76
52.571701 0.31207299 -1011.28
51.873699 0.902771 -1012.17
52.196999 1.14713 -1012.77
51.902199 1.90637 -1013.66
51.6488 2.00247 -1014.19
51.482201 2.1152999 -1014.77
50.964699 2.6028099 -1015.25
50.7691 2.8975201 -1016.31
50.298 3.5477901 -1017.22
49.973099 3.6174901 -1017.77
49.4118 4.3882098 -1018.84
49.391998 4.5702801 -1019.47
48.540501 5.0640302 -1019.89
46.827702 6.1612201 -1022.69
46.005199 6.10672 -1023.19
44.970402 7.0184002 -1024.9399
44.368801 7.06387 -1025.62
43.681301 7.8806801 -1026.77
42.9916 8.6495705 -1027.88
41.8302 9.0227404 -1028.25
41.332901 9.1223803 -1028.9301
40.158798 9.7277803 -1030.17
39.544899 9.7948599 -1030.85
38.691299 10.4498 -1032
38.297401 10.5825 -1032.6899
36.5844 11.0718 -1033.97
36.0397 11.7071 -1034.55
35.0924 11.6837 -1035.4
34.013802 12.257 -1036.01
30.0711 12.4972 -1037.67
28.8515 13.1369 -1038.6899
18.8277 13.6049 -1041.64
45.584599 -16.4405 -980.18402
50.177502 -11.9984 -987.52698
51.160702 -10.6515 -989.69202
51.705898 -9.3283997 -991.90802
52.882801 -7.4028001 -995.474
53.127499 -6.5290198 -996.29999
53.139999 -6.26791 -997.15802
53.4146 -5.9401598 -998.11902
53.090199 -5.82974 -998.62402
53.002998 -4.97861 -999.51703
53.444801 -4.6883502 -1000.08
53.541 -4.3660898 -1001.03
53.412201 -4.2691302 -1001.52
53.345299 -3.38498 -1002.39
53.192799 -3.14468 -1003.37
53.3932 -2.96896 -1003.85
53.380699 -2.27039 -1004.31
52.669701 -1.93616 -1005.73
52.809399 -0.953125 -1007.12
53.1194 -0.58386201 -1008.02
52.787701 -0.349915 -1009.05
53.102699 0.41082799 -1009.57
52.007301 0.61840802 -1011.1
51.818401 1.37112 -1012.05
51.746201 1.94867 -1012.47
51.6161 2.2528701 -1013.54
51.492001 2.3833599 -1014.07
51.476898 2.5668299 -1014.71
50.202202 3.73965 -1016.03
49.991001 3.9858401 -1017.1
49.794601 4.1171899 -1017.64
49.535599 4.2342801 -1018.2
49.042801 4.81885 -1018.59
48.970699 4.9712801 -1019.22
47.942902 5.7365999 -1020.37
47.463699 5.7336998 -1020.94
47.090599 6.6306801 -1021.95
46.703201 6.7129202 -1022.5
45.923801 6.89185 -1023.69
45.137901 7.39291 -1024.09
44.688499 7.7363 -1025.49
43.933899 8.2822599 -1025.98
43.5672 8.38132 -1026.61
43.098999 8.9764996 -1027.08
42.9575 9.1551199 -1027.73
41.701698 9.6974802 -1028.87
39.426998 10.1906 -1030.67
39.4678 10.4531 -1031.4301
39.189098 11.0912 -1031.85
38.534199 11.1201 -1032.59
38.1688 11.303 -1033.4399
36.960201 11.4486 -1033.1
36.847599 11.7114 -1033.9
35.223202 12.0634 -1034.4301
34.782299 12.1839 -1035.23
33.729198 12.7701 -1035.78
33.374401 12.9941 -1036.79
30.955601 13.4373 -1037.74
28.6763 13.7494 -1038.63
47.213699 -14.2315 -982.625
48.105801 -13.0655 -984.21399
49.441101 -12.149 -986.08002
50.395 -10.8148 -988.10602
50.968102 -9.9795504 -990.43298
51.692902 -8.9382 -991.37402
51.790798 -8.5385399 -992.625
52.3204 -8.1276903 -993.59998
52.5742 -7.09866 -994.88702
52.9786 -6.6749301 -995.86798
53.223801 -5.6549401 -997.01501
53.295799 -5.5039701 -997.45801
53.136299 -5.2512202 -998.47601
53.4189 -5.0205698 -999.09302
53.120701 -4.2137098 -999.92902
53.3787 -4.0050998 -1000.47
53.2631 -2.86215 -1002.19
53.554199 -2.59308 -1002.79
53.119701 -2.5097001 -1003.63
53.137299 -1.57941 -1004.61
53.716702 -1.2246701 -1005.28
53.143398 -1.10574 -1006.15
52.9673 -0.368622 -1006.98
53.2603 -0.16216999 -1007.53
53.016499 0.13857999 -1008.34
52.679298 0.93960601 -1009.94
52.3666 1.03543 -1010.45
52.432098 1.48877 -1010.41
52.038101 1.57257 -1010.92
51.7314 1.7959599 -1011.93
51.816002 2.46701 -1012.36
51.534801 2.7142601 -1013.42
50.915001 3.4230299 -1014.4
50.796501 3.57108 -1015.01
50.2925 3.58496 -1015.48
50.315399 4.3025498 -1015.91
50.135101 4.4115 -1016.4
49.7957 4.49753 -1016.91
49.568199 4.77283 -1018.07
49.110901 5.3912401 -1018.44
49.123001 5.59512 -1019.1
48.710602 5.7175899 -1019.75
47.6647 6.3741798 -1020.81
47.317799 6.50314 -1021.38
46.680401 7.2465801 -1022.33
46.299702 8.0809002 -1023.47
44.717201 8.0334501 -1024.59
44.862301 8.3438702 -1025.38
44.0397 8.8048096 -1025.84
43.564499 8.89221 -1026.45
42.5163 9.4895897 -1027.52
41.947201 9.98734 -1027.99
41.171902 10.0027 -1028.61
40.810398 10.1059 -1029.3199
39.640099 10.4702 -1029.77
39.712601 10.7411 -1030.53
38.951401 11.5201 -1031.7
38.414101 11.6239 -1032.5
37.348202 12.1394 -1033.09
36.681599 12.2307 -1033.76
35.106098 12.6252 -1034.33
34.974201 12.8688 -1035.1899
33.2673 13.2656 -1035.67
21.4412 14.2588 -1040.23
46.3256 -14.4555 -981.08197
48.189602 -12.5825 -984.10303
50.1273 -10.492 -987.49799
50.776001 -10.0392 -988.47198
51.167702 -8.85818 -990.12598
52.437 -6.3942299 -995.21002
52.962601 -5.2960501 -996.39899
53.310902 -4.9134798 -997.31403
53.582901 -4.6524701 -997.93298
52.707298 -3.9191301 -999.19501
53.407001 -3.3914499 -1000.33
53.361301 -3.0949399 -1001.26
53.308601 -2.14465 -1002.58
53.1926 -2.04724 -1003.02
52.586102 -1.44489 -1003.8
52.925201 -1.15408 -1004.41
53.2789 -0.872711 -1005.05
53.069 -0.64727801 -1005.99
52.9478 0.21402 -1007.3
53.100201 0.58651698 -1008.31
52.777199 1.0750999 -1008.72
52.645302 1.35574 -1009.85
52.088001 2.0299399 -1010.8
51.958199 2.1682999 -1011.29
51.959599 2.3503101 -1011.82
51.058498 3.0592699 -1013.2
51.1129 3.2911999 -1013.82
50.930401 3.9606299 -1014.25
50.7701 4.0778799 -1014.83
49.8578 4.8828101 -1016.17
49.8806 5.0696998 -1016.76
49.755299 5.237 -1017.35
49.191502 6.0216699 -1018.33
48.894001 6.1144099 -1018.95
47.953999 6.0693102 -1019.49
47.8172 6.8249502 -1020.05
47.5397 6.9121099 -1020.62
46.578899 7.7500901 -1022.17
45.786301 7.69312 -1022.68
44.962002 8.38342 -1023.75
44.8232 8.5885296 -1024.47
44.335899 9.1384296 -1025
44.1674 9.3463402 -1025.71
43.123199 9.6764803 -1026.11
43.664398 9.4211397 -1026.3199
42.626301 9.7726097 -1026.72
42.413799 9.8993797 -1027.38
40.9617 10.4012 -1028.4301
40.516499 11.0162 -1028.99
40.0938 11.1479 -1029.6801
40.061199 11.3685 -1030.33
39.446098 11.4227 -1030.91
38.669399 11.9778 -1031.58
37.751598 11.9806 -1032.3101
37.192001 12.6515 -1032.86
36.2621 12.6927 -1033.48
34.334702 13.0064 -1034.1
34.083401 13.233 -1034.9301
32.615101 13.6763 -1035.55
31.166599 13.549 -1036.36
24.8673 14.5479 -1038.59
50.377201 -9.7673998 -987.81201
50.529598 -9.6082201 -988.26202
51.380402 -8.10324 -990.513
51.552299 -7.6332102 -991.86798
52.2952 -6.1673899 -994.047
52.454601 -5.8242798 -995.06299
52.829399 -4.5058298 -997.13397
53.1241 -4.2723098 -997.72498
52.626099 -4.19873 -998.18799
53.000401 -3.2756 -999.08099
53.064098 -2.96841 -1000.1
53.032902 -2.6987 -1001.05
52.939999 -2.57651 -1001.5
53.006699 -1.76059 -1002.35
53.131699 -1.4361 -1003.38
52.751301 -0.768372 -1004.25
52.6161 0.090271004 -1005.63
52.702801 0.27459699 -1006.14
52.6222 1.17551 -1007.57
52.8424 1.74692 -1009.24
51.7957 2.2996199 -1010.05
51.756199 2.43683 -1010.58
51.7374 2.59006 -1011.09
51.533501 2.72574 -1011.58
51.620701 3.44064 -1012.02
51.042702 3.4347501 -1012.47
51.108501 3.7851601 -1013.68
50.574501 4.23209 -1013.42
50.850601 4.4951801 -1014.08
50.385899 4.5355501 -1014.58
49.630901 5.76367 -1017.12
49.185902 6.3642602 -1017.49
48.927399 6.5286298 -1018.17
48.446701 6.5637798 -1018.79
48.094002 7.21387 -1019.27
47.688599 7.3179002 -1019.87
47.703999 7.50705 -1020.52
47.4114 7.6262798 -1021.09
46.652199 8.0455904 -1021.4
46.035198 8.2784996 -1022.59
46.0327 8.5194101 -1023.25
45.193199 8.9370699 -1023.67
43.9785 9.7541199 -1025.55
43.450401 10.2581 -1026.03
42.7164 10.2474 -1026.59
42.768398 10.4897 -1027.3
41.587299 10.8738 -1027.6801
40.943199 10.8835 -1028.29
40.457802 11.79 -1029.47
40.5499 12.0137 -1030.1801
39.834801 12.0458 -1030.86
39.104698 12.4203 -1030.7
38.5242 12.5298 -1031.49
37.112701 12.3846 -1032.04
36.9394 13.2 -1032.65
36.599499 13.3567 -1033.48
34.6926 13.6942 -1034
32.435699 14.2427 -1035.47
31.4846 14.2979 -1036.4
47.748199 -11.8725 -982.966
48.543201 -11.1641 -984.664
50.499802 -8.9074697 -988.49402
51.0504 -8.4633198 -989.50897
51.7006 -7.0241098 -991.724
52.337101 -5.6249399 -993.89099
52.513302 -5.26196 -994.91602
52.530499 -4.9980202 -995.81897
52.833302 -3.95804 -997.08002
53.157799 -2.4696 -999.99597
53.073799 -2.3424399 -1000.45
52.748798 -1.6774 -1001.23
52.883701 -1.36218 -1002.18
52.938099 -1.21378 -1002.66
52.741501 -0.499542 -1003.57
52.956799 -0.27911401 -1004.17
52.967701 0.34930399 -1004.58
52.686298 0.56390399 -1005.51
52.708698 0.714661 -1006.01
52.535999 0.82073998 -1006.49
52.944302 1.98367 -1008
52.367199 2.1261599 -1009.04
51.723999 2.9728999 -1010.41
51.782398 3.1542699 -1010.93
51.4217 3.9597499 -1011.77
51.238602 4.05722 -1012.31
51.284901 4.2709999 -1012.94
50.462502 5.1467299 -1014.44
50.156601 5.22363 -1014.95
50.123199 5.3747902 -1015.52
49.700199 6.1369901 -1016.38
49.276299 6.1972399 -1016.9
48.358601 7.0879202 -1018.62
47.807999 7.8442702 -1019.76
47.380901 7.9063101 -1020.29
47.252201 8.0591698 -1020.91
46.500099 8.2513103 -1021.99
45.503799 9.2697401 -1022.87
45.177399 9.3821697 -1023.54
44.3214 10.0541 -1024.74
42.619598 10.7342 -1026.42
42.565201 10.9715 -1027.12
41.559898 11.3946 -1027.51
41.194599 11.5382 -1028.1899
40.6689 12.3836 -1029.29
39.888802 12.3436 -1029.91
38.715401 13.1945 -1031.37
37.259899 13.0167 -1031.9301
36.549099 13.615 -1032.4
36.623199 13.9212 -1033.35
34.397701 14.1849 -1033.83
33.818901 14.3546 -1034.73
32.634998 14.8377 -1035.45
31.2873 14.791 -1036.27
28.615299 15.3137 -1036.96
47.126301 -11.7146 -981.89697
48.9417 -10.1984 -985.43298
50.243801 -8.6568604 -987.45898
51.0112 -7.91714 -989.33801
51.148201 -7.04703 -990.12097
51.708302 -6.59164 -991.15399
51.966801 -6.1381798 -992.46002
51.891899 -5.3613601 -993.15997
52.413799 -4.76157 -994.75897
52.6432 -4.5433998 -995.26898
52.758801 -3.48773 -996.93298
52.806801 -2.7256501 -997.74103
52.714401 -2.44174 -998.70502
52.981602 -2.2151501 -999.29498
52.842602 -1.9400001 -1000.25
52.834801 -1.22168 -1001.1
53.049099 -0.88519299 -1002.09
52.435902 -0.483917 -1002.3
53.018902 -0.114227 -1002.93
52.742901 0.115601 -1003.99
53.125401 1.2298599 -1005.44
52.691299 1.38535 -1006.36
52.191799 2.2599199 -1007.69
52.133499 2.59604 -1008.85
51.767601 3.3887899 -1009.71
51.7715 3.5422101 -1010.24
51.802898 3.7174399 -1010.78
51.609699 3.8290401 -1011.27
51.351898 4.4796801 -1011.59
51.4706 4.6855202 -1012.19
50.896301 4.7111802 -1012.65
51.266701 5.026 -1013.39
50.746899 5.0244098 -1013.87
50.294102 5.6348 -1014.2
50.401199 5.8481798 -1014.83
50.167801 5.9611802 -1015.36
49.850601 6.5479398 -1015.67
49.337399 6.9876699 -1017.4
48.674301 7.4702802 -1017.87
47.3974 8.1764202 -1019.54
46.8633 8.4159203 -1020.68
46.537998 9.1646404 -1021.76
46.264999 9.2822304 -1022.38
45.6348 9.7613201 -1022.79
44.579102 10.4093 -1023.87
44.417198 10.6132 -1024.61
43.384899 10.523 -1025.15
43.400799 11.3101 -1025.75
43.035301 11.4245 -1026.4
41.745998 12.0424 -1027.39
40.981899 12.0543 -1027.99
40.515999 12.1429 -1028.61
40.373798 12.8732 -1029.16
39.0774 13.0372 -1030.55
37.7957 13.4882 -1031.0699
36.302101 14.1158 -1032.3199
35.655499 14.1801 -1033.03
34.4324 14.7018 -1033.7
33.428902 14.7029 -1034.5601
32.3274 15.2328 -1035.3199
30.663799 15.6363 -1036.14
48.175598 -10.257 -983.875
51.304699 -6.18887 -990.888
51.950901 -5.61484 -992.29303
51.896702 -4.8841901 -993.02301
52.337898 -3.4371901 -995.80798
52.9063 -2.8180201 -997.28497
52.912201 -1.96649 -998.62402
52.5882 -1.45355 -998.90503
53.0187 -0.85418701 -1000.54
53.213902 0.44375601 -1002.83
52.976898 0.69332898 -1003.89
52.800999 0.80743402 -1004.4
52.873798 1.50339 -1004.75
53.006401 1.69199 -1005.26
52.463699 1.99323 -1006.68
52.159199 2.8218701 -1007.52
52.667099 3.1480999 -1008.29
52.035198 3.0928299 -1008.71
51.6735 4.0862999 -1010.07
51.727402 4.26126 -1010.58
51.0774 5.10602 -1011.91
50.847198 5.24265 -1012.46
50.533001 5.3471398 -1013.04
50.672401 6.2676101 -1014.13
50.006901 6.2406602 -1014.57
49.9412 6.4197402 -1015.14
49.742802 7.1982098 -1016.09
48.913799 7.78616 -1017.12
48.551201 7.90662 -1017.71
48.306999 8.0362501 -1018.35
47.9925 8.1539297 -1018.98
47.5816 8.7062702 -1019.45
47.326 8.8235798 -1020.04
46.968498 9.3805799 -1020.47
46.610802 9.4473305 -1020.98
46.394901 9.5882301 -1021.58
45.464401 10.2164 -1022.6
44.869801 10.2549 -1023.18
44.229301 11.0748 -1024.4301
43.786701 11.201 -1025.11
42.9697 11.7526 -1025.5
42.254398 11.7501 -1026.08
42.460999 12.0131 -1026.78
41.059898 12.6479 -1027.85
40.462101 12.6976 -1028.46
39.952702 13.3402 -1029.01
39.154301 13.6201 -1030.41
37.559101 14.0057 -1030.86
37.038799 14.0836 -1031.5699
36.068001 14.5801 -1032.21
36.251598 14.9127 -1033.05
34.247299 15.1267 -1033.52
32.8881 15.5217 -1034.23
32.369801 15.7093 -1035.1801
30.5557 16.0429 -1036.05
25.162001 16.8141 -1038.5601
43.2673 -14.4687 -975.93402
47.581902 -10.145 -982.823
50.458401 -7.40872 -987.62903
50.5952 -7.0926199 -988.48901
50.979698 -6.7026401 -989.45898
51.236301 -5.7550702 -990.73401
51.655499 -5.3467999 -991.65503
52.150101 -4.0458102 -993.90302
52.375599 -3.1093099 -995.28101
52.682201 -2.59201 -996.70801
52.529202 -1.90704 -997.45801
52.8993 -1.66763 -998.00201
52.750702 -0.569305 -999.849
52.830399 -0.39453101 -1000.33
52.986599 -0.093078598 -1001.27
52.6367 0.64446998 -1002.04
53.273701 0.99005097 -1002.68
52.885101 1.2084399 -1003.7
53.061199 1.41763 -1004.26
52.5247 2.12479 -1004.98
52.7015 2.51056 -1006.04
52.683201 2.63715 -1006.55
52.482201 3.50687 -1007.44
51.916 3.5202601 -1007.89
52.268902 3.86572 -1008.54
52.116402 3.8877599 -1009.09
51.525799 4.7296801 -1010.38
51.394798 4.8727999 -1010.88
51.3102 5.0280199 -1011.42
51.177799 5.66394 -1011.78
50.8283 5.7417598 -1012.32
50.874298 5.9411602 -1012.95
50.836201 6.1409898 -1013.55
50.283298 6.8439002 -1014.5
50.3312 7.0370798 -1015.08
49.880402 7.5303602 -1015.43
49.623199 7.6328402 -1015.94
49.315201 7.7356 -1016.53
49.208099 8.1379404 -1016.47
48.746899 8.1854601 -1017.02
48.240501 8.25385 -1017.54
48.440601 8.5361004 -1018.25
47.694302 9.0028095 -1018.68
47.165501 9.2007103 -1019.86
46.1689 9.8314199 -1020.75
45.928001 10.1645 -1022.04
45.381699 10.7462 -1022.43
44.919601 10.8051 -1023.06
43.752102 11.7702 -1024.9301
41.6492 12.354 -1026.46
41.6577 12.6083 -1027.23
40.455101 13.2585 -1028.35
39.8218 13.5617 -1029.65
38.893398 14.0963 -1030.23
37.6474 14.7857 -1031.63
36.154099 15.3714 -1032.98
31.7194 15.9757 -1034.96
29.7264 16.357901 -1035.73
42.807098 -14.1761 -975.297
44.471699 -12.3484 -977.96997
47.740002 -9.41434 -983.08002
50.0411 -7.15137 -986.96997
51.384102 -5.21771 -990.62402
51.494801 -4.9338999 -991.46698
51.866901 -3.99933 -992.74701
51.953499 -3.6714799 -993.75
51.957001 -2.7827499 -995.13
52.143299 -1.50082 -997.26703
52.665401 -0.89721698 -998.78998
52.696201 -0.072265603 -999.65503
52.8088 0.39239499 -1001.1
52.917801 0.58938599 -1001.59
52.909901 1.4628299 -1002.43
52.4561 1.48151 -1002.9
53.0942 2.0253 -1004.09
52.5322 2.5145299 -1004.37
52.866001 2.82391 -1004.9
52.789101 3.0821199 -1005.89
52.478001 3.13644 -1006.34
52.489498 3.3276401 -1006.88
52.201099 4.1264601 -1007.76
51.966099 4.2463102 -1008.29
51.564499 5.1511798 -1009.69
51.595402 5.31604 -1010.25
51.304001 5.5293598 -1011.27
51.133999 6.1707802 -1011.65
50.9963 6.32617 -1012.27
50.182598 7.0897498 -1013.83
50.25 7.2767901 -1014.39
49.9674 7.3711901 -1014.88
49.787201 7.9442101 -1015.34
49.596298 8.0687599 -1015.91
48.406101 8.7747202 -1017.47
47.772099 9.5213003 -1018.55
47.347698 9.60501 -1019.11
46.740501 9.8131104 -1020.28
46.395901 10.4123 -1020.65
45.8964 10.7043 -1021.87
44.475601 11.5008 -1023.56
44.002399 11.5924 -1024.21
43.339802 12.2234 -1024.7
42.891602 12.283 -1025.33
42.4338 12.9567 -1025.78
41.367199 13.0652 -1027.01
40.373699 13.5455 -1027.41
40.237202 13.7768 -1028.17
39.650101 13.8053 -1028.75
38.858299 14.5712 -1030.0601
38.2005 14.6942 -1030.85
37.708698 14.994 -1030.64
37.3526 15.2137 -1031.49
35.747601 15.4291 -1031.99
34.374001 16.0882 -1033.36
33.351101 16.123501 -1034.1899
31.881701 16.540199 -1034.8101
29.0429 17.0807 -1036.65
48.449299 -8.3360901 -984.31799
50.662701 -6.2574501 -987.82397
50.952301 -5.3193998 -989.07001
51.367599 -4.9092102 -990.06799
51.894402 -4.2376699 -991.87903
51.921001 -3.5343001 -992.64502
52.190201 -3.3037701 -993.17798
51.7686 -2.5589299 -994.03601
52.231201 -2.2623301 -994.625
52.2108 -1.99747 -995.52301
52.442001 -0.99410999 -996.75201
52.847198 -0.31661999 -998.68903
52.885601 -0.141571 -999.20099
52.668701 0.56030297 -999.93903
52.9035 0.902771 -1000.52
52.922901 1.19458 -1001.46
52.766102 1.94345 -1002.24
52.3372 2.0055799 -1002.71
52.862701 2.46738 -1003.88
51.7635 3.1500499 -1005.02
52.7318 3.6087999 -1005.73
52.741699 3.7855501 -1006.25
51.836201 4.5310102 -1007.53
51.941101 4.7511902 -1008.14
51.911999 4.9214802 -1008.7
52.074402 5.1778002 -1009.31
51.448502 5.5924401 -1009.55
51.389301 5.75143 -1010.06
51.298302 5.86902 -1010.56
50.9412 6.5745201 -1011.49
50.3951 6.6110501 -1012.05
50.131699 7.35748 -1013.15
49.8773 7.4704599 -1013.68
49.3922 8.3055401 -1015.22
48.986599 8.5674105 -1016.32
48.557999 9.13132 -1016.71
48.423302 9.3167105 -1017.33
47.8904 9.3585501 -1017.88
47.809399 10.0907 -1018.41
47.332001 10.1379 -1018.97
47.093201 10.2829 -1019.57
46.419701 10.2515 -1020.04
46.431099 11.015 -1020.51
44.43 12.0706 -1023.38
43.808498 12.6579 -1023.89
42.623402 12.7812 -1025.12
41.930801 13.5523 -1026.24
40.426601 14.0919 -1027.3101
39.625099 14.3395 -1028.67
39.1106 14.8831 -1029.26
38.4347 15.4319 -1029.83
38.052101 15.5418 -1030.58
36.501301 15.4152 -1031.2
36.3368 16.079399 -1031.99
34.208302 16.559 -1033.1801
33.018101 16.538099 -1033.97
31.7526 17.057199 -1034.7
28.553499 17.5585 -1036.49
43.320599 -12.5318 -976.42999
45.580299 -10.529 -979.37402
47.268002 -8.8367596 -981.98297
49.759201 -5.7480798 -987.034
50.520302 -5.1133699 -988.47101
51.199001 -4.5171499 -989.91101
51.508801 -3.53632 -991.06799
52.006302 -3.0871601 -992.06403
52.0341 -2.7768199 -993.06
51.8979 -1.84808 -994.40698
52.0928 -1.52484 -995.35303
52.275101 -0.180756 -997.46802
52.538601 0.0084533701 -997.95697
52.9077 0.413818 -999.05103
52.755199 1.24692 -999.88
52.5494 1.28934 -1000.34
52.669399 1.66959 -1001.3
52.684601 1.7998 -1001.72
52.6763 2.6394999 -1002.69
52.9991 3.1380301 -1003.76
52.469799 3.80972 -1004.5
52.426201 4.0528302 -1005.49
52.983101 4.39502 -1006.13
52.328499 4.9954801 -1006.93
52.1409 5.2940998 -1008.01
51.897598 5.38379 -1008.54
51.594398 5.92834 -1008.9
51.456799 6.0563698 -1009.42
51.702099 6.2950702 -1009.98
51.246799 6.33325 -1010.41
51.2733 7.13727 -1011.45
50.322102 7.5050402 -1011.83
50.080399 7.62253 -1012.42
49.805801 7.7290602 -1012.96
49.955002 7.97787 -1013.6
49.526402 8.5408297 -1013.99
49.203899 8.7805796 -1015.04
48.789299 8.8388996 -1015.53
48.597301 9.4982595 -1015.97
48.0429 9.71597 -1017.1
47.858501 9.8720703 -1017.72
47.237 10.6775 -1018.78
46.655102 10.6983 -1019.3
46.414299 11.8094 -1021.01
45.492699 11.728 -1021.47
44.945801 11.7426 -1022.03
44.2677 12.3212 -1022.47
42.775398 13.3883 -1024.99
41.390598 13.8909 -1026.01
41.571701 14.1941 -1026.79
39.824299 14.6219 -1027.87
38.711399 15.0463 -1028.33
38.603802 15.2351 -1029.11
35.408199 16.153799 -1031.01
35.537701 16.377899 -1031.8
33.918201 17.063601 -1032.98
33.177299 17.1429 -1033.84
31.401899 17.5856 -1034.5699
29.1492 18.3395 -1036.4301
47.9744 -7.2446599 -983.41998
51.1898 -4.0992098 -989.349
51.600498 -2.7005899 -991.84802
51.613098 -2.5444901 -992.34198
51.3979 -1.72272 -993.17902
51.683498 -1.47202 -993.73602
51.878502 -0.96490502 -995.14301
51.971401 -0.69238299 -996.04901
52.072498 0.028869599 -996.38098
52.403099 0.53997803 -997.83698
52.537498 0.89559901 -998.80103
52.482201 1.0575 -999.33899
52.510899 2.84341 -1001.45
52.630798 3.41205 -1003.03
52.613098 3.52191 -1003.62
52.235401 4.4759202 -1005.3
51.9636 4.6990099 -1006.31
51.6838 5.4517498 -1007.2
52.216202 5.7801499 -1007.91
52.178398 6.3657498 -1008.35
51.454601 6.4903598 -1009.28
51.419998 6.6293302 -1009.79
51.337002 6.7896099 -1010.33
51.133301 7.3691401 -1010.71
51.011799 7.5075998 -1011.28
50.056702 8.1599703 -1012.26
49.726002 8.2397499 -1012.84
49.581902 9.0890198 -1013.85
48.931801 9.4268503 -1015.44
48.5079 9.6710501 -1016.55
48.523102 10.2465 -1016.41
47.969398 10.2832 -1016.94
47.928299 10.4729 -1017.59
47.1838 11.2413 -1018.64
46.861099 11.3171 -1019.21
46.3353 11.927 -1019.59
45.992802 12.0185 -1020.12
42.4114 13.7474 -1024.79
42.157101 14.3923 -1025.35
41.6063 14.4462 -1025.92
40.8452 15.1564 -1027.17
39.698399 15.0521 -1027.73
37.813599 16.2675 -1029.58
36.578201 16.146 -1030.28
34.161598 16.619301 -1031.34
35.3578 17.186501 -1032.28
33.945202 17.7066 -1032.9
33.411701 17.801701 -1033.85
29.6082 18.0819 -1035.4
28.893101 18.815399 -1036.1
42.973999 -11.936 -975.18103
47.3046 -7.79285 -982.11298
48.0854 -6.5950599 -983.72699
49.091999 -5.76859 -985.64398
49.562302 -4.7165499 -986.76801
50.417198 -3.9514799 -988.68201
51.4874 -2.1321101 -991.74597
52.030399 -0.65390003 -994.15997
51.946499 -0.40310699 -995.02301
51.955399 -0.25988799 -995.44299
51.819698 0.50704998 -996.18402
52.402199 0.97140503 -997.271
52.276199 1.0727201 -997.72803
52.331402 1.38983 -998.68597
52.357601 2.5502601 -1000.53
52.4263 3.62991 -1002.34
52.276699 3.7256801 -1002.88
52.140202 4.4948702 -1003.87
52.4188 4.8878198 -1004.74
52.1703 5.7283902 -1006.1
51.699902 5.7305002 -1006.58
51.312698 5.7807598 -1007.04
51.516102 6.9830599 -1009.15
51.240501 7.0560002 -1009.61
51.005199 7.8492398 -1010.58
50.4958 7.8421302 -1011.08
50.515999 8.0970201 -1011.76
50.234299 8.7448702 -1012.19
49.763901 8.78549 -1012.69
49.951698 9.0248098 -1013.36
49.274101 9.5715303 -1013.65
48.947399 9.8242502 -1014.7
48.967098 10.0159 -1015.27
48.744801 10.1248 -1015.85
48.2771 10.7331 -1016.22
48.012901 10.8676 -1016.81
47.636002 10.9649 -1017.37
46.976398 11.7166 -1018.43
46.577099 11.8052 -1018.99
46.452301 12.7125 -1020.06
45.896099 12.7643 -1020.6
45.1189 12.9243 -1021.79
44.261398 12.8894 -1022.33
43.346901 13.5796 -1023.53
43.430199 14.0823 -1023.42
42.433998 14.8971 -1025.29
41.745499 14.9292 -1025.84
40.998699 15.4204 -1026.3101
39.167999 16.191 -1028.2
38.5373 16.246201 -1028.89
37.451698 16.753 -1029.51
37.1507 16.9592 -1030.38
35.3293 17.316099 -1030.72
35.5159 17.646799 -1031.49
35.1241 17.684 -1032.13
32.797001 18.237101 -1033.66
30.650101 18.6094 -1034.36
30.120399 18.771799 -1035.1899
43.911701 -10.2328 -976.86603
47.4907 -7.1135898 -982.39801
48.381302 -5.8007798 -984.065
49.160801 -4.9699998 -986.28198
50.224098 -3.54825 -988.02698
50.692101 -2.06323 -990.58899
51.212399 -1.61905 -991.60101
51.321899 -1.3158 -992.52301
51.425999 -0.443573 -993.375
51.568199 -0.124847 -994.35101
51.873199 0.25174001 -995.28497
51.917198 1.354 -997.01898
52.2467 1.77917 -998.10303
52.4711 1.96207 -998.64398
51.872299 2.5595701 -999.30701
52.0084 2.74985 -999.88
52.126598 3.09253 -1000.75
52.483002 3.9003 -1001.79
52.114601 4.8410301 -1003.21
52.078499 5.0488901 -1004.16
52.142899 5.8517499 -1004.93
51.901199 6.0873699 -1005.96
51.588001 6.1633301 -1006.47
51.421799 6.9993901 -1007.48
51.8022 7.2590299 -1008.03
51.741402 7.5842299 -1009.08
51.1409 7.52917 -1009.46
51.171398 8.25418 -1009.97
50.690701 8.2796297 -1010.45
50.2057 8.3242197 -1010.96
50.2523 8.55511 -1011.56
50.0336 9.2575998 -1011.98
50.053299 9.4641705 -1012.62
48.925701 10.1996 -1013.99
48.859699 10.3515 -1014.54
48.8554 10.5576 -1015.12
48.1931 10.5256 -1015.58
48.155602 11.261 -1016.02
48.1185 11.4472 -1016.66
47.675499 11.5304 -1017.22
47.442799 11.6617 -1017.88
47.065201 12.31 -1018.32
46.864899 12.4477 -1018.93
46.573898 12.5815 -1019.48
45.9151 13.0486 -1019.83
45.646801 13.1623 -1020.44
45.437302 13.3224 -1021.05
43.121601 15.1605 -1023.89
42.7215 15.2444 -1024.5
42.224499 15.3263 -1025.12
41.866299 15.438 -1025.74
40.771702 15.873 -1026.13
40.067699 15.9261 -1026.75
38.330101 16.755501 -1028.78
37.287201 17.337 -1029.37
36.188702 17.3018 -1030.08
35.2201 18.1166 -1031.36
34.638401 18.205299 -1031.96
31.989901 18.6187 -1033.52
30.538099 18.844999 -1033.35
30.7584 19.1978 -1034.22
30.398899 19.372 -1034.98
45.549 -7.9959698 -979.11401
47.972 -5.4927402 -983.409
48.750198 -4.86624 -984.87097
50.128399 -2.8773501 -988.31299
50.355701 -2.6547501 -988.82202
50.596199 -1.6474299 -990.047
50.9007 -1.31183 -990.94897
51.161201 -0.94799799 -991.89502
51.3811 -0.608154 -992.88202
51.4575 0.25946 -993.70801
51.5886 0.56912202 -994.64502
51.918301 0.92532301 -995.60199
51.800301 1.66803 -996.38397
51.623699 1.91931 -997.31897
52.229698 2.4159501 -998.45398
51.9935 4.29352 -1001.52
