# .PCD v0.7 - Point Cloud Data file format
VERSION 0.7
FIELDS x y z
SIZE 4 4 4
TYPE F F F
COUNT 1 1 1
WIDTH 1645
HEIGHT 1
VIEWPOINT 0 0 0 1 0 0 0
POINTS 1645
DATA ascii
-30.9641 -35.177898 -1032.4399
-31.614401 -34.9016 -1032.36
-32.6306 -35.683701 -1029.09
-33.978298 -35.834099 -1026.97
-34.8969 -36.0495 -1025.1899
-35.409698 -36.6427 -1022.98
-35.727699 -36.8764 -1021.99
-36.327499 -36.914299 -1021.13
-36.917198 -37.400299 -1019.04
-37.2798 -37.7495 -1017.61
8.7573204 -41.939098 -1056.66
2.67505 -39.834 -1056.23
1.47369 -39.613998 -1055.64
-0.448975 -38.639301 -1055.95
-1.40942 -38.557201 -1055.29
-2.65552 -38.032299 -1055.26
-3.1019299 -38.092201 -1054.58
-4.8764 -37.537102 -1054.0601
-5.47473 -37.465199 -1053.53
-6.3271499 -37.199699 -1053.3199
-7.0435801 -37.0009 -1052.99
-7.81323 -36.810799 -1052.66
-8.4853497 -36.692799 -1052.1899
-9.1173096 -36.6147 -1051.71
-9.9826698 -36.3368 -1051.45
-10.8262 -36.114498 -1051.16
-11.4292 -36.055698 -1050.7
-12.2412 -35.8661 -1050.3199
-13.0839 -35.5835 -1050.11
-14.1243 -35.613998 -1049.0601
-15.1207 -35.149399 -1049.09
-15.9355 -34.926998 -1048.72
-16.2976 -35.033401 -1048.09
-16.7381 -35.0476 -1047.62
-17.4324 -34.795502 -1047.38
-17.8685 -34.813 -1046.87
-19.0867 -34.581799 -1046.17
-19.4599 -34.5951 -1045.61
-20.157801 -34.3993 -1045.4
-20.683201 -34.319401 -1044.99
-21.048901 -34.4002 -1044.4301
-21.577499 -34.343201 -1044
-22.287701 -34.082298 -1043.8199
-22.5646 -34.239799 -1043.1801
-23.3922 -34.206699 -1042.29
-23.886 -34.085999 -1041.98
-24.7283 -34.036301 -1041.15
-25.0082 -34.100601 -1040.62
-26.6495 -34.007198 -1038.97
-26.816601 -34.2467 -1038.28
-27.297501 -34.131199 -1037.95
-27.5516 -34.272999 -1037.41
-28.304001 -34.207401 -1036.62
-28.6064 -34.2533 -1036.14
-29.135 -34.063099 -1035.91
-29.4277 -34.458302 -1034.64
-30.1735 -34.078602 -1034.66
-30.117599 -34.472401 -1033.77
-31.049 -34.228298 -1033.24
-31.6635 -34.340698 -1032.26
-32.0714 -34.5476 -1031.28
-32.085899 -35.0858 -1029.86
-32.888 -34.910099 -1029.24
-33.158298 -34.9496 -1028.8
-34.051399 -35.2379 -1026.91
-34.609699 -35.562199 -1025.4
-34.988998 -35.708302 -1024.41
-35.3834 -36.1623 -1022.81
-36.222401 -36.2285 -1021.57
-36.7514 -36.346001 -1020.7
-37.194302 -37.1245 -1017.96
9.2996197 -42.0714 -1055.7
1.2863801 -38.991199 -1055.5699
-1.56696 -37.812099 -1055.5699
-3.0257599 -37.4799 -1054.63
-3.7873499 -37.320499 -1054.29
-5.4398198 -36.849201 -1053.62
-6.8380098 -36.583599 -1052.75
-7.6089501 -36.422001 -1052.38
-8.1841402 -36.4263 -1051.8101
-9.4422598 -35.846298 -1051.9
-10.1774 -35.684101 -1051.5
-10.7589 -35.685799 -1050.9301
-11.6321 -35.385101 -1050.72
-13.3464 -34.927299 -1050.16
-13.8177 -34.9352 -1049.62
-14.3735 -34.865601 -1049.15
-15.2005 -34.564999 -1049.02
-15.8021 -34.549099 -1048.48
-16.501301 -34.3755 -1048.12
-16.846901 -34.438599 -1047.6
-17.4513 -34.326199 -1047.23
-17.957899 -34.2435 -1046.8199
-18.3547 -34.321499 -1046.24
-19.0121 -34.1236 -1045.9301
-19.524 -34.069401 -1045.54
-20.7715 -33.759102 -1044.91
-21.172199 -33.848801 -1044.37
-23.083401 -33.646801 -1042.6899
-23.737499 -33.7453 -1041.7
-24.1429 -33.710602 -1041.27
-24.665001 -33.570801 -1040.98
-25.0695 -33.582901 -1040.5601
-25.9575 -33.460999 -1039.8101
-26.7812 -33.4095 -1038.98
-27.2302 -33.6763 -1037.78
-27.6605 -33.6497 -1037.4
-27.9354 -33.715302 -1036.89
-28.6999 -33.679501 -1036.1
-29.3109 -34.0653 -1034.41
-29.990999 -34.1101 -1033.53
-31.0474 -33.719898 -1033.12
-31.0282 -34.109501 -1032.29
-31.681801 -33.853298 -1032.16
-32.281898 -34.4048 -1029.9399
-33.286301 -34.3456 -1028.8199
-33.401199 -34.5285 -1028.17
-34.378399 -34.776299 -1026.34
-34.800201 -34.942699 -1025.34
-36.456501 -35.8582 -1020.93
-36.832298 -36.265701 -1019.34
5.9285898 -40.222599 -1055.83
2.54108 -38.826199 -1055.71
1.14197 -38.280602 -1055.61
-0.13507099 -37.771801 -1055.54
-0.99115002 -37.567402 -1055.17
-1.8688999 -37.320999 -1054.86
-2.45996 -37.2841 -1054.27
-3.461 -36.9244 -1054.09
-4.4606299 -36.549198 -1053.87
-5.0806298 -36.561298 -1053.26
-6.29071 -35.994598 -1053.3199
-6.9995098 -35.941898 -1052.78
-7.56671 -35.949001 -1052.23
-8.4139404 -35.729801 -1051.86
-9.4750996 -35.337799 -1051.78
-10.3809 -35.023499 -1051.55
-10.976 -34.995899 -1050.99
-11.4614 -35.065102 -1050.37
-12.4014 -34.727798 -1050.1801
-13.0435 -34.6651 -1049.71
-13.8446 -34.377701 -1049.5
-14.3891 -34.369499 -1049.04
-15.8947 -33.935799 -1048.47
-16.953899 -33.848701 -1047.54
-18.0063 -33.6964 -1046.72
-18.3235 -33.827499 -1046.0699
-19.149 -33.4972 -1045.92
-19.7796 -33.308201 -1045.63
-20.1957 -33.361099 -1045.14
-20.6042 -33.394199 -1044.63
-21.2628 -33.197399 -1044.34
-21.827499 -33.147701 -1043.9301
-22.8358 -33.003399 -1043.15
-22.8962 -33.304798 -1042.37
-23.4259 -33.131001 -1042.09
-23.904499 -33.075802 -1041.74
-24.208599 -33.109699 -1041.23
-24.873699 -32.903801 -1041.09
-25.142599 -33.001801 -1040.51
-25.9884 -32.9356 -1039.72
-26.255199 -33.0116 -1039.14
-26.999599 -33.058701 -1038.25
-27.758301 -33.015099 -1037.39
-28.067301 -33.1035 -1036.89
-28.6805 -33.165901 -1035.97
-28.9874 -33.217899 -1035.52
-29.5741 -32.963402 -1035.39
-29.9494 -33.592899 -1033.36
-30.572599 -33.355999 -1033.27
-31.040701 -33.568699 -1032.2
-31.565201 -33.412102 -1031.92
-31.798401 -33.506001 -1031.42
-32.158798 -33.981998 -1029.71
-32.891399 -33.559399 -1029.8199
-33.3134 -33.829201 -1028.67
-33.518799 -33.989601 -1028.0601
-33.911098 -33.955101 -1027.73
-35.340302 -34.302299 -1024.99
-35.516499 -34.664299 -1023.77
-35.816299 -34.859798 -1022.83
-36.219501 -35.0378 -1021.86
-36.663502 -35.1646 -1021
-36.841202 -35.509998 -1019.85
-37.563202 -36.3843 -1016.39
4.8228798 -38.7178 -1056.53
3.68378 -38.512699 -1056.02
2.2820401 -37.983799 -1055.89
1.5165401 -37.904301 -1055.37
-0.48870799 -37.2178 -1054.87
-2.1723599 -36.769199 -1054.13
-3.21259 -36.431198 -1053.86
-6.1655898 -35.5891 -1052.98
-7.01227 -35.403301 -1052.63
-8.5805101 -35.041599 -1051.86
-9.4805298 -34.7756 -1051.5699
-10.3105 -34.5658 -1051.26
-11.144 -34.314701 -1050.96
-12.6169 -33.993999 -1050.2
-13.2983 -33.9011 -1049.8101
-14.4647 -33.735401 -1048.96
-15.2053 -33.489201 -1048.72
-16.3538 -33.4352 -1047.67
-18.0361 -33.113701 -1046.59
-18.556499 -33.076099 -1046.17
-19.2188 -32.853401 -1045.83
-19.8176 -32.731998 -1045.54
-20.1854 -32.808601 -1044.97
-20.7493 -32.722599 -1044.6
-21.3412 -32.6101 -1044.27
-22.306999 -32.510502 -1043.41
-22.750401 -32.468201 -1043
-23.942301 -32.467201 -1041.66
-24.758499 -32.421101 -1040.83
-25.140499 -32.4198 -1040.4
-25.504299 -32.468899 -1039.92
-26.118999 -32.6022 -1038.86
-27.541201 -32.323799 -1037.86
-28.4965 -32.4226 -1036.47
-29.0133 -32.5998 -1035.42
-29.622499 -32.348999 -1035.3
-29.5385 -32.7663 -1034.39
-30.601101 -32.756401 -1033.1899
-31.004601 -33.0378 -1032.03
-31.625799 -32.815899 -1031.86
-31.6877 -33.0327 -1031.1801
-32.451302 -32.828899 -1030.7
-32.203602 -33.359699 -1029.65
-33.363201 -33.283199 -1028.55
-33.859798 -33.4613 -1027.51
-34.694401 -33.542801 -1026.24
-34.915401 -33.8993 -1025.03
-35.8689 -34.105598 -1023.28
-36.183201 -34.3083 -1022.3
-36.864899 -34.430099 -1021.09
-37.161701 -34.636398 -1020.09
-37.318501 -35.166901 -1018.42
-37.4245 -37.883099 -1010.61
6.3082299 -38.684799 -1056.63
5.0513902 -38.373299 -1056.14
3.85431 -38.005901 -1055.83
2.2962601 -37.290901 -1056.01
1.75787 -37.3801 -1055.3199
0.82043499 -37.0746 -1055.03
-0.16717499 -36.7299 -1054.74
-1.35052 -36.251598 -1054.63
-2.3464401 -36.038898 -1054.22
-3.1574099 -35.965599 -1053.6899
-4.1786499 -35.6782 -1053.3
-5.3909302 -35.212799 -1053.2
-6.0797701 -35.176498 -1052.7
-7.0609698 -34.796101 -1052.52
-7.8814702 -34.6408 -1052.17
-8.8275805 -34.299 -1051.92
-9.4169302 -34.316502 -1051.33
-10.449 -33.888599 -1051.24
-10.9584 -33.9473 -1050.6
-11.6664 -33.785999 -1050.22
-12.5894 -33.451 -1050.03
-13.4013 -33.220901 -1049.78
-13.836 -33.300098 -1049.22
-14.3428 -33.2799 -1048.6801
-15.2357 -32.929699 -1048.5699
-15.7009 -32.974499 -1048.01
-16.551001 -32.7197 -1047.71
-17.0266 -32.6945 -1047.25
-17.6675 -32.497002 -1047
-18.2122 -32.414902 -1046.61
-18.540501 -32.562 -1046
-19.750999 -32.277 -1045.33
-20.295401 -32.1861 -1044.92
-20.9046 -32.011902 -1044.64
-21.2997 -32.0826 -1044.14
-22.5641 -32.057598 -1042.73
-23.0721 -31.951799 -1042.38
-23.5096 -31.9328 -1041.9399
-24.0679 -31.786501 -1041.65
-24.883101 -31.7686 -1040.8101
-25.0383 -31.9781 -1040.14
-25.788099 -31.6607 -1040.08
-25.9828 -31.8242 -1039.4399
-26.200701 -31.998199 -1038.84
-26.695801 -31.8769 -1038.52
-27.7792 -31.874901 -1037.16
-27.916201 -32.117199 -1036.51
-28.5686 -31.822599 -1036.42
-29.0912 -31.992599 -1035.39
-29.5847 -32.2019 -1034.34
-30.1747 -31.9643 -1034.21
-30.527 -32.270599 -1032.99
-30.934299 -32.197498 -1032.6801
-33 -32.401299 -1029.66
-32.943001 -32.767101 -1028.77
-33.465 -32.658501 -1028.49
-33.910702 -32.878201 -1027.38
-34.421398 -32.673199 -1027.25
-34.738499 -32.941799 -1026.15
-35.370399 -33.4795 -1023.98
-35.737999 -33.418098 -1023.69
-36.7388 -33.9883 -1020.85
-37.411098 -35.2169 -1016.55
6.60358 -38.3214 -1056.29
5.0611 -37.6353 -1056.27
4.19208 -37.4958 -1055.75
3.3164101 -37.320702 -1055.3199
2.1784699 -36.856201 -1055.22
0.229187 -36.436699 -1054.3
-0.95288098 -36.017399 -1054.0699
-2.42114 -35.439201 -1054.09
-3.5023201 -35.049999 -1053.8101
-4.4077101 -34.993301 -1053.24
-5.4306002 -34.653301 -1052.99
-6.3256202 -34.362801 -1052.76
-7.0131798 -34.2962 -1052.3101
-8.0917397 -33.853901 -1052.1899
-8.8512001 -33.691101 -1051.76
-9.5360098 -33.635502 -1051.28
-10.4969 -33.301102 -1051.09
-11.1961 -33.185101 -1050.64
-11.6423 -33.279099 -1050.01
-12.6248 -32.8526 -1049.91
-13.2584 -32.774799 -1049.48
-14.6492 -32.418098 -1048.8101
-15.224 -32.379501 -1048.4
-16.6105 -32.0658 -1047.66
-17.2271 -31.9333 -1047.26
-17.767599 -31.844801 -1046.92
-18.2999 -31.774 -1046.55
-18.5177 -31.9662 -1045.79
-19.3687 -31.632799 -1045.72
-19.7906 -31.673201 -1045.2
-20.185301 -31.695299 -1044.7
-20.774599 -31.5208 -1044.4
-21.7897 -31.398001 -1043.62
-22.218 -31.379999 -1043.15
-22.932501 -31.115299 -1043
-23.583599 -31.289499 -1041.88
-24.005301 -31.2729 -1041.4301
-24.426901 -31.242701 -1041.04
-24.818399 -31.247601 -1040.61
-25.625999 -31.208 -1039.79
-26.1266 -31.1014 -1039.46
-26.351101 -31.2383 -1038.86
-26.880699 -31.112101 -1038.59
-27.028299 -31.336201 -1037.86
-27.903299 -31.1952 -1037.1899
-28.4935 -31.301901 -1036.24
-28.698799 -31.4571 -1035.64
-29.5299 -31.2953 -1034.96
-29.5333 -31.635401 -1034.16
-30.0751 -31.771299 -1033.17
-31.031601 -31.878 -1031.83
-31.919001 -31.679399 -1031.2
-32.429901 -31.741199 -1030.42
-33.132301 -31.676201 -1029.6801
-33.1465 -32.0266 -1028.8199
-33.442299 -32.118401 -1028.29
-33.846298 -32.017502 -1027.9399
-34.417198 -32.101501 -1027.09
-34.365898 -32.446098 -1026.3199
-35.0825 -32.609798 -1024.9399
-35.708401 -32.282299 -1024.96
-36.434399 -32.930801 -1022.36
-36.458599 -33.414799 -1021.1
-37.598202 -36.020802 -1012.13
10.4622 -39.151901 -1056.38
8.4285898 -38.317402 -1056.4
6.79108 -37.6786 -1056.28
6.0149498 -37.6306 -1055.61
5.05164 -37.385502 -1055.29
3.9033799 -36.937801 -1055.04
2.47491 -36.389702 -1054.96
1.3498501 -36.0774 -1054.5601
0.109314 -35.7295 -1054.27
-2.2801499 -35.027802 -1053.72
-3.57568 -34.4715 -1053.65
-4.1878099 -34.5742 -1052.89
-5.2871699 -34.193802 -1052.66
-6.5392499 -33.608898 -1052.8101
-7.4187002 -33.370201 -1052.47
-8.2700195 -33.144699 -1052.15
-8.7835102 -33.194401 -1051.54
-9.7409096 -32.931099 -1051.22
-10.5537 -32.769001 -1050.83
-11.2904 -32.539398 -1050.53
-12.0042 -32.356499 -1050.22
-12.6098 -32.267399 -1049.71
-13.286 -32.150002 -1049.3199
-13.9626 -32.025398 -1049.01
-14.7893 -31.719 -1048.8101
-15.348 -31.679001 -1048.37
-15.8146 -31.7013 -1047.8199
-16.777599 -31.3372 -1047.73
-17.383301 -31.186899 -1047.27
-17.8622 -31.1922 -1046.8101
-18.360701 -31.1476 -1046.4399
-19.754801 -31.0847 -1045.0699
-20.3906 -30.9161 -1044.79
-20.674299 -31.033501 -1044.2
-21.392 -30.7665 -1044.02
-21.7367 -30.8731 -1043.4399
-22.1513 -30.875 -1042.99
-22.883699 -30.5821 -1042.84
-22.9702 -30.9021 -1042.01
-23.606701 -30.696301 -1041.79
-24.0182 -30.688 -1041.3101
-24.499901 -30.5877 -1040.98
-24.9279 -30.5758 -1040.59
-25.200399 -30.655399 -1040.05
-26.035 -30.629999 -1039.23
-26.3032 -30.746099 -1038.65
-26.8237 -30.5746 -1038.38
-27.4902 -30.6626 -1037.41
-28.003201 -30.8486 -1036.34
-28.628799 -30.590099 -1036.22
-28.7131 -30.8449 -1035.51
-29.5508 -31.0182 -1034.05
-30.693199 -30.938101 -1032.92
-31.3407 -31.0123 -1032.01
-31.586901 -31.1145 -1031.45
-32.129902 -31.125299 -1030.67
-33.039799 -31.181299 -1029.4399
-33.031101 -31.5914 -1028.54
-33.507099 -31.459499 -1028.23
-34.032001 -31.2799 -1028.04
-34.5737 -31.391701 -1027.13
-34.437698 -31.801399 -1026.26
-35.198898 -31.607401 -1025.75
-35.705799 -31.6856 -1024.87
-35.776402 -32.1805 -1023.52
-36.531601 -32.697399 -1021.08
-37.011501 -33.455799 -1018.42
-37.530499 -33.678799 -1017.1
-37.995201 -35.8255 -1010.53
10.2026 -38.225399 -1056.63
8.9941397 -37.967701 -1056.04
5.52039 -36.912601 -1055.0699
4.2437701 -36.542301 -1054.66
2.44629 -35.742199 -1054.85
1.03424 -35.285599 -1054.6
-0.558716 -34.585098 -1054.67
-1.47247 -34.541599 -1054.02
-2.58112 -34.139198 -1053.83
-3.5369899 -33.949402 -1053.47
-4.7681899 -33.577702 -1053.23
-5.3958702 -33.5471 -1052.55
-6.51337 -33.0541 -1052.5601
-7.2827101 -32.931999 -1052.1801
-8.1899405 -32.608501 -1051.92
-10.2346 -32.052502 -1051.3
-10.7236 -32.016899 -1050.8
-11.3597 -31.8666 -1050.46
-12.0663 -31.714001 -1050.12
-12.762 -31.5819 -1049.72
-13.5351 -31.3507 -1049.4301
-14.6739 -31.2278 -1048.53
-15.244 -31.1637 -1048.14
-15.8786 -31.023199 -1047.75
-16.6924 -30.783501 -1047.55
-17.3953 -30.6021 -1047.13
-18.3354 -30.576 -1046.24
-18.960501 -30.4128 -1045.96
-19.4426 -30.408701 -1045.47
-19.9886 -30.3172 -1045.13
-20.3629 -30.3484 -1044.62
-20.869101 -30.2593 -1044.24
-21.482599 -30.0912 -1043.97
-21.747101 -30.240299 -1043.33
-22.309 -30.1096 -1043.01
-22.5007 -30.336201 -1042.3101
-23.113701 -30.1499 -1042.05
-23.7451 -29.948299 -1041.78
-24.174299 -29.9804 -1041.33
-24.4645 -30.043301 -1040.8
-24.7862 -30.096201 -1040.25
-25.248199 -30.0338 -1039.92
-25.763201 -29.9382 -1039.59
-26.129999 -29.9603 -1039.1
-26.3661 -30.0846 -1038.53
-27.0312 -30.1546 -1037.61
-27.390301 -30.1647 -1037.16
-28.048201 -29.889999 -1037.08
-28.584101 -30.0329 -1036.04
-28.773399 -30.178301 -1035.46
-29.0511 -30.255199 -1034.98
-29.6724 -30.343901 -1034.08
-30.1476 -30.193899 -1033.8101
-30.608999 -30.441401 -1032.71
-31.135201 -30.6001 -1031.66
-31.6469 -30.460899 -1031.39
-32.317699 -30.9825 -1029.26
-33.517799 -30.8309 -1028.17
-34.447601 -30.8801 -1026.9399
-34.775799 -31.1346 -1025.87
-35.261299 -30.9478 -1025.72
-35.4417 -31.312201 -1024.52
-35.657398 -31.673201 -1023.32
-35.727402 -32.130402 -1022.04
-36.437599 -32.176399 -1020.89
-36.993999 -32.878601 -1018.3
-37.090302 -33.2458 -1017.12
-37.720001 -33.5746 -1015.4
-37.9119 -35.074902 -1010.88
13.3029 -39.098499 -1055.92
8.2938805 -37.148102 -1055.5
7.09375 -36.863201 -1055.11
4.2155199 -35.964298 -1054.51
2.3084099 -35.085499 -1054.64
-0.70849597 -33.931301 -1054.58
-1.66394 -33.7939 -1054.08
-2.56622 -33.6147 -1053.59
-3.6663201 -33.250702 -1053.36
-4.8513799 -32.886101 -1053.13
-5.9541602 -32.479599 -1052.95
-6.8066401 -32.238602 -1052.66
-7.4804101 -32.155998 -1052.16
-9.4869404 -31.7449 -1051.35
-10.2723 -31.4195 -1051.17
-10.9108 -31.248699 -1050.91
-11.4795 -31.179399 -1050.42
-12.9254 -30.8174 -1049.73
-14.6659 -30.6581 -1048.38
-15.334 -30.4734 -1048.0699
-15.924 -30.403099 -1047.67
-16.583799 -30.2708 -1047.33
-17.859301 -30.049999 -1046.45
-18.868299 -29.938101 -1045.67
-19.510401 -29.7444 -1045.42
-19.944201 -29.737499 -1044.97
-20.479401 -29.6565 -1044.62
-20.9282 -29.616301 -1044.1801
-21.277 -29.6959 -1043.63
-21.8197 -29.604601 -1043.26
-22.287201 -29.5583 -1042.86
-22.7334 -29.5284 -1042.41
-23.222 -29.469299 -1042.02
-23.758101 -29.369101 -1041.61
-24.0762 -29.477501 -1041.02
-25.145599 -29.2409 -1040.41
-25.445 -29.348 -1039.91
-26.2395 -29.3487 -1039.03
-27.133699 -29.1597 -1038.39
-27.464199 -29.5086 -1037.12
-27.9944 -29.353901 -1036.89
-28.1656 -29.5326 -1036.25
-28.635099 -29.711201 -1035.1801
-29.174801 -29.583599 -1034.99
-29.5525 -29.865499 -1033.8101
-30.2868 -29.4718 -1033.8199
-30.644899 -29.8008 -1032.63
-31.655001 -29.8601 -1031.28
-32.1437 -29.9646 -1030.4
-32.723099 -30.032801 -1029.47
-34.031601 -30.097 -1027.83
-34.759602 -30.489901 -1025.83
-35.481201 -30.6845 -1024.4399
-35.702 -31.0285 -1023.29
-36.3843 -31.129499 -1022.06
-36.563202 -31.9814 -1019.61
-36.951199 -32.330799 -1018.11
-37.156101 -32.601799 -1017.08
-37.900799 -34.485901 -1010.78
11.9019 -38.032299 -1055.53
10.0342 -37.132999 -1055.77
9.0189199 -37.0112 -1055.03
6.4246202 -35.6381 -1055.6899
4.9587998 -35.295399 -1055.28
3.38678 -34.782799 -1055.1
0.82269299 -34.118698 -1054.28
-0.30883801 -33.986698 -1053.78
-2.80688 -32.863899 -1053.64
-3.8461299 -32.6133 -1053.35
-5.15521 -32.088902 -1053.22
-6.6949501 -31.7999 -1052.41
-9.1912804 -31.0277 -1051.95
-9.9152203 -30.8041 -1051.62
-10.3444 -30.797001 -1051.13
-10.6683 -30.892401 -1050.54
-11.467 -30.641399 -1050.27
-12.0661 -30.5755 -1049.8
-12.6601 -30.5406 -1049.34
-13.3965 -30.374399 -1049.02
-14.1526 -30.156799 -1048.75
-14.9236 -29.900499 -1048.5
-15.336 -29.9657 -1047.9399
-15.8873 -29.881701 -1047.51
-16.5585 -29.768 -1047.16
-17.277599 -29.5418 -1046.87
-17.886801 -29.496 -1046.39
-18.448099 -29.406799 -1045.98
-18.878099 -29.4102 -1045.54
-19.406099 -29.3111 -1045.1801
-19.741899 -29.372 -1044.63
-20.810499 -29.2062 -1043.95
-21.351801 -29.0902 -1043.59
-22.253099 -29.0478 -1042.7
-22.8379 -28.917601 -1042.39
-23.7612 -28.910999 -1041.4301
-24.7155 -28.783501 -1040.65
-25.1661 -28.7439 -1040.27
-25.899099 -28.774099 -1039.38
-26.437799 -28.630199 -1039.11
-26.4625 -28.9203 -1038.35
-27.0881 -28.6565 -1038.26
-27.6593 -28.7819 -1037.22
-28.6637 -28.836599 -1035.92
-29.507401 -29.0175 -1034.48
-30.131701 -29.1043 -1033.5699
-30.1574 -29.3957 -1032.78
-30.7246 -29.1765 -1032.58
-31.3067 -29.321301 -1031.62
-31.635401 -29.3363 -1031.15
-32.8447 -29.500299 -1029.36
-33.4114 -29.5877 -1028.46
-33.646 -29.6779 -1027.95
-33.990601 -29.8953 -1026.89
-34.3139 -30.1105 -1025.9301
-35.124802 -29.898199 -1025.4301
-35.513199 -30.123699 -1024.4
-35.919601 -30.808599 -1022.04
-36.237499 -30.996099 -1021.11
-36.547001 -31.4534 -1019.49
-37.0182 -31.2348 -1019.39
13.8287 -38.112801 -1055.89
12.4307 -37.647099 -1055.45
10.1534 -36.497799 -1055.9
8.5643902 -36.053101 -1055.41
7.3908701 -36.054501 -1054.53
5.2381601 -35.0975 -1054.71
2.9957299 -34.002998 -1055.16
1.65912 -33.752499 -1054.72
-0.65264899 -33.0951 -1054.01
-1.92572 -32.508099 -1053.97
-2.6854899 -32.4538 -1053.37
-4.0476699 -31.889099 -1053.39
-5.8407602 -31.537901 -1052.5
-6.82831 -31.209499 -1052.08
-8.2910204 -30.831499 -1051.98
-9.3709097 -30.3528 -1051.92
-9.6478901 -30.4816 -1051.29
-10.675 -30.344299 -1050.45
-11.5167 -30.080099 -1050.2
-11.9192 -30.210501 -1049.54
-12.8155 -29.8724 -1049.34
-14.3032 -29.481199 -1048.76
-14.8804 -29.4217 -1048.3199
-15.3903 -29.368601 -1047.87
-16.690901 -29.085199 -1047.1899
-17.8936 -28.959 -1046.36
-18.6514 -28.703501 -1046.0699
-19.496901 -28.703501 -1045.14
-20.0193 -28.613899 -1044.8101
-20.4666 -28.598301 -1044.33
-20.9196 -28.566999 -1043.9301
-21.2341 -28.6728 -1043.36
-22.2917 -28.4888 -1042.63
-22.909401 -28.349001 -1042.33
-23.1644 -28.500799 -1041.67
-23.688801 -28.4363 -1041.26
-24.2789 -28.280199 -1040.96
-25.462999 -28.278299 -1039.64
-27.130699 -28.0851 -1038.22
-27.5333 -28.383101 -1036.98
-27.965 -28.3293 -1036.64
-28.6021 -28.387501 -1035.74
-29.0385 -28.600201 -1034.64
-29.5748 -28.421801 -1034.45
-30.2542 -28.445601 -1033.59
-30.240299 -28.807199 -1032.77
-30.737499 -28.6555 -1032.51
-31.3517 -28.769699 -1031.53
-31.6651 -28.779499 -1031.08
-32.217701 -28.6215 -1030.91
-33.419899 -28.8134 -1029.04
-33.6689 -29.1661 -1027.83
-34.200001 -29.2152 -1026.99
-34.657501 -29.576401 -1025.47
-35.566502 -29.5338 -1024.38
-35.679001 -29.982901 -1023.05
-35.986599 -30.2428 -1021.99
-36.1357 -30.5791 -1020.86
-36.737202 -30.5037 -1020.28
-37.230099 -31.253 -1017.58
-37.6292 -32.000801 -1015
-37.754299 -32.332401 -1013.88
15.0844 -38.138199 -1055.36
13.3373 -37.513802 -1055.0699
10.4427 -36.0527 -1055.63
6.06287 -34.503799 -1055.49
3.1175499 -33.623299 -1054.87
1.68329 -33.187099 -1054.54
0.81488001 -33.136101 -1053.85
-0.48767099 -32.676102 -1053.72
-2.90131 -31.7936 -1053.45
-4.0762901 -31.384399 -1053.24
-5.19946 -31.0142 -1053.04
-6.2384 -30.692301 -1052.62
-7.2428002 -30.7439 -1051.9399
-9.6255503 -29.902901 -1051.25
-10.0355 -29.924299 -1050.71
-11.5553 -29.566999 -1050.12
-12.1172 -29.552 -1049.61
-12.6077 -29.549601 -1049.01
-13.6068 -29.1695 -1048.9399
-14.9548 -28.8606 -1048.29
-15.3865 -28.870001 -1047.74
-16.0795 -28.6824 -1047.45
-17.164101 -28.592501 -1046.5699
-17.858601 -28.411501 -1046.24
-18.622 -28.220301 -1045.9399
-19.1043 -28.211599 -1045.47
-19.6373 -28.0907 -1045.14
-19.9279 -28.210501 -1044.58
-20.296101 -28.2523 -1044.03
-21.3172 -28.066999 -1043.34
-22.2418 -28.006001 -1042.49
-22.765301 -27.950001 -1042.09
-23.065201 -28.067801 -1041.5
-23.7132 -27.869301 -1041.22
-24.2321 -27.818701 -1040.85
-24.576401 -27.8556 -1040.3199
-25.1511 -27.7036 -1040.08
-25.415501 -27.788 -1039.53
-26.1269 -27.7729 -1038.6899
-26.2026 -28.096701 -1037.89
-27.942499 -27.819901 -1036.52
-28.1408 -27.958799 -1035.9399
-29.082001 -28.0781 -1034.58
-29.6569 -27.8659 -1034.4301
-29.549601 -28.302299 -1033.51
-30.3873 -27.8309 -1033.65
-30.6637 -28.2395 -1032.3
-32.034599 -28.311701 -1030.53
-32.471001 -28.2528 -1030.2
-33.459202 -28.240601 -1029.03
-34.0425 -28.5847 -1027.4399
-34.317902 -28.8589 -1026.37
-34.715801 -28.994499 -1025.4399
-35.4244 -29.4786 -1023.32
-36.1814 -30.025 -1020.84
-36.597401 -30.3601 -1019.36
-36.972401 -30.2542 -1019.18
-37.053699 -31.1413 -1016.68
-37.5495 -31.3437 -1015.39
-38.065701 -32.982101 -1010.06
15.8597 -37.835899 -1055.22
10.9424 -36.081402 -1054.9301
6.8495498 -34.7052 -1054.53
5.2961998 -34.1535 -1054.29
0.283508 -32.264999 -1054.13
-0.80896002 -31.861401 -1053.92
-1.9776599 -31.429701 -1053.74
-3.2686801 -30.945601 -1053.63
-4.3613901 -30.615499 -1053.3199
-5.7711802 -30.0119 -1053.21
-6.5447402 -30.2414 -1052.34
-7.7571402 -29.748699 -1052.28
-8.5525503 -29.459101 -1052.0699
-8.8290396 -29.627001 -1051.38
-9.9957304 -29.420099 -1050.55
-10.7252 -29.306 -1050.24
-11.5671 -29.021 -1049.98
-12.2167 -28.9093 -1049.58
-12.8363 -28.8414 -1049.11
-13.6508 -28.5937 -1048.86
-14.1656 -28.556299 -1048.41
-15.0129 -28.2619 -1048.24
-15.411 -28.3326 -1047.66
-15.9707 -28.258101 -1047.23
-16.6938 -28.028299 -1046.9399
-17.9732 -27.795601 -1046.26
-18.357 -27.905899 -1045.58
-19.5881 -27.5986 -1044.96
-20.391399 -27.6511 -1044.02
-20.921301 -27.518299 -1043.7
-21.4298 -27.4634 -1043.3199
-22.878799 -27.304701 -1042.11
-23.3027 -27.314899 -1041.62
-24.243 -27.2346 -1040.78
-24.5026 -27.369301 -1040.21
-25.322001 -27.3377 -1039.37
-27.062201 -27.0849 -1037.97
-27.946501 -27.267099 -1036.42
-28.1157 -27.474199 -1035.78
-28.577801 -27.348 -1035.51
-29.2232 -27.4093 -1034.63
-29.6537 -27.6604 -1033.51
-30.306 -27.7008 -1032.59
-30.7631 -27.6213 -1032.28
-31.0681 -27.674801 -1031.8101
-31.5026 -27.633499 -1031.4301
-31.9373 -27.5907 -1031.0699
-32.599499 -27.58 -1030.23
-32.851101 -27.6577 -1029.75
-33.376202 -27.785 -1028.86
-33.7784 -27.9767 -1027.78
-34.0765 -27.981199 -1027.42
-34.319599 -28.542 -1025.6
-34.6171 -28.5446 -1025.26
-35.018398 -28.7565 -1024.1899
-35.599499 -28.4895 -1024.16
-36.016499 -28.938801 -1022.51
-36.3853 -29.033899 -1021.67
-36.8046 -29.4014 -1020.21
-37.046299 -30.579399 -1016.64
-37.4174 -30.706699 -1015.78
-37.852402 -31.161301 -1013.83
-37.985199 -31.7033 -1012.18
16.653601 -37.5364 -1054.92
10.3121 -35.264301 -1054.66
7.8991699 -34.296799 -1054.98
4.4053302 -32.9198 -1054.9
2.39575 -32.1647 -1054.87
1.43207 -31.8568 -1054.4301
-1.09326 -31.051201 -1054.04
-1.98474 -30.9165 -1053.52
-2.9384799 -30.709101 -1053.0699
-3.9356101 -30.4069 -1052.73
-6.9688702 -29.406 -1052.4399
-7.5510302 -29.2698 -1052.01
-8.3251305 -29.014999 -1051.85
-9.6463003 -28.6597 -1051.21
-9.9948702 -28.865 -1050.47
-10.8648 -28.576799 -1050.23
-11.7283 -28.297899 -1050.01
-12.9116 -28.216 -1049.09
-13.5151 -28.127899 -1048.61
-14.169 -27.9746 -1048.28
-14.9468 -27.7505 -1048.04
-15.45 -27.7409 -1047.58
-16.3013 -27.4025 -1047.4301
-16.6968 -27.4758 -1046.85
-17.278601 -27.380699 -1046.46
-17.9662 -27.202999 -1046.15
-18.4025 -27.2668 -1045.55
-19.059999 -27.1667 -1045.16
-19.667601 -27.0065 -1044.87
-19.9816 -27.070299 -1044.38
-20.4622 -27.0189 -1043.98
-20.827499 -27.0406 -1043.48
-21.462601 -26.870701 -1043.22
-21.919001 -26.8515 -1042.8101
-22.330299 -26.826 -1042.33
-22.923401 -26.7068 -1042.03
-23.7465 -26.7209 -1041.0699
-24.141701 -26.730301 -1040.65
-24.402 -26.833099 -1040.0601
-25.2418 -26.754499 -1039.3
-25.8409 -26.549801 -1039.05
-26.1348 -26.632999 -1038.53
-26.5667 -26.6208 -1038.15
-26.8554 -26.703501 -1037.63
-27.0888 -26.8202 -1037.04
-27.9314 -26.7348 -1036.28
-28.160299 -26.8477 -1035.73
-28.712299 -26.683901 -1035.55
-29.189301 -26.865499 -1034.49
-29.5368 -26.8608 -1034.09
-29.6968 -27.059799 -1033.46
-30.301201 -27.1478 -1032.47
-30.902399 -26.9555 -1032.27
-31.186701 -27.064199 -1031.7
-31.491699 -27.1129 -1031.23
-32.415298 -27.2008 -1029.9399
-32.908401 -27.0156 -1029.76
-33.361198 -27.1984 -1028.79
-33.6432 -27.4835 -1027.59
-33.983002 -27.4531 -1027.29
-34.490501 -27.818501 -1025.7
-34.788799 -27.8456 -1025.3
-35.008499 -28.206699 -1024.09
-35.317001 -28.474501 -1023.02
-36.0359 -28.280701 -1022.54
-36.288502 -28.527901 -1021.55
-36.6619 -28.914 -1020.01
-36.865398 -30.1208 -1016.43
-37.144402 -30.334101 -1015.46
-37.556599 -31.0739 -1012.85
9.7000704 -34.514099 -1054.65
7.3884902 -33.436798 -1055.02
5.9556899 -33.0299 -1054.71
4.2127099 -32.247299 -1054.79
0.0209351 -30.879 -1054.13
-1.20441 -30.4093 -1053.99
-1.93896 -30.380501 -1053.38
-4.8085299 -29.5077 -1052.76
-6.1833501 -28.999701 -1052.72
-7.2108202 -28.5935 -1052.5601
-7.48138 -28.722601 -1051.92
-8.1022902 -28.5791 -1051.59
-8.6802998 -28.491699 -1051.22
-9.65277 -28.0912 -1051.11
-10.3956 -27.9596 -1050.72
-10.6534 -28.200701 -1049.92
-11.5104 -27.939301 -1049.6801
-12.8817 -27.657801 -1048.89
-14.7394 -27.364401 -1047.71
-15.4472 -27.173201 -1047.46
-16.5583 -27.053101 -1046.5699
-17.2771 -26.8242 -1046.33
-17.646999 -26.936001 -1045.7
-19.082199 -26.5749 -1045.0699
-19.8286 -26.676901 -1044.0601
-21.033199 -26.294201 -1043.58
-21.3813 -26.3871 -1043.03
-21.8519 -26.3246 -1042.59
-22.378401 -26.250799 -1042.24
-22.767599 -26.295099 -1041.71
-23.1728 -26.3097 -1041.26
-24.1015 -26.184299 -1040.51
-24.452801 -26.221001 -1040.04
-24.9818 -26.0951 -1039.75
-25.145 -26.2623 -1039.12
-26.086 -26.149599 -1038.38
-26.2612 -26.348 -1037.72
-26.928801 -26.0816 -1037.59
-27.0415 -26.307899 -1036.87
-27.945601 -26.1504 -1036.23
-28.0515 -26.418699 -1035.5
-28.495199 -26.3148 -1035.2
-28.6975 -26.4625 -1034.64
-29.6101 -26.6082 -1033.26
-30.987499 -26.3631 -1032.17
-31.531601 -26.561501 -1031.14
-31.974701 -26.456499 -1030.86
-32.422199 -26.6304 -1029.85
-32.7444 -26.9284 -1028.71
-33.400101 -26.583401 -1028.72
-33.6105 -26.962099 -1027.49
-34.093399 -26.806101 -1027.3
-34.3946 -27.0634 -1026.25
-34.953201 -27.4063 -1024.71
-35.475399 -27.4774 -1023.87
-35.770401 -28.655899 -1020.25
-36.7397 -29.6367 -1016.25
-37.327999 -29.8034 -1015.07
-37.571201 -31.087099 -1011.05
10.8392 -33.973202 -1055.48
6.8826299 -32.537399 -1055.05
5.3478999 -31.993999 -1055.03
2.3322101 -30.9417 -1054.59
1.62366 -30.9844 -1053.8199
-1.20813 -29.8545 -1053.78
-2.2312601 -29.572001 -1053.41
-4.0967999 -29.0772 -1053.09
-5.45117 -28.485399 -1053.09
-6.1491699 -28.4095 -1052.59
-7.3764601 -28.1786 -1051.79
-7.85742 -28.1623 -1051.33
-8.7127705 -27.841 -1051.15
-9.4197397 -27.7097 -1050.76
-10.0716 -27.655001 -1050.3199
-10.802 -27.468 -1049.97
-11.6479 -27.240101 -1049.65
-12.4214 -27.0282 -1049.4
-12.8661 -27.1024 -1048.71
-13.5546 -26.968599 -1048.39
-14.1108 -26.891399 -1047.97
-15.0086 -26.5602 -1047.86
-15.597 -26.471001 -1047.46
-16.1752 -26.3806 -1047.04
-16.7342 -26.3269 -1046.59
-17.2017 -26.3263 -1046.15
-17.889 -26.1654 -1045.85
-18.401199 -26.115499 -1045.39
-19.1436 -25.923599 -1045.02
-19.4897 -26.0275 -1044.39
-19.9564 -25.984501 -1044.0601
-21.0741 -25.6903 -1043.5
-21.4564 -25.737499 -1042.95
-21.7628 -25.867201 -1042.36
-22.972799 -25.550501 -1041.8199
-23.243299 -25.662701 -1041.22
-23.822901 -25.505501 -1040.96
-24.121 -25.5681 -1040.42
-24.3955 -25.6933 -1039.88
-24.9056 -25.5618 -1039.5601
-25.191799 -25.6602 -1039.04
-25.9786 -25.684099 -1038.15
-26.8134 -25.5735 -1037.39
-27.1036 -25.663401 -1036.8199
-27.6357 -25.5431 -1036.55
-28.0089 -25.551001 -1036.15
-28.7623 -25.816401 -1034.5699
-30.2789 -25.6954 -1033.08
-30.558901 -25.831699 -1032.48
-31.471201 -25.726299 -1031.74
-32.002899 -25.8344 -1030.8
-32.122002 -26.0159 -1030.16
-33.379902 -26.035999 -1028.6
-33.3228 -26.376499 -1027.77
-33.793598 -26.506599 -1026.85
-34.391998 -26.445801 -1026.23
-34.632801 -26.7927 -1025.05
-34.727699 -27.2425 -1023.71
-35.7029 -27.3363 -1022.16
-35.822201 -28.0105 -1020.25
-36.573399 -28.485399 -1017.9
-37.5923 -29.5425 -1013.54
-37.75 -30.0819 -1011.86
-37.5009 -30.5226 -1010.96
-37.8433 -30.660601 -1010.11
8.4080801 -32.419601 -1055.24
6.9928598 -32.163502 -1054.6
5.3015699 -31.3696 -1054.79
3.9646599 -31.083599 -1054.38
2.09027 -30.122801 -1054.64
1.41925 -30.270399 -1053.75
0.00598145 -29.6535 -1053.84
-0.99359101 -29.4482 -1053.41
-6.5896602 -27.7598 -1052.02
-7.9286499 -27.4881 -1051.33
-8.8905001 -27.087999 -1051.22
-9.4733295 -27.072201 -1050.6899
-10.259 -26.912901 -1050.34
-10.8621 -26.880699 -1049.8199
-11.7714 -26.542299 -1049.65
-12.9546 -26.4643 -1048.6801
-13.7104 -26.2432 -1048.41
-14.1956 -26.218599 -1047.89
-14.8013 -26.1714 -1047.5
-15.5804 -25.9112 -1047.27
-16.305901 -25.696699 -1047.01
-16.675699 -25.803499 -1046.42
-17.130199 -25.7773 -1045.9301
-18.0361 -25.4245 -1045.85
-18.554399 -25.387501 -1045.38
-19.3402 -25.2059 -1045.05
-19.6381 -25.3372 -1044.38
-20.0518 -25.309401 -1043.97
-20.5334 -25.2467 -1043.65
-20.9091 -25.2705 -1043.1801
-21.489901 -25.123699 -1042.84
-21.8859 -25.1828 -1042.35
-23.0201 -24.9149 -1041.77
-23.1122 -25.189899 -1040.97
-23.556 -25.1486 -1040.58
-24.093 -25.0219 -1040.25
-24.457001 -25.059799 -1039.8
-26.3971 -25.0448 -1037.63
-26.8113 -24.998199 -1037.27
-27.466999 -25.103001 -1036.26
-28.7836 -24.8701 -1035.3
-28.7008 -25.2728 -1034.41
-29.0909 -25.2232 -1034.0601
-29.5571 -25.4475 -1032.99
-30.3032 -25.070801 -1033.01
-30.5287 -25.284401 -1032.33
-30.964399 -25.247101 -1031.89
-31.3908 -25.197901 -1031.5601
-32.0504 -25.2087 -1030.73
-32.388401 -25.4666 -1029.62
-32.798698 -25.3582 -1029.37
-33.304901 -25.5096 -1028.4
-33.815701 -26.123699 -1026.15
-34.271301 -25.9035 -1026.0601
-35.1726 -26.434601 -1023.57
-35.022999 -26.842699 -1022.67
-36.060902 -26.8995 -1021.18
-36.477798 -27.971201 -1017.69
-36.9137 -28.0501 -1016.91
-37.301899 -29.443701 -1012.49
-37.9963 -30.2759 -1009.16
11.2181 -33.025501 -1054.77
6.5159898 -31.193199 -1054.78
5.0949702 -30.694201 -1054.7
4.2820401 -30.7192 -1053.87
1.76343 -29.2948 -1054.76
1.09656 -29.395399 -1053.92
-0.150452 -28.9438 -1053.8
-1.2074 -28.684999 -1053.41
-3.1394 -28.0902 -1053.22
-4.1991 -27.746201 -1052.97
-4.9972501 -27.519199 -1052.63
-7.0504198 -27.108 -1051.45
-8.6688204 -26.6826 -1050.88
-9.1372099 -26.780199 -1050.22
-10.8664 -26.2609 -1049.72
-11.65 -26.0201 -1049.4301
-12.3405 -25.8997 -1049
-12.9278 -25.875601 -1048.53
-13.6866 -25.659901 -1048.23
-15.72 -25.188299 -1047.29
-16.194901 -25.197599 -1046.78
-16.666599 -25.186001 -1046.27
-17.4412 -24.920601 -1046.0699
-17.936199 -24.936501 -1045.5699
-18.777 -24.606199 -1045.4
-19.460199 -24.513599 -1045
-19.791 -24.630699 -1044.36
-20.7736 -24.439301 -1043.71
-21.105301 -24.526699 -1043.17
-21.927299 -24.569799 -1042.1801
-22.530199 -24.3895 -1041.96
-23.178699 -24.5348 -1040.89
-23.614401 -24.4965 -1040.47
-24.605 -24.3302 -1039.8199
-25.056999 -24.2675 -1039.45
-25.2059 -24.468901 -1038.8
-25.658899 -24.421801 -1038.4399
-26.2015 -24.285601 -1038.17
-26.2861 -24.5473 -1037.39
-27.4991 -24.491699 -1036.1801
-27.9547 -24.397699 -1035.87
-28.639999 -24.7323 -1034.24
-29.1103 -24.619801 -1033.99
-29.372601 -24.672501 -1033.49
-30.383699 -24.7817 -1032.09
-31.3067 -24.6541 -1031.46
-32.1171 -24.547199 -1030.74
-32.3783 -24.8615 -1029.58
-33.237701 -24.9956 -1028.24
-33.1833 -25.303101 -1027.4301
-33.719398 -25.3391 -1026.65
-34.071602 -25.746901 -1025.0699
-34.2761 -25.83 -1024.62
-35.156601 -25.8162 -1023.5
-35.364101 -26.158001 -1022.31
-35.623299 -26.1756 -1021.92
-36.037102 -26.3113 -1021.05
-36.1413 -26.8078 -1019.7
-36.736599 -26.893801 -1018.55
-36.979198 -27.382299 -1016.9
-36.997101 -28.049299 -1015.06
8.1177397 -31.177401 -1054.91
4.8615699 -29.8862 -1054.72
4.0124502 -29.932199 -1053.89
2.4245 -29.3267 -1053.75
0.93383801 -28.636 -1053.95
-0.113159 -28.4044 -1053.58
-5.0410199 -26.7621 -1052.76
-5.5548701 -26.795099 -1052.09
-6.4236498 -26.5618 -1051.73
-6.9442101 -26.586901 -1051.17
-7.9380498 -26.254 -1051.0699
-8.7960196 -25.9823 -1050.85
-9.6802998 -25.707001 -1050.59
-10.3566 -25.614401 -1050.16
-11.2018 -25.349899 -1049.91
-11.8104 -25.3102 -1049.41
-13.9335 -24.8531 -1048.3
-14.2032 -25.059601 -1047.6
-15.0139 -24.8016 -1047.42
-15.5483 -24.749701 -1046.9399
-16.5821 -24.266899 -1046.95
-16.9694 -24.340099 -1046.36
-17.661699 -24.1824 -1046.0601
-18.225201 -24.125299 -1045.61
-18.854601 -24.0214 -1045.24
-19.348801 -24.0513 -1044.67
-19.910601 -23.9883 -1044.28
-20.413 -23.893101 -1043.91
-20.872601 -23.883101 -1043.5
-21.3743 -23.8008 -1043.15
-22.3729 -23.6506 -1042.38
-22.748501 -23.699499 -1041.91
-23.698 -23.5644 -1041.16
-24.189301 -23.800301 -1039.96
-24.842699 -23.561899 -1039.8199
-25.344999 -23.7883 -1038.71
-25.7915 -23.7251 -1038.38
-26.1325 -23.756701 -1037.89
-26.331499 -23.8988 -1037.3101
-28.114901 -23.965099 -1035.14
-29.105 -24.0128 -1033.88
-29.5035 -23.9571 -1033.54
-30.171301 -23.9832 -1032.6899
-30.721901 -24.184401 -1031.58
-30.9865 -24.245701 -1031.15
-31.933399 -24.022301 -1030.54
-32.242298 -24.302601 -1029.45
-32.168999 -24.658001 -1028.7
-33.745701 -24.632 -1026.7
-34.769299 -25.0145 -1024.39
-35.014801 -25.3269 -1023.25
-35.702301 -25.499201 -1021.92
-35.901001 -25.847601 -1020.81
-36.222801 -26.118601 -1019.71
-36.5079 -26.7736 -1017.51
-36.986099 -26.7929 -1016.81
-37.338402 -27.786501 -1013.54
6.4155898 -30.0508 -1054.4399
3.5483999 -29.0259 -1054.2
0.83111602 -28.0154 -1053.9301
-0.31195101 -27.6735 -1053.67
-2.7597001 -27.0207 -1052.96
-3.8376501 -26.614799 -1052.76
-7.3694501 -25.7813 -1051.34
-8.1735201 -25.534401 -1051.15
-8.7032499 -25.5378 -1050.62
-10.3096 -25.1208 -1049.98
-11.0804 -24.8997 -1049.65
-11.8739 -24.6852 -1049.27
-12.7719 -24.4839 -1049.03
-13.3894 -24.4235 -1048.49
-14.621 -24.224199 -1047.73
-15.3304 -24.031601 -1047.45
-16.697399 -23.772499 -1046.73
-17.037701 -23.9359 -1046.04
-19.018499 -23.4554 -1045.14
-19.599199 -23.381399 -1044.67
-19.9055 -23.490999 -1044.05
-20.905199 -23.3881 -1043.3
-21.478201 -23.243099 -1043.01
-21.954 -23.2073 -1042.6
-22.471901 -23.1192 -1042.23
-23.2999 -23.140499 -1041.33
-24.2607 -22.989901 -1040.62
-24.5208 -23.108801 -1040.02
-25.2792 -23.1222 -1039.15
-25.872 -22.9242 -1038.95
-27.166901 -22.976101 -1037.1899
-27.220301 -23.2272 -1036.46
-28.0368 -23.167601 -1035.74
-28.5555 -23.3311 -1034.76
-28.609501 -23.631001 -1034.02
-29.0245 -23.557501 -1033.7
-29.4573 -23.464199 -1033.4
-30.0951 -23.488001 -1032.51
-29.9338 -24.002199 -1031.49
-31.211201 -23.4249 -1031.36
-31.392 -23.6346 -1030.63
-32.1656 -23.785601 -1029.34
-32.218601 -24.3242 -1027.89
-33.1973 -24.314501 -1026.76
-33.5364 -24.5366 -1025.73
-33.9543 -24.6903 -1024.79
-34.412201 -24.552299 -1024.59
-35.249901 -24.598801 -1023.4
-34.897598 -25.2019 -1022.28
-35.648899 -25.0175 -1021.77
-35.930199 -25.291599 -1020.74
-36.186199 -25.599199 -1019.57
-36.5219 -25.9734 -1018.11
-37.168301 -26.7355 -1015.09
-37.7467 -28.5133 -1009.21
12.9094 -31.767799 -1054.52
9.6821899 -30.318001 -1055.13
6.2257099 -29.3622 -1054.52
3.0508399 -28.071301 -1054.46
2.15149 -28.100401 -1053.79
0.900635 -27.552799 -1053.74
0.021911601 -27.4662 -1053.15
-1.6303101 -26.8118 -1053.11
-2.85815 -26.336399 -1052.78
-4.04285 -25.988001 -1052.6801
-4.7755699 -25.8883 -1052.1801
-5.5746498 -25.788099 -1051.7
-6.7423701 -25.392799 -1051.5699
-7.4024 -25.263599 -1051.21
-8.7982197 -24.9151 -1050.61
-9.4453096 -24.8445 -1050.11
-11.3885 -24.1978 -1049.62
-13.6002 -23.872499 -1048.39
-14.2935 -23.705 -1047.99
-14.7451 -23.7297 -1047.54
-15.6945 -23.349199 -1047.51
-16.1443 -23.394501 -1046.9
-17.259501 -23.308399 -1046.02
-17.950199 -23.0882 -1045.8
-18.4126 -23.1236 -1045.26
-19.169901 -22.848 -1045.08
-20.670401 -22.6891 -1043.78
-21.030199 -22.773899 -1043.26
-22.023701 -22.687599 -1042.49
-23.077101 -22.4916 -1041.77
-23.472799 -22.4895 -1041.3
-24.2833 -22.511499 -1040.4301
-24.7656 -22.4321 -1040.05
-25.930599 -22.414301 -1038.8101
-26.264 -22.4478 -1038.28
-26.4853 -22.6196 -1037.7
-26.863199 -22.570801 -1037.33
-29.118799 -22.927099 -1033.7
-30.348801 -22.740101 -1032.6899
-30.090599 -23.2988 -1031.61
-30.567101 -23.180099 -1031.33
-31.302999 -23.1628 -1030.48
-31.739 -23.102699 -1030.13
-32.236099 -23.7607 -1027.87
-33.211102 -23.718201 -1026.75
-33.5877 -23.683001 -1026.4301
-34.056499 -23.7962 -1025.53
-34.2094 -24.1758 -1024.3
-35.0853 -24.2127 -1023.17
-35.455299 -24.6747 -1021.46
-36.251598 -25.004601 -1019.55
-37.306999 -26.7458 -1013.34
-37.577801 -28.3335 -1008.4
7.7451801 -29.3554 -1054.66
6.1977501 -28.768 -1054.45
4.4709501 -28.0406 -1054.48
1.93127 -27.368299 -1053.89
0.689026 -26.856199 -1053.73
-2.0805099 -26.0637 -1053.14
-4.05164 -25.602699 -1052.4399
-5.0592699 -25.207899 -1052.28
-5.6708398 -25.235201 -1051.6899
-6.9044199 -24.726601 -1051.64
-7.5426602 -24.6661 -1051.1899
-8.28473 -24.416 -1050.95
-9.6893902 -24.105101 -1050.21
-10.4457 -24.144699 -1049.48
-12.546 -23.373899 -1049.25
-13.6273 -23.426001 -1048.14
-15.7665 -22.841299 -1047.3
-16.086901 -23.0156 -1046.65
-17.055401 -22.5769 -1046.63
-17.435699 -22.6647 -1046.0699
-18.696501 -22.382401 -1045.38
-19.217699 -22.313601 -1045
-19.526899 -22.4485 -1044.35
-20.197701 -22.240999 -1044.08
-20.592501 -22.301399 -1043.61
-21.737101 -22.018499 -1042.98
-22.006001 -22.146 -1042.36
-22.4802 -22.137501 -1041.9399
-23.1598 -21.91 -1041.75
-23.587 -21.884701 -1041.28
-23.920401 -21.981701 -1040.77
-24.6572 -22.0263 -1039.8
-25.1689 -21.933901 -1039.5
-26.342699 -21.895201 -1038.26
-27.055201 -21.945601 -1037.3199
-27.4501 -21.9037 -1037.01
-28.2229 -22.200199 -1035.4
-28.7258 -22.306499 -1034.51
-29.0562 -22.254499 -1034.17
-30.139099 -22.738899 -1031.51
-31.848101 -22.5387 -1030.0699
-32.187099 -23.2649 -1027.76
-32.897202 -22.894501 -1027.84
-33.012901 -23.422501 -1026.45
-33.9128 -23.6714 -1024.6
-34.6287 -23.5826 -1024
-35.030201 -23.7386 -1023.03
-35.430199 -24.1824 -1021.33
-36.037701 -24.1313 -1020.69
-36.1539 -24.590099 -1019.38
-36.684601 -25.2682 -1016.83
-37.131199 -25.5186 -1015.48
-37.340599 -25.967699 -1013.9
-37.4319 -26.776899 -1011.57
7.3657799 -28.475401 -1054.8199
3.14679 -27.284401 -1053.87
1.94189 -26.8193 -1053.72
-1.56616 -25.514601 -1053.66
-2.7569001 -25.152 -1053.39
-3.44995 -25.093399 -1052.89
-4.2531099 -24.8365 -1052.5601
-5.0416298 -24.669201 -1052.1899
-5.9078398 -24.4792 -1051.8
-6.7708702 -24.284401 -1051.42
-8.0882597 -24.056601 -1050.67
-9.0949697 -23.613899 -1050.59
-9.9963398 -23.467501 -1050.15
-11.8979 -23.031 -1049.52
-12.4702 -22.962999 -1048.99
-13.1676 -22.799601 -1048.66
-13.9337 -22.622801 -1048.36
-14.4496 -22.625299 -1047.8
-15.1251 -22.442499 -1047.55
-15.8884 -22.1938 -1047.29
-16.4412 -22.1747 -1046.87
-16.811501 -22.267 -1046.27
-17.4648 -22.0779 -1045.98
-18.0105 -22.0382 -1045.5699
-18.605 -21.938999 -1045.21
-19.3071 -21.7187 -1044.97
-20.2251 -21.700899 -1044.03
-20.848801 -21.520599 -1043.76
-21.23 -21.552601 -1043.25
-21.625999 -21.5749 -1042.78
-22.1716 -21.467699 -1042.4399
-23.417101 -21.5158 -1041.05
-23.9732 -21.3876 -1040.74
-24.2603 -21.503799 -1040.15
-24.623699 -21.5331 -1039.67
-25.1821 -21.376499 -1039.4
-25.414499 -21.515699 -1038.8199
-26.3034 -21.3932 -1038.1
-26.847799 -21.2747 -1037.83
-27.4797 -21.3459 -1036.92
-27.386999 -21.752701 -1036.02
-28.339199 -21.500999 -1035.5
-28.999901 -21.548901 -1034.63
-29.3363 -21.875799 -1033.4399
-30.4487 -21.6924 -1032.35
-30.671 -22.1015 -1031.1801
-31.1439 -21.9709 -1030.88
-31.3965 -22.1353 -1030.28
-32.334202 -22.616301 -1027.83
-32.798801 -22.456301 -1027.66
-32.738602 -22.818701 -1026.79
-33.477501 -22.7227 -1026.16
-33.900002 -22.873301 -1025.21
-34.201199 -23.159901 -1024.14
-34.5158 -23.410801 -1023.03
-34.961498 -23.5529 -1022.12
-35.579899 -23.5098 -1021.44
-35.407501 -23.945 -1020.55
-35.66 -24.2027 -1019.49
-36.5219 -24.187401 -1018.44
-37.0616 -25.0483 -1015.33
-37.2957 -25.4655 -1013.76
7.8229399 -28.155399 -1054.45
5.9733901 -27.312099 -1054.59
4.9700298 -27.419399 -1053.67
2.8432 -26.478201 -1053.92
-0.0203247 -25.625601 -1053.3199
-1.75183 -24.809999 -1053.59
-3.2097199 -24.587099 -1052.71
-4.7255201 -24.317699 -1051.83
-6.8132901 -23.690901 -1051.3199
-7.4324298 -23.614901 -1050.87
-8.2680101 -23.3225 -1050.6801
-9.14746 -23.1404 -1050.3
-9.8914804 -23.024401 -1049.89
-10.7959 -22.7827 -1049.58
-11.7751 -22.4837 -1049.33
-12.4697 -22.387501 -1048.92
-13.0751 -22.2666 -1048.5601
-15.211 -21.8241 -1047.48
-15.8129 -21.7192 -1047.09
-16.8606 -21.622 -1046.24
-17.4844 -21.494801 -1045.86
-18.027 -21.4261 -1045.49
-18.524799 -21.412399 -1045
-19.1238 -21.292999 -1044.7
-19.681999 -21.1681 -1044.3101
-20.129299 -21.184601 -1043.84
-20.5965 -21.1602 -1043.42
-21.127899 -21.0814 -1043.0601
-21.564899 -21.055099 -1042.64
-22.104601 -20.9534 -1042.29
-22.576799 -20.933901 -1041.87
-22.876301 -21.0266 -1041.3
-23.4594 -20.879101 -1041.03
-23.8626 -20.8599 -1040.55
-24.798599 -20.799299 -1039.75
-25.0704 -20.9058 -1039.23
-25.5037 -20.8645 -1038.85
-25.891399 -20.852699 -1038.42
-26.696699 -20.805099 -1037.6
-26.8829 -20.9932 -1036.95
-27.475599 -20.7917 -1036.83
-28.0856 -20.8563 -1035.9399
-28.3904 -20.8654 -1035.48
-28.3566 -21.225599 -1034.64
-29.3554 -21.291401 -1033.37
-29.8629 -21.213499 -1033.02
-32.069599 -21.411501 -1029.89
-33.082401 -22.2285 -1026.36
-33.407299 -22.512199 -1025.27
-33.8531 -22.357401 -1025.09
-34.258999 -22.5492 -1024.1
-34.607101 -22.493799 -1023.79
-34.8717 -22.7896 -1022.65
-35.484402 -23.055201 -1021.25
-35.901901 -23.1436 -1020.39
-36.218399 -23.43 -1019.27
-36.656601 -24.164499 -1016.64
-36.879398 -24.6451 -1015.03
-37.1917 -25.0014 -1013.57
-37.304298 -25.5667 -1011.87
-37.668098 -26.259399 -1009.32
13.4095 -29.798901 -1054.11
11.2947 -29.4128 -1053.4301
8.3627901 -27.925501 -1054.1
5.9502001 -26.720501 -1054.52
2.8328199 -25.9252 -1053.6899
0.38745099 -24.847401 -1054.13
-0.40423599 -24.789499 -1053.49
-1.73926 -24.2868 -1053.4399
-2.0756199 -24.4869 -1052.67
-3.3128099 -23.868601 -1052.77
-4.0752001 -23.7596 -1052.28
-4.5571899 -23.8771 -1051.54
-5.9141202 -23.3766 -1051.46
-6.4918199 -23.4181 -1050.92
-7.5927701 -22.865299 -1050.96
-9.0752602 -22.693701 -1050.1
-9.5913095 -22.716499 -1049.49
-11.6537 -21.954901 -1049.29
-12.0749 -22.031 -1048.62
-12.8333 -21.8132 -1048.38
-13.8931 -21.450701 -1048.2
-14.4676 -21.458599 -1047.62
-15.0568 -21.364 -1047.24
-15.703 -21.238701 -1046.95
-16.180599 -21.1938 -1046.46
-17.0632 -20.879499 -1046.35
-17.4431 -20.973801 -1045.74
-18.0403 -20.872601 -1045.41
-18.4998 -20.861601 -1044.89
-19.0306 -20.794399 -1044.5
-19.517401 -20.7743 -1044.05
-20.080099 -20.6726 -1043.67
-20.6852 -20.5194 -1043.41
-21.0982 -20.552299 -1042.9301
-21.5576 -20.523399 -1042.52
-21.882299 -20.6056 -1041.98
-22.4091 -20.521299 -1041.62
-23.0135 -20.347 -1041.35
-23.523001 -20.278 -1040.97
-23.821501 -20.3654 -1040.42
-24.209101 -20.3995 -1039.9301
-24.708099 -20.2997 -1039.58
-24.947599 -20.4165 -1039.03
-25.4489 -20.3279 -1038.73
-25.923 -20.2418 -1038.39
-26.9363 -20.410999 -1036.95
-27.5968 -20.1064 -1036.91
-27.2262 -20.723801 -1035.73
-28.461201 -20.218599 -1035.52
-28.2988 -20.697599 -1034.51
-28.8395 -20.8451 -1033.55
-29.4706 -20.594999 -1033.4399
-30.766701 -20.461201 -1032.33
-30.9678 -20.913 -1031
-31.407301 -20.7889 -1030.74
-32.089298 -20.8857 -1029.76
-33.5009 -21.570999 -1026.03
-33.879902 -21.7747 -1025.03
-33.937801 -22.019199 -1024.36
-34.517799 -22.014799 -1023.62
-34.869301 -22.521099 -1021.84
-35.161301 -22.522699 -1021.47
-35.34 -22.854099 -1020.32
-36.116798 -22.961399 -1019.09
-36.6717 -23.582001 -1016.59
-36.866901 -24.0994 -1014.94
-37.8596 -27.125999 -1004.81
9.4905396 -27.3801 -1054.65
4.0538902 -25.7346 -1053.83
0.69671601 -24.5993 -1053.5
-0.38269001 -24.2549 -1053.27
-1.70166 -23.691099 -1053.3101
-2.1076 -23.8025 -1052.62
-3.17242 -23.365 -1052.53
-5.0876498 -22.9438 -1051.8101
-5.7590299 -22.9529 -1051.22
-6.7936401 -22.4914 -1051.12
-7.8322101 -22.1227 -1051
-8.1254902 -22.422001 -1050.08
-9.2195396 -21.9771 -1050.13
-9.81738 -21.917999 -1049.63
-10.5963 -21.7302 -1049.29
-12.5894 -21.3578 -1048.12
-13.6843 -21.0362 -1047.96
-14.3076 -20.938 -1047.46
-15.045 -20.733601 -1047.24
-16.988001 -20.332199 -1046.17
-17.4205 -20.400801 -1045.62
-18.5704 -20.220301 -1044.89
-19.0397 -20.225201 -1044.4
-19.598801 -20.1035 -1044.03
-20.077299 -20.066799 -1043.6
-20.757099 -19.867399 -1043.37
-21.114 -19.936899 -1042.84
-21.6052 -19.883101 -1042.49
-22.083 -19.813101 -1042.0601
-22.5965 -19.758699 -1041.71
-22.753099 -19.9613 -1041
-23.366899 -19.811001 -1040.7
-23.9345 -19.6891 -1040.4301
-24.2999 -19.7519 -1039.9301
-24.5303 -19.8874 -1039.3
-24.8382 -19.933901 -1038.83
-25.784 -19.736099 -1038.25
-26.1366 -19.7847 -1037.74
-26.658001 -19.650499 -1037.5
-27.0807 -20.2227 -1035.52
-27.6996 -19.9685 -1035.42
-28.8323 -19.903299 -1034.3101
-28.7791 -20.287399 -1033.4399
-29.2754 -20.144699 -1033.21
-29.781099 -20.346901 -1032.0699
-30.558399 -20.675699 -1030.53
-31.714001 -20.2847 -1030.11
-32.1022 -21.1127 -1027.29
-32.601101 -21.224199 -1026.33
-33.8643 -21.194401 -1024.91
-34.293598 -21.337601 -1023.96
-34.5098 -21.426701 -1023.5
-34.848499 -21.650299 -1022.47
-35.159698 -21.9207 -1021.38
-35.420601 -22.191601 -1020.32
-35.5965 -22.5543 -1019.14
-36.295799 -22.4846 -1018.49
-36.444698 -23.2022 -1016.25
-36.7789 -23.3379 -1015.36
-37.1437 -23.669001 -1013.89
-37.168201 -23.877701 -1013.28
-37.853901 -26.3277 -1005.36
7.86377 -26.659901 -1053.46
5.0360699 -25.4119 -1054.0699
1.49231 -23.973499 -1054.13
-0.63201898 -23.3748 -1053.53
-2.2609301 -23.0198 -1052.72
-3.20612 -22.796101 -1052.36
-4.1156001 -22.6689 -1051.9301
-5.1320801 -22.304701 -1051.75
-5.67413 -22.3617 -1051.08
-6.6546602 -22.0334 -1050.84
-7.7156401 -21.731501 -1050.6899
-8.3727398 -21.626699 -1050.17
-9.1206703 -21.4317 -1049.9
-9.7957802 -21.3473 -1049.49
-10.6279 -21.088301 -1049.21
-11.3903 -20.8643 -1048.95
-11.8719 -20.9401 -1048.37
-12.6764 -20.7045 -1048.13
-13.275 -20.6723 -1047.61
-14.0242 -20.5084 -1047.28
-15.1752 -20.335199 -1046.49
-16.236 -19.9363 -1046.39
-16.850599 -19.8687 -1045.9399
-17.451 -19.7847 -1045.55
-17.9048 -19.783199 -1045.0699
-19.0142 -19.6049 -1044.29
-19.537201 -19.5569 -1043.87
-20.190901 -19.3832 -1043.6
-20.5532 -19.4408 -1043.08
-21.6047 -19.246599 -1042.39
-22.0058 -19.2899 -1041.9
-22.480801 -19.2404 -1041.51
-22.8113 -19.3337 -1040.98
-23.3652 -19.217199 -1040.59
-23.780199 -19.223101 -1040.17
-24.634899 -19.1891 -1039.34
-25.3508 -19.4741 -1037.77
-25.9807 -19.2582 -1037.63
-26.4475 -19.159901 -1037.4
-28.065599 -19.3365 -1034.96
-28.0306 -19.6978 -1034.13
-29.418699 -19.3657 -1033.3199
-29.608601 -19.8508 -1031.9
-31.6506 -19.679399 -1030.04
-32.3433 -19.724199 -1029.14
-33.012901 -20.5439 -1025.98
-33.801102 -20.936199 -1024.03
-34.614399 -20.7316 -1023.55
-35.428902 -21.3342 -1020.91
-36.080799 -21.8099 -1018.87
